# .PCD v0.7 - Point Cloud Data file format
VERSION 0.7
FIELDS x y z
SIZE 4 4 4
TYPE F F F
COUNT 1 1 1
WIDTH 1482
HEIGHT 1
VIEWPOINT 0 0 0 1 0 0 0
POINTS 1482
DATA ascii
0.19273993 3.5689611 0.41989136
0.050077096 1.9199204 0.0055670142
0.21529481 3.5484796 0.81616056
0.22550261 3.5583272 0.6838302
0.26225758 3.5607955 0.55080831
0.28140661 3.5478361 0.81563008
0.28453106 3.5399809 0.94889617
0.0096988678 1.1372467 -0.023590803
0.3098323 3.5411005 0.94905066
0.31236187 3.5285237 1.0825257
0.33697167 3.545804 0.9498263
0.3475903 3.5378442 1.3627979
0.047151834 1.3192196 -0.01566264
0.028334826 1.1369252 -0.024465442
0.37028021 3.5396066 1.2231791
0.03397052 1.1439945 -0.02658388
0.37021464 3.5558877 0.68227983
0.20190901 2.3806002 0.023990631
0.30747217 3.1619458 0.051445335
0.36951327 3.6007175 0.14969712
0.064052463 1.3248781 -0.017736077
0.098422393 1.5734355 -0.0089717507
0.38719201 3.5528114 0.81585574
0.40604198 3.5625615 0.95272321
0.39602929 3.5970654 0.14916237
0.42855817 3.5444529 1.3659747
0.41971171 3.5786724 0.41628811
0.425304 3.5662613 0.68288946
0.24803868 2.3820512 0.022151023
0.45475221 3.5405514 1.3654439
0.064597383 1.1572019 -0.031714261
0.48174268 3.581722 0.68403947
0.10654394 1.3204577 -0.019030929
0.48966795 3.5724332 0.54878318
0.11247428 1.3234262 -0.020018637
0.58096009 3.954813 1.0184252
0.57501954 4.0139809 0.1262456
0.6111486 3.9734359 0.87048906
0.61778712 3.9631877 1.17276
0.63460845 3.991055 0.57248878
0.63629067 3.9794412 0.72107142
0.32703438 2.3607671 0.021445274
0.65071303 3.9962039 0.57264501
0.18437493 1.5595655 -0.010722309
0.67593741 3.9933686 0.42280775
0.70046866 3.9976397 0.72262049
0.52008194 3.1428401 0.045848668
0.71696317 3.9664211 1.4888318
0.27508917 1.8791282 0.0021981597
0.72956949 3.9540467 1.4858989
0.28077555 1.8699045 0.0032640398
0.75003231 3.9710331 1.0228593
0.78279769 3.9667091 1.1765244
0.80390066 4.0015583 0.57166332
0.82363677 3.9905281 1.3394176
0.82161212 3.9943538 0.72220826
0.83663893 4.0069036 0.26984942
0.16562986 1.1079682 -0.026283562
0.87557578 3.9697495 1.1793673
0.4733367 2.3499734 0.016135782
0.89538383 3.967792 1.3365121
0.9014976 3.9852176 0.87384689
0.91513729 3.9967027 0.72254288
0.93269217 3.9856291 0.87423271
0.19434205 1.1068269 -0.028392106
0.9583931 4.0012989 0.57060951
0.96270847 3.9840798 0.87438047
0.31311122 1.5367029 -0.014506966
0.52713162 2.3404708 0.014545649
0.98782706 4.0119648 0.41857332
0.99987185 3.9726815 1.1835186
1.010969 3.9769478 1.5040429
1.0266143 3.9767132 1.5047791
1.0369709 4.0008583 0.57015932
0.77012593 3.0709755 0.041536272
0.22953957 1.1112772 -0.032647729
1.0909491 3.9807482 1.5092856
1.1000923 3.9975429 0.26375103
0.29549554 1.2810295 -0.023854703
1.1187158 4.0085177 0.5702408
0.82817835 3.0583754 0.039977998
1.1427072 3.9748244 1.1888378
0.37850505 1.4935119 -0.011533797
0.86457169 3.0556533 0.038565964
1.1863667 3.9902177 0.8784706
0.32182401 1.2750025 -0.024855882
1.214059 3.965662 1.5125138
0.40683389 1.5216689 -0.018705219
1.2174586 3.9866152 0.87858069
0.89617074 3.0373368 0.038508266
1.2121285 4.0121803 0.10627003
1.230256 4.0094614 0.56990874
0.41104007 1.5161893 -0.018068016
1.2320434 4.0131617 0.26043245
1.2474433 4.01227 0.57002461
0.28026801 1.0692701 -0.027235538
1.3157792 4.0188622 0.25833055
0.96914303 2.9961281 0.03816852
1.3494084 4.0198712 0.57024479
0.44534492 1.4797562 -0.014446974
1.3567957 3.9874177 1.2001433
1.3595245 3.9657516 1.5221761
1.36876 4.0299869 0.57079989
1.3621806 3.9971838 0.72538352
1.367153 3.9967809 0.88289148
1.3793746 3.9897308 1.364399
1.3975904 4.017529 0.57004213
0.75091863 2.2621396 0.010606855
1.4112967 3.988585 1.3660327
1.3973949 4.015398 0.25633126
1.4138675 3.9811387 1.5300748
1.4325562 3.9866304 1.5328726
1.4515644 4.0253081 0.57044303
0.59806478 1.7785146 -0.003537178
1.0454675 2.9642859 0.036798
1.4484373 4.029233 0.097002208
1.4682879 3.9998126 0.88562697
0.506984 1.4863439 -0.020906627
1.4954475 4.0105691 0.25390333
1.5294058 3.9787283 1.5382136
0.63895822 1.7839493 -0.0073978305
1.5481197 3.992187 0.88672709
1.5658394 3.9983854 1.3780282
1.5688027 3.9922032 1.5448271
1.5657465 3.9936743 0.88737988
1.600673 4.0083027 0.72931349
1.6048894 4.0056043 0.88990587
1.615069 3.9931202 1.3801981
1.6216192 3.9915795 1.0505922
1.6542933 4.0042338 1.3853964
1.1912612 2.948951 0.030410796
1.6858071 4.0048952 0.73028207
0.70860064 1.776566 -0.011913121
1.6955811 4.0169444 0.8938852
1.6943302 4.0015335 1.05524
1.6966963 4.0517058 0.086506069
0.70452857 1.7481886 -0.0076940358
1.7283784 4.0068631 0.40868044
1.7477957 4.0157619 0.89532077
1.2486614 2.9327283 0.028485626
1.7788718 4.0284681 0.57094967
1.7941107 4.004837 1.3957942
1.7994853 4.0453296 0.082614243
1.8174329 4.0006609 1.0607166
0.62018836 1.4467968 -0.024918556
1.9122462 4.002727 1.2339934
1.0110567 2.1536062 0.0045033395
0.54674381 1.1991829 -0.032920212
1.9568346 4.0232635 0.24178544
1.0309768 2.1526048 0.003141135
1.9832318 3.9984908 1.2379524
1.9804394 4.0450816 0.075089991
1.9954138 3.9993629 1.5854484
1.0373983 2.144943 0.0034420192
1.9988277 4.0447855 0.074319273
2.0538807 4.0330215 0.57225257
2.0573168 4.0191283 0.90628833
2.0531988 4.0304546 0.23914188
0.69554245 1.4140917 -0.027390063
2.0708737 4.0203323 0.73878551
1.0736524 2.1352837 0.0016963184
2.0806146 4.0166607 1.0765036
2.1486018 4.0242634 0.74082839
0.86936426 1.6812245 -0.013269395
2.1480742 4.0032458 1.0782378
2.1690714 4.0267854 0.74150676
2.1711645 4.040236 0.23586527
2.2192934 4.0346365 0.40384421
2.2707608 4.0054188 1.2600287
0.92699778 1.6626921 -0.016398668
1.166558 2.0592408 0.001970768
2.3449101 4.038506 0.23108232
2.370729 4.0497665 0.57516652
0.78594929 1.3682805 -0.030258149
2.3867478 4.0504355 0.056943834
2.3907914 4.0485649 0.22973661
1.2121625 2.0646095 -0.0022637546
2.4142406 4.0172415 1.2734331
2.4254522 4.0404248 0.57509464
2.4228268 4.0450988 0.055480242
2.4736159 4.0498743 0.22740549
2.4793961 4.0374904 0.40126413
2.5036833 4.0436192 0.4011685
2.5172327 4.0264549 1.103963
2.5025308 4.0076952 0.053126395
1.0029244 1.6005419 -0.016175538
2.5892272 4.0128794 1.6560814
2.5921085 4.0239372 0.92956454
2.6020463 4.020834 1.2897425
1.30066 2.0328736 -0.0066513419
2.6214273 4.0200152 1.2912757
0.83955884 1.3118408 -0.02793625
2.6632373 4.0393023 0.93468094
2.6017327 3.972384 0.04968679
0.61169249 0.94621384 -0.043892086
2.6884315 4.0633183 0.57866538
1.3370383 2.0375202 -0.010228992
2.6855989 4.0310102 1.1158226
2.635937 3.9592924 0.048507512
2.716826 4.0172362 1.6733676
2.7439296 4.0204778 1.1183804
2.7691963 4.0452528 0.75902474
2.7941265 4.0437808 1.4986173
2.7906456 4.0268755 1.1225536
2.8042741 4.0520997 0.39852977
2.8342104 4.0398593 1.5023224
2.8367927 4.0494885 0.76143718
1.3844326 1.9909084 -0.010060251
2.8337705 4.0258508 1.1254804
2.8650961 4.0485845 0.94579417
0.63842791 0.90925562 -0.040569991
2.8930039 4.0580664 0.94826943
1.8611035 2.6299145 0.010804117
2.9005311 4.0409956 1.5100715
2.9233384 4.0415235 1.5127926
2.9388249 4.0549741 0.39739338
0.76674294 1.0620891 -0.037358075
2.9654322 4.0603867 0.39728251
1.1150208 1.5288746 -0.019536495
2.9665747 4.0511341 0.21322951
1.4417671 1.9596174 -0.012389094
3.0103283 4.0362873 1.5218952
3.0242958 4.0513196 0.9544937
3.0403244 4.0456643 1.527254
0.68492699 0.90883374 -0.048705816
3.0726063 4.0634079 0.77014923
2.9114027 3.8643041 0.038178325
3.0867906 4.0700307 0.39645392
3.0939646 4.0623012 0.77077997
1.4665999 1.931216 -0.012125492
3.1128635 4.0469408 0.95886832
1.9744763 2.5812063 0.0057975948
3.1320319 4.0450592 1.5381061
3.1609373 4.032342 1.3437252
3.1892502 4.0646343 0.77421927
3.1998022 4.0420895 1.5457931
3.2159016 4.0602374 0.96604246
2.9887965 3.794822 0.036539942
1.1953324 1.5001907 -0.025373042
3.2583725 4.042028 1.1597939
3.2929389 4.0717216 0.77841067
1.5448371 1.9105606 -0.017687351
3.3256137 4.0711398 0.39450794
3.3591113 4.0726595 0.58725089
2.0898442 2.5307093 0.00038936734
3.3835258 4.0576324 1.5716825
3.3879917 4.0421824 1.3685024
1.2464621 1.4791642 -0.029025644
1.5709203 1.8688376 -0.016584784
1.0254719 1.203747 -0.036962003
3.4352939 4.0660939 0.78315473
0.74627399 0.85507596 -0.049289793
1.6026975 1.8629096 -0.01918906
1.6043905 1.851058 -0.018346101
0.87574041 0.99108458 -0.042728662
3.5477307 4.0867405 0.59069479
1.0459605 1.1889868 -0.037857592
1.2701137 1.448891 -0.028478861
3.5417132 4.0540195 1.184552
3.5557361 4.0440249 1.7995136
3.5733304 4.0695643 0.98809558
3.214457 3.6495976 0.029350787
3.6201882 4.0705795 0.79048824
3.6298966 4.0481982 1.6020204
3.6530724 4.0535989 1.3986772
3.6512873 4.0846715 0.19253945
0.77646929 0.8391273 -0.052069217
1.3061966 1.4330968 -0.031175464
3.2426295 3.6034808 0.029263824
0.78368813 0.83267546 -0.052260846
3.7204337 4.0809512 0.39169562
0.90708232 0.96872246 -0.04441303
3.7442913 4.0909529 0.79684472
1.3151994 1.4197412 -0.030833393
0.78470558 0.82655907 -0.051296294
3.7598984 4.0839167 0.18921208
3.79373 4.0909271 0.18813947
3.813262 4.0584803 1.2085321
3.309113 3.543232 0.027491957
3.9138193 4.1016445 0.59726393
1.3544284 1.3943427 -0.033044994
3.9262896 4.071331 1.6465325
3.9529829 4.0918198 0.39026541
1.7297109 1.7646914 -0.023894459
3.9711881 4.0510564 1.8677864
3.9849825 4.0864172 0.59777218
2.3203471 2.3634186 -0.0078437924
4.0089941 4.0603786 1.8759482
1.3874553 1.3846527 -0.036257923
4.0519333 4.0867772 0.80909503
1.745514 1.7273251 -0.022559762
1.3895823 1.3549877 -0.033419251
4.0877614 4.052824 0.38852701
1.4088593 1.363664 -0.03684181
0.96377909 0.90954959 -0.045089811
4.0872374 3.982173 1.4375359
4.0831299 3.9788442 0.17959899
4.0969906 3.9619384 0.17922783
4.0935884 3.9074378 1.2156991
2.4076889 2.2935898 -0.011139005
2.4220777 2.2902265 -0.012138218
4.0863261 3.8182192 1.2044445
2.4131091 2.247885 -0.0091867745
1.8169714 1.6660562 -0.025409877
4.0818648 3.779146 1.407679
4.1056008 3.7280548 1.8272996
4.1030326 3.7262459 0.38171071
1.8515253 1.6466032 -0.02769351
2.4641671 2.2110279 -0.011514187
1.0175601 0.87033498 -0.049142838
4.1215944 3.6705251 1.6065891
1.0141331 0.85968232 -0.046917588
1.2333335 1.0591071 -0.049766809
4.1459389 3.6641407 1.6092225
4.1841707 3.6604013 1.1956205
4.2011938 3.6962214 0.17685577
2.5083697 2.1682787 -0.013063669
4.239748 3.6679425 1.6241217
4.2465715 3.6549056 1.4107528
4.2723379 3.6694777 1.6293653
4.2628632 3.6530097 1.8412811
3.7250457 3.2029264 0.013574898
1.9054966 1.5804259 -0.028790027
0.90814996 0.71116972 -0.056686968
1.0432169 0.82693636 -0.047746629
1.9027007 1.5654726 -0.027400285
4.3738999 3.6633706 1.2148842
2.5926619 2.126045 -0.018160284
4.4632192 3.6698651 1.6590408
4.5158443 3.7056422 0.37885839
1.0513035 0.80544233 -0.046281666
2.5962288 2.097121 -0.017077327
4.5509496 3.6941814 0.80501616
4.5590906 3.6929708 1.0203054
4.5610418 3.6718132 1.6747479
4.6002607 3.6765115 1.6816924
0.93270588 0.68802822 -0.058384418
3.9050169 3.1205151 0.0050620437
4.6518455 3.6940544 0.80989718
4.6479793 3.6683085 1.4643091
4.674562 3.6734872 1.9211292
1.2876347 0.95362985 -0.046344966
4.7272897 3.6913779 1.0329418
4.7379918 3.6689193 1.9323112
1.3069092 0.96091497 -0.050466865
4.8257308 3.6857212 1.0400434
4.9037819 3.6838319 1.2719548
4.959415 3.6753817 1.9757906
4.9916658 3.7109947 0.82781631
2.7585614 2.0020511 -0.026892513
1.3300862 0.90533066 -0.048322707
5.139874 3.6859865 1.532595
5.1876001 3.7221429 0.60670602
4.1671505 2.9514861 -0.0067901611
5.237977 3.6925583 1.7880577
5.254571 3.6909404 1.3104107
5.269762 3.6951721 1.5515794
2.0734832 1.4001939 -0.035941273
5.3418097 3.6893938 1.5608487
5.3832273 3.7276945 0.37477911
5.3922229 3.7112076 1.087027
5.4071789 3.6916676 2.0663085
1.1401155 0.70934975 -0.051480323
5.4839439 3.7272089 0.85416454
2.8376269 1.872823 -0.028439462
5.5602612 3.7365263 0.37410751
5.5846376 3.7068989 1.8486403
5.5828609 3.6972823 2.102366
5.6119003 3.742646 0.3739807
1.1590531 0.69575894 -0.053754896
5.6169062 3.7079558 1.6015813
5.6576576 3.7361839 0.61841118
1.4183133 0.84150565 -0.057408601
4.3686476 2.7731726 -0.015474379
5.8618002 3.7150095 1.8974411
5.8781862 3.7442098 0.3728084
4.3818121 2.7603853 -0.016041845
7.1023149 4.5336366 0.079559147
1.0388476 0.57261258 -0.066035181
7.1095333 4.4441519 0.37999544
7.1004677 4.3559055 1.8884122
4.43329 2.7025521 -0.018136322
1.7493383 0.99502599 -0.052055895
7.1037674 4.3405275 1.2772708
7.1183634 4.2908325 0.97431123
4.5341268 2.699506 -0.024475634
4.4966364 2.6538439 -0.021216959
1.4568975 0.78104401 -0.058652043
7.1059828 4.1868715 1.8704681
7.1091452 4.21947 0.079606399
7.1239319 4.1710238 1.5674616
7.1782594 4.1690826 1.5736104
7.251184 4.2006187 0.074792802
9.6653042 5.5292306 3.2238126
9.6542263 5.5149574 1.9832191
8.791482 4.9966269 0.022001624
9.6807289 5.4492288 3.2155957
9.6434898 5.4154181 1.9731953
4.6427846 2.5404782 -0.02851063
9.6782875 5.3675337 2.7874503
1.0723398 0.49553466 -0.0642156
1.8011258 0.90859568 -0.05376938
8.8975325 4.9324322 0.018397093
2.2814772 1.1706146 -0.048169851
3.0980182 1.6298665 -0.043458164
9.6828279 5.2520509 2.3663898
2.2877471 1.1512953 -0.047964424
9.6863823 5.1604257 2.3575339
1.820228 0.86607611 -0.053865314
1.5259608 0.70006162 -0.064464897
4.7295108 2.3915353 -0.031625003
3.1410594 1.5343496 -0.044384718
2.3342462 1.0984383 -0.051244467
3.1365159 1.5173225 -0.043395936
9.6918468 4.8226423 1.9290963
1.5480351 0.66638732 -0.065931976
9.6855431 4.7784953 1.9247755
9.7474213 4.778059 1.5396034
9.8024473 4.7530608 0.37502843
9.7743759 4.7278299 0.76138377
1.8665199 0.79375166 -0.056607097
1.2978075 0.50799727 -0.063826203
1.3108524 0.50783503 -0.066775441
2.4376795 1.0516239 -0.062381685
9.6890163 4.5268898 1.905375
9.7372799 4.5496764 0.37196732
1.568506 0.6250844 -0.066669524
3.2299607 1.4196589 -0.049482942
2.4139478 1.0186318 -0.057820797
9.6968184 4.4465623 1.9001679
9.6887665 4.4676776 -0.0090803504
9.7203836 4.3937736 2.6834846
9.7029839 4.363801 1.8946584
3.2575269 1.3893095 -0.05130896
9.716835 4.3614178 2.2853241
1.8831716 0.74064922 -0.056119859
9.7049379 4.2509961 1.5032955
3.289968 1.3471824 -0.053327084
9.8714724 4.2470961 3.1003485
10.032628 4.2868152 1.1444993
10.029839 4.2747741 1.5348653
3.3004055 1.3237772 -0.053722948
10.132915 4.2774954 1.5446312
1.3577569 0.44231862 -0.071819693
2.4954441 0.9244833 -0.064552277
10.504038 4.2739577 2.8210297
10.638771 4.2865748 2.8482752
5.1684403 1.9924302 -0.055269539
10.632767 4.2410541 -0.04240945
10.685917 4.2055221 1.5925118
10.696533 4.0347948 1.584287
1.1801254 0.3132751 -0.072979361
10.694774 3.9773731 0.36032268
10.706968 3.9324832 2.4071703
10.692805 3.914062 1.1697795
10.702255 3.8896837 2.4030814
2.5655267 0.80157316 -0.069359183
5.3713593 1.8114903 -0.067143768
2.0051491 0.57867146 -0.067941129
3.4430609 1.096102 -0.062539488
1.9992502 0.560054 -0.066108465
11.72828 3.8826041 3.4870567
11.825239 3.9221444 1.2416024
11.863575 3.9034348 2.5937338
5.3867264 1.708419 -0.067258537
11.974343 3.9377723 0.80346787
1.6574037 0.41841108 -0.070866227
2.010797 0.53885168 -0.067132652
12.152769 3.9093981 2.641726
3.5224409 1.0251555 -0.069179803
3.5191345 1.0098468 -0.068548769
2.6267922 0.68415862 -0.073952168
13.477162 3.9939251 0.35359734
2.0628731 0.48051804 -0.073621571
11.758827 3.4001999 -0.084520936
13.442888 3.858036 1.343172
1.2567741 0.21287587 -0.086155981
2.6473749 0.61668432 -0.074912667
15.488798 4.3168588 0.35335234
1.4392684 0.25967124 -0.078509897
15.53615 4.3057842 1.493721
11.999997 3.288934 -0.09353441
15.511279 4.1915355 0.91930139
15.988778 4.2748208 3.3036256
13.970944 3.6894336 3.9988685
15.501009 4.0946574 2.6302538
3.6306849 0.83253098 -0.077046663
14.253896 3.6782048 3.5169358
14.105304 3.6254606 4.025805
15.514781 4.0115767 1.4829272
3.6456025 0.8231281 -0.078455627
14.257318 3.6281683 3.5141983
15.490975 3.9631915 0.91357285
12.357855 3.119417 -0.10700268
16.466949 4.1074648 0.34849685
16.480885 4.0968904 0.94781619
1.7251818 0.27224898 -0.077968031
5.6471891 1.2513188 -0.082347155
1.726812 0.2657198 -0.0780541
1.2552444 0.14449063 -0.081526428
1.4606762 0.19444504 -0.080367148
18.967682 4.4407086 1.7225496
14.307915 3.264786 3.500721
15.841576 3.6190524 4.4411244
15.858707 3.5644305 4.4413733
14.283003 3.1502709 3.4885278
19.014069 4.1982365 0.34442514
18.991009 4.1331315 3.1006241
3.70542 0.68158376 -0.082878947
15.898847 3.3393528 4.435605
15.901746 3.281584 4.4324737
20.019409 4.1526885 3.2405286
19.922768 4.1152744 3.9603786
2.7224557 0.41656351 -0.080953628
14.308473 2.792805 3.472878
22.591629 4.4930644 1.9641107
22.598717 4.4803033 2.7809539
1.763683 0.19124642 -0.083200216
3.733417 0.5895381 -0.084885031
14.325882 2.6890411 3.4707713
16.768646 3.1299009 3.3745689
15.977191 2.8895652 4.4261789
22.586647 4.1765432 1.1454846
22.623795 4.169754 1.9579818
2.7620139 0.36117637 -0.085585833
1.7817205 0.16006005 -0.086096346
23.358025 4.1226358 2.8463945
16.751865 2.8830671 3.3605905
1.4773097 0.097851783 -0.080598235
16.002068 2.6623535 4.4191294
1.4831072 0.087487668 -0.081695914
23.360382 3.8555269 3.6836739
13.407354 2.1069326 -0.14966583
2.7942502 0.29381102 -0.089204788
1.4706496 0.068144858 -0.078022331
2.7841408 0.28212461 -0.087648571
23.387512 3.611845 3.6789117
3.823478 0.45114112 -0.093343586
18.32119 2.7795527 3.6260915
18.710442 2.8277223 4.3867111
1.490719 0.065648615 -0.082924813
2.785799 0.27189872 -0.087766349
16.037247 2.3277507 4.4099426
2.7795961 0.2604278 -0.086770058
3.8043342 0.41971135 -0.091152757
16.03075 2.2692099 4.4054303
2.773428 0.24849826 -0.085778326
1.2918512 0.01846984 -0.086391956
2.1899116 0.15214029 -0.08694303
21.310944 2.8806159 4.1457281
13.878576 1.8385799 -0.16828713
1.7688164 0.068804026 -0.081277281
22.618137 2.9033027 0.3228882
18.75761 2.2984319 4.3741488
22.468155 2.6465342 4.3378029
27.935459 3.1105225 1.303272
18.795078 1.9692581 4.3697596
16.101543 1.6482931 4.3952212
24.744495 2.6641579 0.31676763
16.100788 1.534001 4.3906469
23.419895 2.2024357 3.6419954
3.8984313 0.21993452 -0.10055462
16.100872 1.4228221 4.3866005
2.859627 0.10354397 -0.096928507
1.809356 -0.0074346513 -0.088798225
16.115379 1.3159872 4.3864594
2.8339596 0.080988765 -0.093217969
14.673465 1.1777666 -0.20139849
22.653419 1.7043819 0.31042585
28.009918 2.132549 1.2923489
22.679512 1.5984533 1.9097723
22.542217 1.3890291 4.3158607
2.2104139 -0.035376638 -0.088914871
6.3095074 0.24240753 -0.12962097
2.8564615 -0.0022708774 -0.096298456
28.091465 1.4709399 0.29950875
23.46133 0.9712429 3.6223698
23.467358 0.88919461 3.6218762
18.828499 0.64886236 4.3408833
15.239896 0.5234741 -0.22676134
1.5198509 -0.12300901 -0.087320268
3.9915595 -0.016469702 -0.11094445
28.120102 0.88444161 0.29401582
28.120785 0.86554635 1.2813313
22.521976 0.60108346 4.2973824
15.226349 0.26562339 4.1397595
28.127144 0.68224615 0.29217601
28.126057 0.58348829 0.29129353
1.5209063 -0.15206887 -0.087585539
2.873637 -0.11728118 -0.099057972
3.9944334 -0.10240515 -0.11172414
6.4234247 -0.094336718 -0.13986203
23.500637 0.082687467 2.7783914
23.564251 -0.014594302 3.6236744
2.8508964 -0.17962623 -0.096226335
4.8322387 -0.22280237 -0.027159154
4.0272126 -0.23196924 -0.11622992
4.619586 -0.25645801 0.65304083
4.6358447 -0.27025515 0.48697761
4.0447693 -0.26134863 -0.11838061
4.6751852 -0.27564007 0.15210499
4.6108127 -0.29163912 0.81919229
4.5649357 -0.30418533 0.64896935
2.9333849 -0.26498652 -0.10875353
6.7299895 -0.41109812 1.5269688
1.8174309 -0.26649749 -0.091137528
4.5032878 -0.36677659 0.64438236
1.3219686 -0.2638002 -0.093487978
2.2646985 -0.30815354 -0.10038447
4.0268674 -0.39081588 -0.11791235
4.5051279 -0.45077774 0.15672202
1.3167609 -0.28915629 -0.092567474
4.4942703 -0.49888703 0.15666211
4.0119891 -0.47747451 -0.11748898
4.0267906 -0.52090496 -0.11970592
5.1291642 -0.61673248 1.2480071
1.326064 -0.32016522 -0.09611243
4.4469438 -0.63925034 0.15700564
4.8658214 -0.72852957 0.66826379
6.3853312 -0.91150039 -0.14603293
4.5122867 -0.71873122 0.31719121
4.0170083 -0.66600537 -0.12109298
4.4260559 -0.73231357 0.79996967
1.8282454 -0.4321481 -0.097321212
4.5503201 -0.76600754 0.98013735
3.9978418 -0.69316947 -0.11956316
4.3947358 -0.75632805 0.4765704
1.8934147 -0.4470126 -0.11166298
6.7966619 -1.0677507 1.7956691
1.5508941 -0.41092825 -0.1002396
8.9718494 -1.3716575 2.2566645
9.0028887 -1.3809094 2.6018414
4.5579629 -0.81672329 0.98175472
6.3689499 -1.0480973 -0.14687419
1.8480464 -0.46273255 -0.10253599
1.3176888 -0.39672035 -0.096599191
1.5428051 -0.42789656 -0.098879039
1.8306558 -0.47448933 -0.099251062
4.4184613 -0.84548849 0.15587664
4.8579488 -0.92131168 0.66818154
3.9981351 -0.81096077 -0.12195733
4.555923 -0.91642308 0.98282981
1.8227376 -0.50145143 -0.098564655
4.5077496 -0.9328025 0.31589016
3.9718471 -0.85120445 -0.12005383
6.022912 -1.1929722 1.8663508
3.9730716 -0.88089967 -0.12085068
6.3313689 -1.2742479 -0.14785874
7.3468723 -1.4594463 2.1987767
5.1224427 -1.1014495 1.447404
2.9359145 -0.74208695 -0.118922
4.4433546 -1.0237641 0.47799641
4.4998021 -1.0363945 0.64472651
4.465066 -1.0334866 0.15207797
4.4727583 -1.0431738 0.3153446
6.8088078 -1.4921409 2.0689344
4.9312429 -1.1507382 -0.046711564
5.0704923 -1.2225775 1.4406193
4.4762754 -1.1288749 0.47920591
4.5094533 -1.141614 0.14920485
4.4730158 -1.1449592 0.47913218
3.6206024 -0.97149533 -0.085974455
4.4945946 -1.1806654 0.31460738
5.7332287 -1.496495 1.1552142
5.6494312 -1.4991432 1.143954
4.6817832 -1.2820572 0.1412884
2.8692098 -0.88255721 -0.11420745
5.4858599 -1.5036324 1.1219898
3.4746418 -1.0342078 -0.072396904
5.4992981 -1.5144463 1.752954
5.4221964 -1.5064428 0.91127312
5.2043638 -1.5116354 0.69619429
3.4363494 -1.0914657 -0.070060104
2.8632336 -0.95837373 -0.11619633
4.989583 -1.5149766 0.68211579
4.9769025 -1.5168532 1.0539429
4.9946718 -1.5230496 1.2459695
4.8947897 -1.5053103 0.31236213
4.9230757 -1.5192726 0.86165321
4.8626757 -1.5221529 0.85570693
4.8729863 -1.5289357 1.2257121
1.4858458 -0.63303494 -0.095927417
4.8042374 -1.5251431 0.84996617
4.743288 -1.5095075 -0.040722489
4.8023005 -1.5310659 1.3990135
1.4827694 -0.64440775 -0.095964909
2.8351951 -1.0180564 -0.11470425
1.7788099 -0.74041158 -0.10127285
4.5123343 -1.5304871 0.48193717
4.3405037 -1.5197723 -0.012948096
1.48422 -0.68169761 -0.09900707
4.3602157 -1.538059 0.47722626
4.2976351 -1.5240121 -0.010075271
4.3483095 -1.5458009 1.4799641
1.2687472 -0.62256348 -0.097574621
1.4750926 -0.68515235 -0.097062767
1.2581408 -0.62446254 -0.094800353
4.2479963 -1.5510345 0.31362039
4.2639966 -1.5929797 0.63614303
4.2324276 -1.6038847 0.95814252
4.2732449 -1.6805769 0.47558278
4.2747836 -1.682285 0.63849711
1.7591225 -0.84344149 -0.10405824
2.7968965 -1.2089628 -0.11802512
4.2434397 -1.7089996 0.96393085
1.4570359 -0.75354743 -0.098196715
4.2666073 -1.7309507 0.63893926
3.8857284 -1.6004509 -0.13345647
4.2567363 -1.7327144 1.1330271
3.8695526 -1.6105539 -0.13218817
4.2676573 -1.7517103 -0.013625324
4.2749219 -1.767518 0.64021623
3.8645973 -1.6245583 -0.13221216
4.2823105 -1.7883737 0.64112031
1.2375628 -0.70408857 -0.096634328
4.2677903 -1.8249699 1.3099422
4.264967 -1.8312246 0.31278408
4.2748375 -1.8379627 0.64171565
4.2627501 -1.8389161 0.1488129
1.4430896 -0.79224062 -0.098258138
2.1100874 -1.0431671 -0.10302198
4.266705 -1.877124 1.486486
4.2748518 -1.888885 0.64285481
4.262485 -1.8891276 1.1430492
4.2456446 -1.8841602 0.14875625
2.7598083 -1.3220679 -0.1187622
1.7424549 -0.93483061 -0.10756618
4.27384 -1.9247199 0.64361787
2.755867 -1.3322003 -0.11877277
4.2770486 -1.9328494 1.319656
4.1706848 -1.9220121 0.96445507
4.2643857 -1.9622949 0.14693782
4.1075726 -1.9265057 0.472992
4.2741818 -2.0020595 0.14599718
4.0737476 -1.9552531 1.2819307
4.0578871 -1.9621956 0.95217764
4.2854986 -2.059988 -0.023265958
4.0555387 -1.9657207 1.4462605
2.1091425 -1.1518002 -0.11017931
4.0392723 -1.9706442 0.95026952
3.766192 -1.8553667 -0.13159204
4.2939925 -2.0808935 -0.024441361
4.0457602 -1.9870387 0.63103783
4.295063 -2.0987353 -0.025031
4.045011 -2.010206 1.4481564
4.0532713 -2.0284016 0.95514899
4.2853484 -2.1312666 -0.025330305
4.0807858 -2.0448318 1.4596103
4.0743599 -2.0594654 1.4596089
2.0815315 -1.1858128 -0.10806394
4.2486367 -2.1655912 0.64816666
4.2193909 -2.2127273 1.3314404
4.2678838 -2.2484 0.65163517
4.1893415 -2.2538323 1.3294146
4.2779512 -2.3103144 0.82603872
4.2733951 -2.3226655 0.31196856
4.2932286 -2.3348148 0.65565491
3.6504416 -2.029088 -0.12789401
2.056325 -1.2680751 -0.1101566
4.1821685 -2.3024282 0.98700082
4.2828493 -2.3686979 0.82910979
4.2655458 -2.3662298 1.5341558
4.2717061 -2.3823121 0.82871914
4.2893195 -2.3970361 1.5427638
4.2827001 -2.4061613 0.65717083
4.2771673 -2.4076474 1.1815273
4.2827611 -2.4134839 0.13925551
4.2635999 -2.4192667 1.0041823
2.6386528 -1.6129575 -0.11988914
1.162523 -0.86634964 -0.095541775
4.2799048 -2.4822037 0.65937191
4.2819629 -2.5011041 0.48576841
4.2859764 -2.5125413 0.13752069
4.2784362 -2.5195878 0.66047919
2.6328959 -1.6585751 -0.12211502
4.2756205 -2.5377617 0.66090238
4.2795601 -2.5415313 0.83697808
4.2838454 -2.5508845 0.13695838
4.2504411 -2.56373 0.66029012
2.627903 -1.693224 -0.12377521
1.6391703 -1.1665044 -0.10832143
4.2795992 -2.6169758 0.31181127
4.2653742 -2.6114998 0.66274154
4.2675586 -2.6159835 1.0174682
1.6152538 -1.1694834 -0.10407501
4.2836065 -2.6594081 0.31179601
4.2833939 -2.7058969 1.2071383
4.3027544 -2.754617 0.84985441
4.30299 -2.7939193 0.4912737
4.2959013 -2.7971797 1.5915552
4.2878284 -2.8079247 0.85139483
4.3002334 -2.8204477 1.5954185
1.9798131 -1.4598505 -0.11407584
4.2995725 -2.8519287 0.31178838
1.9654844 -1.4608209 -0.11193407
1.590421 -1.243813 -0.1072838
4.2976012 -2.8829041 0.13082319
4.280448 -2.886102 0.85501993
4.2857628 -2.8923965 1.2242229
4.2998185 -2.9060221 -0.051615536
4.3036728 -2.9052739 1.6070633
4.2978873 -2.917418 0.67540818
4.2841702 -2.9105506 0.85669327
2.5471532 -1.8493555 -0.12453309
3.5252683 -2.4678895 -0.13810933
4.3048291 -2.9624386 0.3118383
3.5308199 -2.4891055 -0.13978863
4.2959032 -2.9623375 1.2322192
4.2950978 -2.9821987 1.2339754
4.3094902 -3.008327 0.67947674
1.9142687 -1.4990159 -0.10752776
4.3019919 -3.0326593 1.6236241
1.1139804 -1.0048311 -0.1030362
4.3079481 -3.0511634 0.31190321
1.2872061 -1.116531 -0.099381775
3.4913769 -2.5365386 -0.13874182
4.2968316 -3.0688856 0.68112415
3.4741635 -2.577601 -0.13945857
1.1059409 -1.0242324 -0.10408258
4.3041005 -3.1422932 1.4434869
3.4442365 -2.5939744 -0.13763317
4.3013873 -3.2030253 0.68670541
4.3113365 -3.219882 -0.06390518
4.3201714 -3.2202411 1.4555739
1.091332 -1.0459381 -0.10398808
4.295567 -3.2459824 1.0676359
4.2849369 -3.2613847 1.067708
3.4219136 -2.6692293 -0.13993609
4.3179269 -3.2858045 1.4631633
4.3026648 -3.2827229 0.12347817
4.3030457 -3.2924321 0.31222996
4.3133392 -3.3042109 1.2683183
4.3242493 -3.330595 0.50246441
1.8611447 -1.6071117 -0.1099337
4.3203835 -3.3335545 1.4694637
1.0701182 -1.0562432 -0.1005654
4.3083849 -3.353672 -0.06885159
4.3130727 -3.3583705 0.1217344
1.5054909 -1.3732895 -0.10676217
4.3235149 -3.4015827 0.69611657
2.4067709 -2.0454917 -0.12254485
4.3168702 -3.4245806 1.6821644
4.3139982 -3.4419847 0.69735128
4.3101864 -3.4869866 0.893511
4.3155403 -3.4935176 1.2884363
4.3161168 -3.5139074 0.31255668
4.3002295 -3.5048597 1.089772
4.3173122 -3.5279098 -0.076249629
1.4698217 -1.4088472 -0.10485747
4.3098898 -3.5348232 0.70117915
1.0427201 -1.0937774 -0.10036141
4.3110328 -3.5573881 0.31267047
3.293956 -2.8182492 -0.1373668
1.4467889 -1.4262118 -0.1030395
2.3572156 -2.1315689 -0.12379208
1.4550496 -1.4410921 -0.10637563
3.2788777 -2.8638978 -0.13886023
4.3160954 -3.6622128 1.3068507
4.3159828 -3.6985233 0.11521304
4.321856 -3.7156305 0.70988709
2.3399377 -2.1601222 -0.12419221
4.3206487 -3.7158282 1.1104484
3.2601843 -2.8877366 -0.13870609
1.1878048 -1.255617 -0.098666191
4.3176894 -3.7387035 1.1121891
4.3115311 -3.7591267 1.1133857
4.3213334 -3.7668524 1.3192277
4.314961 -3.7737629 0.11379464
4.3176274 -3.7894909 1.1167688
4.3282166 -3.7991683 1.3237865
4.3311234 -3.8125563 -0.088650465
4.3287897 -3.8219717 0.51393628
4.3271065 -3.8350568 0.11220872
1.4360812 -1.4899974 -0.10948139
1.6486683 -1.6645038 -0.0022862852
4.3201404 -3.8429546 1.1219028
4.329145 -3.9003663 0.51588535
4.3357487 -3.9087853 1.547568
1.1630588 -1.2891053 -0.098928452
4.3316402 -3.9326935 1.7640607
4.3428721 -3.9656243 0.92834544
4.3470039 -4.0216069 0.72548282
4.3426938 -4.0218277 1.780702
3.1541057 -3.0351889 -0.1389803
4.3307347 -4.0863557 0.72786093
4.3394198 -4.1263609 1.7974857
4.3257885 -4.1408005 0.93962538
4.3318257 -4.1471329 1.1516596
4.3304844 -4.1592379 -0.10328925
4.3423543 -4.1826315 0.52340806
1.3673587 -1.5522865 -0.10641068
4.3255863 -4.1958451 1.1557484
4.3416123 -4.2115779 1.8122575
0.95634413 -1.2037817 -0.10068345
1.3504523 -1.5651448 -0.10543448
1.1114755 -1.362447 -0.10081697
1.9715338 -2.1624746 0.019179136
4.3430133 -4.3535366 1.3913507
1.3346281 -1.5793929 -0.10487223
1.5084517 -1.7424579 -0.074330866
4.3477688 -4.3886867 1.8437821
4.3421063 -4.409821 0.74461699
4.3537016 -4.4227176 1.6243403
4.3432603 -4.4288034 0.099839643
1.5019153 -1.7580259 -0.075276792
4.3408957 -4.4392786 1.4017369
1.4938883 -1.7607555 -0.074521363
4.3540301 -4.4792356 1.6328572
4.3396773 -4.4819269 0.098866001
1.4886986 -1.7661796 -0.074468493
1.6550883 -1.9269924 0.061526895
1.6458907 -1.9307972 0.062018275
0.92421281 -1.2378776 -0.10036045
4.3658757 -4.5824885 1.6502107
1.0731542 -1.3914202 -0.098533124
4.3607564 -4.6064649 0.75567955
4.3553038 -4.6311445 1.4277081
4.3575425 -4.6947756 0.76022601
4.3577924 -4.7272696 0.53872526
4.3560133 -4.7571464 0.539554
4.3625302 -4.7629142 0.76408935
4.3290253 -4.7488728 0.093673944
4.3540964 -4.7863407 0.31625059
4.3512082 -4.8171072 0.31639498
4.3647947 -4.8308997 1.925674
4.3576031 -4.8549185 0.99638104
4.3584595 -4.8879576 0.31663692
1.250327 -1.6536858 -0.10237014
4.3509951 -4.8805819 0.99799663
4.3611841 -4.9587355 1.0049449
1.4024483 -1.8360906 0.0087466836
4.3577242 -4.9861741 1.4742876
4.3707995 -4.9994192 1.9577917
4.3708091 -5.0312662 1.9637357
4.3504786 -5.0801449 1.0141195
0.84947687 -1.2940513 -0.096307606
4.3641939 -5.1646714 0.55176884
4.3635111 -5.1627192 0.78615224
4.3615665 -5.1966734 0.5527004
1.3524091 -1.862511 -0.068622947
4.3521962 -5.2208557 0.31813657
4.3584695 -5.2842245 0.081405342
4.3682132 -5.3082829 0.31842119
0.99062049 -1.4857744 -0.10046068
4.3681059 -5.3077474 1.034049
4.3565235 -5.3319001 0.79549283
4.3796949 -5.3580365 1.7752542
4.359652 -5.357688 0.079785466
4.3661036 -5.379137 0.79857361
1.3154085 -1.8794448 -0.066185057
4.3701911 -5.4204612 0.8011111
4.3733082 -5.4602447 0.31910199
4.3677626 -5.491395 0.56192636
1.2898775 -1.8963557 0.092612073
2.1326759 -2.8836248 1.1996169
1.1598501 -1.7532319 -0.10416248
1.4178047 -2.0612822 -0.10221073
2.1595397 -2.9344158 0.95319152
2.1981964 -2.9805088 1.0951755
2.1452405 -2.9374044 0.6984272
2.1436961 -2.9348099 0.95158076
2.1680589 -2.9849837 0.32404834
2.1501031 -2.9634459 0.4493067
2.1299145 -2.938554 0.95066601
0.9454813 -1.5342509 -0.10181183
1.1306131 -1.7621895 -0.10139215
1.4065428 -2.101259 -0.10608923
2.074297 -2.9287243 0.69351012
2.0673816 -2.9202666 0.81638002
2.0377109 -2.9612925 0.57066774
1.365806 -2.1187472 -0.103585
1.0923002 -1.7926707 -0.10092118
1.3435526 -2.1310766 -0.10264018
2.1651428 -3.2006764 -0.072240531
2.0125406 -2.9867516 0.94561946
0.89404953 -1.5551296 -0.09741053
1.9868174 -2.9934325 0.81854558
1.9733412 -2.9745581 1.0661991
0.89154053 -1.5716596 -0.10020229
1.7598689 -2.7271652 -0.11795244
1.7723373 -2.7623761 -0.12287477
1.9780021 -3.0223866 0.82128525
1.9692414 -3.0094695 1.0718324
2.0409782 -3.1049421 1.2305572
2.0898576 -3.2386003 0.32604802
2.0850608 -3.2466037 0.19448698
2.0473967 -3.202508 0.45583731
2.0252225 -3.1708596 0.58308476
2.0191519 -3.2522619 0.4572106
1.6772528 -2.8018517 -0.11847529
4.0140514 -6.1481123 -0.18137527
1.9364486 -3.1538403 1.0937374
2.0186684 -3.269465 1.2616935
4.4124193 -6.7810402 0.6052655
1.9531651 -3.2228732 0.71332121
1.6460239 -2.7946131 -0.11489519
0.80058903 -1.6078339 -0.093379021
0.9774065 -1.8849399 -0.10104299
0.67738318 -1.4515105 -0.099543035
0.8027283 -1.6436706 -0.10092199
4.4284225 -7.269217 0.32873106
4.4248915 -7.2629957 0.62231964
3.8138607 -6.3497248 -0.18220323
4.4333768 -7.3270016 0.92103648
1.5670979 -2.8755822 -0.11700389
4.4392104 -7.3295598 2.1296377
4.4228296 -7.4067383 0.031864643
4.4353108 -7.4451618 0.3297689
4.4424582 -7.507185 1.2364156
1.5494373 -2.9101787 -0.11939806
4.4539013 -7.5192323 2.1664581
0.93004155 -1.9293486 -0.10280776
4.4369202 -7.5551515 1.2407483
2.1965313 -4.006525 -0.13943821
0.91386485 -1.9301242 -0.10098004
4.4364347 -7.6698909 1.2517351
0.74769807 -1.6692158 -0.098291695
0.90579236 -1.9304591 -0.10006604
1.5052696 -2.923399 -0.11720741
4.444665 -7.8041434 0.64198101
2.1350043 -4.0251713 -0.13703144
1.2998335 -2.6197083 0.92764348
4.4262757 -7.999074 0.017933488
0.72214979 -1.684419 -0.097934425
0.87139678 -1.9391855 0.11833628
1.2770308 -2.6194677 0.92537886
0.71502256 -1.6840711 -0.096896052
1.2223191 -2.563993 0.81076115
0.85250455 -1.9340947 0.19013636
1.2507926 -2.6749213 0.6286571
1.1917683 -2.5676966 0.80902028
0.81630063 -1.940181 0.26083454
1.2154828 -2.6483784 1.0279834
1.2095678 -2.6613429 0.62565446
1.2353055 -2.7314448 0.43158817
0.79456413 -1.9298464 0.12388529
1.2081609 -2.7027509 0.33116156
1.1970981 -2.6793983 0.62695807
0.66835755 -1.7233304 -0.099040419
0.78478891 -1.9395558 0.19284293
1.1720215 -2.6722553 0.72439659
0.74879354 -1.9169648 -0.0097313523
0.75131959 -1.9345338 0.19456834
1.0790546 -2.5736828 0.89847773
1.0785697 -2.5957148 0.70929402
0.72570264 -1.9317741 -0.079859704
1.1073503 -2.6751401 0.5257315
1.0518129 -2.5615945 0.79799044
1.0951549 -2.6723135 0.52528971
0.52236599 -1.5490673 -0.09949106
1.0856042 -2.6984224 0.42958182
1.0236109 -2.5667477 0.79695618
1.0599319 -2.6684873 0.33255705
1.0339206 -2.6069889 0.90130448
0.68015838 -1.912179 0.064982921
0.59837431 -1.7715316 -0.10081711
1.010865 -2.6433601 1.006027
1.0147375 -2.7053256 0.33334953
0.9900806 -2.6471317 0.71179366
0.4702583 -1.5735831 -0.098707587
0.9811722 -2.6939752 0.91462308
0.61992061 -1.9220685 0.20073038
0.9782517 -2.764111 0.52970088
0.59327322 -1.9135933 -0.063066572
0.58927906 -1.9185109 0.070557326
3.2074387 -8.0137291 2.1544747
3.1678045 -8.0174503 0.94118088
0.58042526 -1.9135059 0.13750774
3.0896108 -7.9938903 0.34840989
0.56844765 -1.9184968 0.13769326
3.0578449 -7.993999 0.34880322
1.0163348 -3.0068269 0.76208484
3.0856245 -8.0284348 2.1490157
1.1753711 -3.6003749 0.46549356
2.8777623 -8.005372 0.93633413
2.8839304 -8.0174084 1.2322319
0.51881665 -1.9132488 0.2693339
2.895927 -8.0233154 2.4444032
1.1635059 -3.6049252 0.46568066
0.50284868 -1.89359 0.014542133
2.8121657 -8.0047855 0.35198486
2.8248265 -8.0095243 1.825258
2.7385538 -8.0535097 0.35332185
2.711796 -8.0524273 0.93787086
0.47363234 -1.9249339 -0.05439955
1.0672534 -3.597729 0.46547675
2.6458373 -8.0223856 1.8190088
0.4523595 -1.9015435 0.016999274
0.82657826 -2.9379802 0.95465225
0.34854534 -1.6218005 -0.096801281
0.81061196 -2.9228232 0.95058358
1.0368286 -3.625248 0.46666035
0.45512158 -1.9500797 -0.05769524
0.44890285 -1.9273818 0.14285418
0.45225936 -1.954206 0.26997396
0.44936872 -1.9923835 0.070155114
2.3979633 -8.0183334 1.2217128
0.44500715 -2.0417919 0.13254803
0.37423199 -1.8447899 -0.094025403
0.7535584 -3.010304 0.85903633
2.3576949 -8.0526447 2.4145184
0.44750458 -2.0970092 0.057118177
2.3190212 -8.0374012 1.8079169
0.44342697 -2.1048231 0.12681577
0.44574326 -2.1423528 -0.094255745
0.43360752 -2.1004252 -0.013425529
0.71875149 -3.0474119 0.44365996
0.72159487 -3.052958 0.54818159
0.44202614 -2.1489086 0.12280908
2.2035286 -8.0437555 2.1017509
1.1317813 -4.5335107 0.34638759
0.43836451 -2.3221424 0.18415877
0.43297642 -2.3005006 0.26172781
2.0383108 -8.2106037 1.531479
0.3780418 -2.1920297 -0.099113762
0.68415082 -3.3182614 0.56809962
1.9283001 -8.033268 1.2161291
1.9477398 -8.065403 2.3952789
1.9140995 -8.0567207 2.0922923
0.36159387 -2.1841497 -0.096444428
1.8745131 -8.0451012 1.2168077
1.8884873 -8.0566187 2.3902664
0.76752645 -3.8287399 0.21517357
0.3491112 -2.1933451 -0.097429901
0.9586935 -4.7228327 1.1716224
0.7471965 -3.924958 0.48052421
0.79794925 -4.1346359 0.63070619
0.92353129 -4.7198272 1.0038123
1.0075742 -5.0573568 1.5982193
1.0262588 -5.3206806 0.17127421
0.88718176 -4.705801 1.0011792
0.83047462 -4.5491276 0.3509348
0.73846585 -4.1237135 0.62983656
0.68040568 -3.9319611 0.48131573
0.72135967 -4.1111412 0.62887305
0.79547882 -4.5342646 0.35134128
0.77993882 -4.5355339 0.35159099
0.8178665 -4.6798401 1.1605387
0.75126874 -4.549664 0.35215628
0.26548898 -2.2122149 -0.095999867
0.77869695 -4.6477404 1.1539199
0.89698529 -5.3239431 0.1741225
0.19493672 -1.8928988 -0.091473758
0.75850642 -4.6237006 1.1491628
0.32381713 -2.6325114 -0.093749732
0.4672069 -3.3813474 -0.10816914
0.63584948 -4.2532425 0.7852475
0.16871992 -1.9177042 -0.095684826
0.16071129 -1.9073024 -0.092744857
1.1953522 -7.7673664 -0.16387299
0.15313688 -1.9007485 -0.090745598
0.71094471 -5.0812869 1.4117148
0.61205053 -4.6104898 1.1444235
0.57787281 -4.6020827 0.98258495
0.57455575 -4.7034092 -0.12251258
0.55761188 -4.6980276 -0.12144771
1.1237527 -8.0841503 2.3709145
0.086776942 -1.7025845 -0.096649975
0.54297215 -4.5876822 0.82270974
0.33226672 -3.3203647 0.34807804
0.53024536 -4.7303929 -0.12364161
0.41056949 -3.9222541 0.48348975
0.52400315 -4.6709075 0.83211976
1.0116057 -8.0851011 2.3688951
0.46585703 -4.7314935 -0.12172976
0.48551273 -4.7131019 1.161994
0.12361947 -2.2300665 -0.092309147
0.35970256 -4.1286278 0.6317631
0.15699136 -2.6865921 -0.095416576
0.032224774 -1.6905878 -0.090334475
0.23892906 -3.3349087 0.79380625
0.42784274 -4.8908753 1.1944163
0.64933413 -7.2055774 -0.11546284
0.14736241 -2.7434337 0.43541232
0.069490701 -2.2601297 -0.096114516
0.029491991 -1.9275899 -0.090872198
0.0022613257 -1.7054548 -0.092996955
0.24053392 -4.0152035 0.89506
0.1618489 -3.3666263 0.46243873
0.14195806 -3.2836494 -0.083610415
0.21644261 -4.0248466 1.0343578
0.22163978 -4.0678835 1.1834151
0.13891613 -3.3526449 0.46215498
0.12679353 -3.3336225 0.46149895
0.062756047 -2.7041428 -0.09502545
0.085998759 -2.9745038 0.34918293
0.17647877 -4.0347214 0.89830327
-0.029608838 -1.7043647 -0.091346592
0.1669693 -4.0625515 1.1822491
0.35174441 -8.1172695 2.3723626
0.10015564 -5.3422246 0.19050854
-0.033257827 -2.7181547 -0.094570726
0.055421337 -4.7800689 -0.11538535
0.045643523 -4.0521021 1.180593
-0.081834823 -1.7113137 -0.091448128
0.020247936 -3.928746 0.48928264
-0.041458517 -2.7342975 -0.097054571
-0.022318684 -3.5048542 -0.10819665
0.023990691 -4.7972765 -0.116328
0.089774027 -8.0541191 0.94462401
0.099727675 -8.0899429 1.7889608
0.10629843 -8.1293659 2.3774433
-0.095061131 -2.2726183 -0.093474269
-0.037753038 -4.063345 0.76771498
0.03599976 -8.1012764 0.94925815
-0.094139412 -2.7102544 -0.091782302
-0.05113025 -4.0676117 0.76842082
-0.054540962 -4.8074622 -0.11561885
-0.070086554 -3.935385 0.49115282
-0.060252376 -4.0610867 1.1838799
-0.12700438 -1.9421078 -0.089370459
-0.10343795 -4.8320589 -0.11698931
-0.12963444 -2.7166402 -0.092100441
-0.11965587 -4.8202324 -0.1155352
-0.12432003 -3.675374 0.35934606
-0.11399819 -4.0674133 1.186198
-0.15038982 -8.1112595 1.5132039
-0.1607112 -2.2829607 -0.094222337
-0.16509937 -2.7442257 -0.096040279
-0.16051637 -1.708696 -0.088895231
-0.20244929 -5.3474269 0.19621567
-0.16552484 -1.7086359 -0.088799536
-0.2132608 -4.0515623 0.76968718
-0.21840824 -2.7432485 -0.095018893
-0.23752172 -4.2153049 1.3701124
-0.21169229 -2.2937214 -0.09563446
-0.22684658 -2.742991 -0.094856352
-0.21818151 -2.2817366 -0.0931198
-0.235284 -2.7427061 -0.094693571
-0.26480529 -4.0262246 0.76795506
-0.39540818 -8.1386642 1.8078841
-0.27934656 -4.1312346 1.0612042
-0.4197869 -8.2068253 2.4085331
-0.30747989 -4.0702133 0.77400219
-0.23688939 -1.9514629 -0.090061039
-0.27967247 -2.7407441 -0.093833417
-0.26179495 -2.2797477 -0.092274129
-0.36832196 -3.9085414 0.49600035
-0.37391379 -4.0506377 0.77347958
-0.36956602 -4.0574274 1.1906892
-0.64134026 -8.1521244 2.4018154
-0.2506403 -1.712805 -0.089288056
-0.75730598 -8.1168814 1.529698
-0.43609351 -4.0623379 1.1941621
-0.44408572 -3.9049733 0.49757504
-0.45433566 -4.0606112 0.77687418
-0.45080018 -4.0767765 1.1979198
-0.44957298 -3.8410678 0.23970184
-0.31601441 -1.945519 -0.088507116
-0.49616736 -3.9180286 0.63027883
-0.50648898 -3.8586998 0.36858854
-0.51334226 -3.8197222 0.11412531
-0.51491451 -3.8469563 0.24068451
-0.30904332 -1.7153544 -0.090270609
-0.54395318 -4.0559082 1.1971662
-1.0016539 -8.1678638 2.421474
-0.59014004 -3.9357116 0.63435644
-0.59979665 -3.8966651 0.50102323
-0.62366581 -3.8691435 0.37114632
-0.37737757 -1.9443096 -0.088680714
-0.65866691 -4.0659313 0.78412569
-0.64678156 -3.861964 0.11326876
-0.61028159 -3.4943283 -0.099371493
-0.67554069 -4.0990086 0.9283486
-0.671579 -4.0859165 1.0671325
-0.68420208 -4.0523024 0.78350699
-0.68190867 -4.0461693 0.92077911
-0.69876939 -4.0582018 0.78470933
-0.6417399 -3.4696729 -0.096127659
-0.73180008 -4.0850668 0.65043384
-0.65505856 -3.4836843 -0.097943127
-0.7221204 -4.0545645 1.0637771
-0.73806709 -4.0636396 0.92576718
-0.73738515 -4.0830164 1.2127637
-1.4433479 -8.1901264 0.9937098
-0.7931506 -3.954339 0.50871313
-1.5209224 -7.9641604 -0.1243799
-1.5544502 -7.9946752 -0.12588468
-1.5389661 -8.1598301 2.151648
-0.60386455 -2.700613 -0.087020576
-1.6016395 -8.1471109 1.5680209
-1.6375145 -7.9873409 -0.12466294
-1.5943029 -7.7848887 0.15713453
-1.6219198 -8.1690331 2.458622
-0.78655404 -3.4969501 -0.099944204
-1.6986721 -8.1564484 0.71566492
-1.6814128 -8.1790819 2.465363
-0.64746124 -2.6922235 -0.086121231
-1.0836096 -4.8379059 -0.10712788
-1.7467446 -8.1695156 1.8707126
-1.1159877 -4.83531 -0.1068393
-1.7781501 -7.9835687 -0.12321466
-1.8961998 -8.1530266 1.006988
-1.9318981 -8.1621628 0.72287595
-1.1986232 -4.8294964 -0.10626587
-1.8893698 -7.8363047 0.43389168
-0.54153359 -1.9224793 -0.08717671
-0.90307844 -3.4802892 -0.098564237
-0.72693431 -2.6829941 -0.085784703
-1.9527513 -7.866684 0.43560797
-2.0210848 -8.1681309 0.72588164
-2.0664339 -8.1637707 1.5948641
-2.0582275 -7.8408976 0.43783015
-0.78485823 -2.6952143 -0.088855118
-2.1598167 -8.1705589 1.3087559
-2.1526377 -8.1871815 2.1995299
-2.1815205 -8.1709747 1.89843
-0.59771669 -1.9186553 -0.088326693
-2.2213554 -8.1791725 1.3127782
-0.69002718 -2.2389553 -0.0891352
-1.0371413 -3.4381864 -0.094685972
-1.406798 -4.7771769 -0.10186803
-0.84022236 -2.6926692 -0.089659125
-2.3309445 -8.1857367 2.2132809
-2.2934599 -7.8650818 0.44356298
-0.71557438 -2.2197304 -0.086197227
-2.3999856 -8.1712017 1.3211161
-2.4255366 -8.1892767 1.9189445
-1.4819795 -4.7391887 -0.098723888
-2.4285152 -7.9432669 -0.11679605
-2.4954984 -8.1824932 1.0338205
-2.4518886 -7.9280024 -0.11580423
-2.4819801 -8.2050838 2.5388646
-0.8918699 -2.6776955 -0.088551223
-0.90284902 -2.6826203 -0.089635849
-2.502269 -7.9002624 -0.11398453
-1.5515604 -4.7431507 -0.099527091
-0.9294222 -2.6764302 -0.0893915
-1.1614914 -3.4055181 -0.092534602
-0.93380564 -2.6605277 -0.086983442
-2.6661088 -8.2086525 2.5578661
-2.710207 -8.1909084 1.0441067
-0.94239503 -2.6577594 -0.08679682
-1.6173468 -4.7306495 -0.098868787
-1.2124743 -3.4098337 -0.094040006
-2.717562 -7.9237323 -0.11469749
-2.8283374 -8.2254009 2.2651491
-2.8707447 -8.2026024 0.75587237
-2.8548698 -8.2163124 2.2657299
-0.64921111 -1.6548358 -0.087437093
-2.8928719 -8.1905851 1.0526371
-0.72847944 -1.8643721 -0.082233489
-2.9302962 -8.203104 0.75804687
-2.9232593 -8.1926479 1.0542433
-0.84856737 -2.1815352 -0.084110826
-2.9489923 -8.1875763 1.6552474
-2.8807857 -7.8780632 -0.11173356
-2.9904909 -8.1731472 0.46304363
-2.9897416 -8.1944342 1.0575838
-2.9844003 -8.1891222 1.3562073
-2.9143584 -7.8872528 -0.11221993
-1.0313904 -2.6397142 -0.086830884
-3.0164702 -8.2252369 2.2831259
-3.0458429 -8.1945686 1.6632879
-1.7922071 -4.6785674 -0.095803499
-3.0867324 -8.1870632 0.76314449
-3.1134927 -8.1852474 0.16869871
-1.8206252 -4.6595068 -0.094405174
-3.1116607 -8.2253361 2.2925844
-1.3454554 -3.3625364 -0.091113627
-3.1825683 -8.2015629 1.0676394
-3.2101524 -8.2085571 1.6775582
-3.2757645 -8.1917076 0.17061102
-3.3045616 -8.2206421 1.9968396
-3.3429546 -8.1868086 0.47203588
-3.2400265 -7.8633862 -0.1107499
-0.72596991 -1.6301254 -0.086805284
-3.3796773 -8.2061272 0.77504218
-3.3689704 -8.2012634 1.3816977
-0.92888117 -2.1039577 0.58030844
-0.93499357 -2.126091 0.80823171
-0.93209571 -2.0972395 0.72701114
-0.94224256 -2.0956812 0.50767946
-0.93153441 -2.0827856 0.87474376
-1.1773225 -2.5687573 -0.081581056
-0.92546469 -2.0305254 0.78770697
-0.90877628 -1.9768107 0.84672916
-0.89693844 -1.9220041 0.49276677
-0.88626927 -1.8558242 -0.024536133
-0.87864971 -1.8138781 0.11079644
-0.8664161 -1.8129742 0.67243314
-0.87436199 -1.8097655 0.48352116
-0.87551761 -1.7943912 0.35950387
-0.87994665 -1.7901204 0.35958916
-0.88984644 -1.7915565 -0.012856543
-0.88756472 -1.7954106 0.29831338
-0.88207144 -1.7802823 0.35957292
-0.88203424 -1.7641355 0.11664389
-0.88110834 -1.7674972 0.29891497
-0.88546872 -1.7740679 0.42050505
-0.89098853 -1.7649534 -0.0080299973
-0.89604342 -1.7824138 0.23742017
-0.89060563 -1.7534363 0.11762844
-0.88419574 -1.7357898 0.59988737
-0.88129133 -1.7320551 0.66042078
-0.8998912 -1.7307588 0.059160829
-0.90087861 -1.7378432 0.23987734
-0.89853776 -1.7345846 0.29990798
-0.90254986 -1.7190654 -0.062399238
-0.895818 -1.7287695 0.4790332
-0.90098667 -1.7413298 0.54090589
-0.89115781 -1.7261055 0.72257364
-0.90602607 -1.6998634 -0.05857116
-0.9177326 -1.7179115 0.41970757
-0.92252928 -1.6866345 0.78109592
-0.87775159 -1.5499258 -0.081172973
-0.94684529 -1.6792017 0.0036793351
-0.95755708 -1.6924798 0.24207014
-0.96366531 -1.6660215 0.3609705
-0.95331353 -1.6508152 0.47712231
-0.96819943 -1.667169 0.53866458
-0.96041924 -1.6580786 0.71816397
-0.97692025 -1.6541044 0.1851597
-0.92181242 -1.5407468 -0.083882391
-0.97725785 -1.6399438 0.068282038
-0.9798314 -1.6384068 0.30306745
-0.97403002 -1.6312693 0.59465319
-0.97289228 -1.6338953 0.77680284
-1.0026575 -1.6639979 0.42146239
-0.99892747 -1.6434683 0.12622216
-0.99002993 -1.6355392 0.5967989
-0.98591328 -1.6304682 0.65563238
-0.994892 -1.6469132 0.72071332
-0.98678154 -1.6346092 0.77913177
-1.0021548 -1.6389306 0.36186075
-1.0005958 -1.6393378 0.4793382
-1.0142741 -1.6224735 0.068507075
-1.0337372 -1.6339113 0.12574542
-1.0151476 -1.6262959 0.78181207
-1.0387235 -1.6289384 0.72349799
-1.061651 -1.6078522 -0.054387182
-1.0575635 -1.6260445 0.72568047
-1.0687677 -1.6270206 0.48300427
-1.0808771 -1.620164 0.12505075
-1.0656145 -1.6190709 0.78852737
-1.0773864 -1.6207328 0.5433256
-1.0938914 -1.615971 0.064129263
-1.1108885 -1.6333418 0.36491704
-1.1053324 -1.6092261 -0.059418589
-1.1091328 -1.6204635 0.18429491
-1.0969336 -1.6208158 0.73052281
-1.149507 -1.6320748 -0.0050492287
-1.1513487 -1.6369926 0.11966571
-1.1644684 -1.6476338 0.24261189
-1.1698035 -1.6393797 -0.0081604421
-1.1811386 -1.6602895 0.24177496
-1.182888 -1.6469319 -0.010647416
-1.190644 -1.6633075 0.24151137
-1.1963449 -1.6615684 0.30457792
-1.1815597 -1.658392 0.81680441
-1.2201147 -1.6811707 0.175954
-1.2300079 -1.6838086 0.17542237
-1.2051816 -1.6340369 -0.075730264
-1.3928941 -1.8877643 -0.070523739
-1.0598433 -1.4291364 -0.075657666
-2.1862912 -2.9373891 -0.075446904
-6.1715703 -8.2820606 0.19869937
-6.1682763 -8.3000755 2.3395419
-6.2237825 -8.292923 0.19890177
-6.3055997 -8.283638 0.19980188
-6.3220258 -8.3088398 1.6304835
-2.2267547 -2.9117696 -0.074949324
-6.3580666 -8.3157368 2.3678269
-2.2639644 -2.8828101 -0.073997796
-6.5977402 -8.2942448 0.56357002
-6.5931678 -8.3032227 1.2895606
-2.2701979 -2.8524773 -0.07118547
-6.5960169 -8.3281059 2.402781
-6.605659 -8.3466816 2.7872634
-2.2894533 -2.857389 -0.072811306
-6.691802 -8.2955399 0.56639409
-6.6883326 -8.3208237 2.0384393
-1.8047287 -2.2294166 -0.07273978
-6.7406855 -8.3213921 1.6714897
-5.8734198 -7.2819881 2.8233848
-1.1300366 -1.3888105 -0.077089846
-6.8385916 -8.3402939 2.4389696
-5.5996022 -6.7668548 -0.070892364
-6.8871822 -8.3057518 0.57232541
-6.8933916 -8.3550072 2.8363113
-6.9302626 -8.3141956 0.20418896
-1.8478341 -2.1960104 -0.071951628
