# .PCD v0.7 - Point Cloud Data file format
VERSION 0.7
FIELDS x y z
SIZE 4 4 4
TYPE F F F
COUNT 1 1 1
WIDTH 1503
HEIGHT 1
VIEWPOINT 0 0 0 1 0 0 0
POINTS 1503
DATA ascii
1.4988579 0.23895335 0.010689974
3.8802905 0.7477476 0.012046993
3.1166532 2.049757 0.013958544
1.9871142 2.0796347 0.016330391
0.70584643 2.256979 0.019783258
4.6379876 2.2794843 0.017836332
2.9645565 2.2877126 0.015369087
3.2212448 2.3001542 0.017632931
5.2322516 2.3038001 0.017253041
0.97928143 2.4098611 0.011589736
2.2983663 2.409853 0.012565464
2.7732115 2.4573159 0.014946133
2.2646234 2.4654884 0.01889351
-0.022786409 2.4704571 0.011766911
4.5284362 2.4702883 0.019905508
1.4691315 2.4889216 0.016382009
3.8183217 2.6412182 0.011557728
4.0314589 2.647543 0.013611615
5.3000236 2.6462069 0.01079157
4.3280258 2.6606307 0.014626414
2.3885372 2.6725984 0.017513156
2.734854 2.6796074 0.011149466
3.3124905 2.681509 0.017830461
2.5564697 2.7078056 0.011460751
1.9975302 2.7101851 0.011132389
0.064874053 2.7249207 0.010319233
4.2849684 2.73878 0.017146558
2.2323506 2.748806 0.019637972
4.5103674 2.7411618 0.016125828
4.3140297 2.7758904 0.011927545
0.82148874 2.8135324 0.012679487
2.429949 2.8216434 0.018977493
3.1365108 2.8224225 0.014768392
0.40428293 2.8471828 0.014898986
-0.044189781 2.8700089 0.01617834
1.131829 2.8788896 0.012202233
2.2799146 2.8917241 0.012346447
4.1934028 2.9076929 0.01486659
3.4115484 2.9266043 0.010658622
4.8253069 2.9496603 0.01518479
0.69013715 2.9572215 0.01653862
2.7199943 2.9588838 0.017884254
3.7555604 2.9633946 0.012396187
0.57841408 2.9700265 0.015573829
0.76678419 2.9895205 0.013150066
1.2764534 2.993319 0.012188584
3.3684273 3.0001912 0.016682684
1.508492 3.0222244 0.013368845
2.509594 3.0738392 0.013492435
5.0340781 3.0719571 0.018232584
4.3466983 3.1289015 0.016861558
3.7638335 3.1493068 0.017847031
1.7375939 3.1515408 0.012732357
1.567579 3.1650319 0.011957705
5.3140512 3.1926384 0.013564795
4.1760001 3.2037644 0.015241653
4.8079538 3.2239914 0.017306358
5.5886431 3.2424488 0.018960923
3.3017187 3.2575893 0.014727056
4.7188373 3.2557611 0.015673548
3.5900936 3.2883329 0.019808501
4.8500652 3.4091816 0.012712389
4.8846989 3.4202328 0.019174755
3.4931946 3.4338775 0.011257887
4.6829586 3.4661131 0.01168558
5.3473048 3.4619994 0.012894541
4.3472013 3.5089655 0.016795903
5.2876801 3.525435 0.014143348
3.7198 3.546967 0.013169318
4.5429053 3.6129403 0.014346868
4.7687216 3.6112719 0.018759519
4.1291509 3.6246161 0.018694162
5.7040777 3.6580081 0.012588859
4.5167985 3.6679907 0.014367819
5.0149102 3.7117448 0.019161612
5.6259518 3.7532926 0.015921623
5.1167316 3.7820058 0.019252568
0.16387463 -0.033618264 0.021486133
3.3452468 0.029465556 0.023226947
0.020041257 0.38478428 0.022272795
4.0038991 1.2513928 0.028652638
4.0861673 1.5322759 0.021565795
4.2688298 1.5404726 0.029011041
3.8292198 2.3099771 0.026259363
5.2621446 2.3364382 0.024772555
3.4301777 2.3590436 0.025174022
3.258935 2.3971252 0.029346466
1.9759948 2.4281893 0.022626758
1.1575675 2.443809 0.021219403
1.2732816 2.4722981 0.023091257
2.9155655 2.6474009 0.020295978
0.20111018 2.6769757 0.021644592
3.9605932 2.674273 0.024327368
5.298533 2.7390494 0.021697551
0.07565099 2.7745953 0.024718165
0.60074484 2.7732115 0.020513803
3.1310234 2.796546 0.020059168
5.2048116 2.7984252 0.021895319
2.1600575 2.8028765 0.029908061
4.8346381 2.8338189 0.026402086
5.4655309 2.8401251 0.025168121
3.1791987 2.8625073 0.021467537
1.5315521 2.8709102 0.020903915
4.894114 2.8750119 0.020412147
2.5873067 2.8928218 0.023617238
4.0036669 2.90944 0.021988422
0.72595525 2.948451 0.025968701
2.7610838 2.9418473 0.026854753
3.2868013 2.9412446 0.023883134
1.0599738 2.9538727 0.0217641
3.5558619 2.9678278 0.024511367
3.9698424 2.9845409 0.026446283
0.58862209 2.9921255 0.025813878
1.7446458 3.0025764 0.0225977
3.8040681 3.0066786 0.02732271
3.876101 3.1071992 0.029698908
4.5173187 3.1704593 0.024880081
4.8613133 3.197186 0.028225929
4.9497762 3.2057562 0.022490591
4.3250489 3.2626467 0.023136824
2.3318202 3.2774849 0.021783322
4.8028636 3.3303547 0.027875841
2.5349424 3.3823314 0.029253513
4.1741877 3.4267173 0.026720852
5.7067785 3.4257412 0.024576604
5.218327 3.4365845 0.027053148
4.0813437 3.440906 0.023898631
3.9760332 3.4689693 0.022997916
4.2263951 3.5130148 0.022432178
4.1158466 3.5496645 0.027461797
3.6253614 3.556951 0.026990145
4.1479158 3.5574846 0.027122647
5.7368164 3.5903225 0.025401056
3.7431116 3.6173453 0.023281574
4.3716455 3.6148057 0.025682241
5.1732697 3.6387434 0.024613947
5.5621991 3.6367755 0.02808705
4.5938258 3.6444368 0.027424365
4.7162662 3.6487026 0.021654963
4.7344923 3.6954288 0.029892683
5.0788083 3.7190938 0.027523905
4.5080237 3.7887464 0.023745179
5.3777795 3.7884946 0.027589172
5.6591425 3.8073344 0.027886748
4.7170262 3.8150115 0.020203888
4.9610906 3.8367925 0.022233665
5.3640256 3.8999448 0.02200222
5.6916251 4.0281944 0.020633966
0.44347036 0.0082651824 0.036900282
4.0047016 0.57250959 0.033956021
5.0835505 2.8380203 0.030437559
4.9242887 2.8578644 0.033199579
1.7999437 2.9753203 0.030165374
3.4761364 3.0293293 0.036647975
3.792768 3.0506163 0.033642858
0.85710061 3.1062799 0.031523496
3.9405713 3.1196251 0.036539555
3.6168733 3.2860541 0.033107072
3.9232359 3.3619947 0.039884031
5.1156206 3.3976765 0.035420626
3.8324804 3.4006405 0.031174958
5.6352496 3.4203067 0.033282071
3.3006136 3.4316487 0.030320138
4.9007463 3.4361529 0.03426975
3.6184735 3.5838737 0.034094065
5.1021671 3.6312695 0.030814618
5.1415629 3.6620994 0.034184396
4.959312 3.6808815 0.039733171
5.0837202 3.7650619 0.035739511
5.3466253 3.905004 0.039456546
5.6591954 3.9555173 0.034160078
5.6085372 3.9863849 0.034410536
1.0845073 0.1727432 0.045252055
1.4487947 0.21137616 0.041722685
3.8105617 0.73032975 0.048707008
4.6060128 1.5470445 0.045524001
4.995378 1.6036848 0.044459939
5.479423 2.8745313 0.049785763
2.7651224 3.1018786 0.045220882
1.0451431 3.1446524 0.045173347
1.0520601 3.1520452 0.041637063
2.9622254 3.5282769 0.04081589
5.1184096 3.5295229 0.041662604
5.2264905 3.6356773 0.045525044
3.9982877 3.6615148 0.041464031
4.8630209 3.7249184 0.044910938
5.3334084 3.7684059 0.048926443
4.656332 3.8111491 0.044017375
4.6290388 3.8269367 0.048153341
5.3598156 3.8667774 0.048278868
5.2532277 3.9452548 0.0451729
0.96105242 -0.033754155 0.055942506
3.7988129 0.03348127 0.054414064
2.0422018 0.37075812 0.05418697
5.4371514 2.7610555 0.052956969
0.39875698 2.9967375 0.055291384
0.68977463 3.0739226 0.053969383
2.6225121 3.4540873 0.053373069
3.7461233 3.6542006 0.052627206
5.8010316 3.713275 0.054620415
0.78432846 -0.026788816 0.064085513
1.2426119 -0.022366285 0.063362658
2.7176089 -0.019128889 0.061350167
3.1680131 0.0051332861 0.066102266
1.4548962 -0.021660611 0.074392796
2.7014747 0.0043170154 0.071451128
2.7609005 0.023855016 0.078974515
4.0164485 0.29226485 0.073338598
5.4766226 2.8687491 0.072574437
2.4486535 3.4111214 0.071074933
2.9490142 3.5108948 0.074084491
5.2117419 3.9316206 0.07426995
2.5516152 -0.010366544 0.085554153
3.9959984 1.3660529 0.08297652
4.4058166 1.5302327 0.089807838
5.3486428 2.5113859 0.082947284
0.6029588 3.0592823 0.081566811
1.6243148 3.2431154 0.089873791
5.8080783 3.7947707 0.086607695
2.7948685 -0.016852006 0.097753316
2.9851515 -0.00077477098 0.090832472
3.9964056 0.020325825 0.095732778
0.019022375 0.058307245 0.096577853
3.9992557 1.2890621 0.091656804
-0.036049128 2.4352937 0.090756327
5.3004065 2.4442835 0.092087328
1.5846837 3.2217808 0.090911269
3.815424 3.668251 0.090788573
0.70156336 -0.046255395 0.10406268
3.1277673 -0.00070610642 0.10568848
-0.0026341677 1.2112634 0.10841045
-0.012568235 1.3106567 0.10493729
4.2261086 1.5250975 0.10842168
5.0807848 1.8133792 0.1079967
5.2396665 2.2104259 0.10932404
0.3857128 2.9895816 0.10970533
2.2843199 3.3821311 0.10057363
3.615448 3.6271801 0.10098433
5.327754 3.9654799 0.10984728
2.5548801 -0.0077131838 0.11643812
5.0557857 1.7406062 0.11976627
5.8516521 3.8551826 0.11193445
5.0146914 3.8949022 0.11488345
1.4014843 -0.02855593 0.12628382
2.9290073 0.52744478 0.12378868
3.7659059 0.70591265 0.12270036
-0.039359659 2.8358388 0.12552002
0.26135015 -0.060699537 0.13840276
4.3036566 1.5389135 0.13354197
5.0496335 1.7194934 0.13621321
5.2738929 2.3078542 0.13924018
1.0740074 3.1488318 0.13081104
5.8063951 3.719512 0.13689885
4.2026749 3.7643495 0.13728961
1.6043253 -0.027734905 0.14999047
2.6211469 -0.013106197 0.14701608
3.1371696 0.014869213 0.14897978
3.8780017 0.026479378 0.14809984
3.0481956 0.57458001 0.14377922
3.1307168 0.60735315 0.14931789
3.4736269 0.66565681 0.14015636
-0.0068518817 1.5856563 0.1484946
0.94144344 3.125123 0.14278194
3.7448916 3.6461096 0.14237577
3.8752627 3.6834216 0.14343715
1.398689 0.22946042 0.15279183
4.6927624 1.5550354 0.15617165
4.9735513 1.559111 0.15288693
1.0093575 3.1116476 0.154452
0.74987769 0.083088592 0.16831824
4.0057492 0.92296112 0.16530183
-0.02770704 0.93289995 0.16183314
4.0006719 1.4661239 0.16810974
4.990272 1.544438 0.16852289
5.0867825 1.7832474 0.16153812
5.2938504 2.4245348 0.16816404
2.3305531 3.3570142 0.16715857
5.6865416 3.4403501 0.1671032
0.87115109 -0.050991014 0.17953861
2.0932765 -0.041581526 0.17844921
1.5036857 -0.030733436 0.17000857
4.0080504 0.053246886 0.17324278
4.9030733 1.5622334 0.17271411
5.3316126 2.4803715 0.17522094
-0.036927909 2.9325113 0.17639887
0.44773412 3.0229816 0.17773399
1.2244078 3.1776066 0.17316464
2.3541873 3.3801928 0.17550561
5.8788352 3.9288487 0.17243657
0.22944754 -0.059353359 0.18129238
0.82067168 -0.050584085 0.18140396
3.2101545 0.0067919195 0.18908003
3.6052732 0.028381497 0.18620971
-0.010397404 1.4654495 0.18575582
5.1918378 2.0862174 0.18934298
0.4597007 3.0226202 0.18127915
2.6666126 3.4466486 0.18267208
3.4684234 3.6008563 0.18105933
1.5317531 0.24539062 0.19757113
3.4078453 0.650675 0.19523397
-0.0088301599 2.1020808 0.19237918
1.0357345 3.1302938 0.19131419
3.5899663 3.622057 0.19014084
0.098646224 -0.065315634 0.20251316
2.1139448 -0.011290357 0.203161
0.01715374 0.64844584 0.20828137
0.0093129277 0.75273752 0.20912719
3.9965138 1.1792966 0.20766991
3.9862866 1.5212346 0.20624286
4.1593337 1.5376432 0.20994115
5.4380951 2.7652783 0.20129564
1.1621184 3.1673279 0.20668072
2.2654004 3.3598199 0.20489866
4.6114955 3.8308845 0.20605916
0.89858019 -0.036429562 0.21584621
3.4141698 0.02555047 0.21947789
3.8219624 0.040422365 0.21406767
2.9413276 0.56483167 0.21495003
3.586391 0.70196444 0.21311167
4.0030923 1.1799114 0.21874866
4.3779569 1.5256449 0.2199055
5.8133206 3.7135448 0.21376503
4.0344791 0.27452502 0.22254792
0.028598487 0.3092691 0.22946054
3.710238 0.71479636 0.22885382
4.0062056 1.2697774 0.22745085
-0.014851421 1.6320757 0.22303224
0.63784266 3.0605507 0.22586769
2.0736451 3.3381133 0.22154483
3.4229388 3.6084909 0.22977933
5.7648544 3.6159267 0.22406831
4.9775395 3.8825226 0.22879535
1.7146602 -0.061891586 0.23924541
2.6374519 0.48677635 0.23345947
3.6931109 0.7022956 0.23162082
0.0017624199 0.99715245 0.2366074
5.2428737 2.2713828 0.23854485
-0.029219449 2.3638797 0.23104128
3.4895458 3.619308 0.23141342
4.5381651 3.7927828 0.23414919
4.6311312 3.8316345 0.23587584
4.0101619 1.1387777 0.24664509
-0.028853685 2.1411061 0.24189654
5.2945371 2.3942375 0.24803734
3.374361 3.5696397 0.24645889
5.8667059 3.891964 0.24691272
5.4812107 3.9944749 0.24905401
5.8019476 4.0427923 0.24712583
0.19908255 -0.066007584 0.25335488
2.1033158 -0.021815136 0.25727585
4.0372043 0.04610543 0.25338444
4.0088882 0.1218231 0.25265104
3.4969764 0.64880067 0.25696039
4.9608121 1.5310382 0.25587073
5.0616217 1.7243897 0.25319654
-0.022770733 2.070188 0.25895694
-0.027491957 2.2773829 0.25094894
5.6216822 3.2807608 0.25079995
5.7055664 3.4943409 0.25308865
3.0206535 3.5208783 0.25759062
4.7157154 3.8249903 0.25958619
4.9318495 3.8778338 0.25860527
5.6666589 4.0334368 0.25170895
0.88348043 -0.048320912 0.26741084
2.9207735 0.55118275 0.26475927
4.0116358 1.0740211 0.26151779
4.645865 1.5607563 0.26295486
0.98535836 3.1305203 0.26922795
0.98519313 -0.038137287 0.2712194
1.529254 -0.022168234 0.27498689
-0.0047127008 1.0219326 0.27289185
4.3210273 1.53152 0.27569976
-0.010246396 1.6103215 0.27337202
2.5896368 3.4376664 0.27109531
5.73557 3.5699983 0.27498707
1.3764664 -0.030453786 0.28897569
2.605099 -0.013272703 0.28226957
2.1409116 0.37248874 0.28927389
2.6743722 0.4950344 0.28253582
3.4327426 0.66144997 0.28093007
3.7757545 0.71657461 0.28958848
-0.054453135 2.0881038 0.28674999
5.2960334 2.3858924 0.28732422
0.51905644 3.0316095 0.28266343
0.54809618 3.0312457 0.28968748
2.2848103 3.3573718 0.28519985
4.6062722 3.8094821 0.2833899
5.0517282 3.9264445 0.28585717
0.28200734 -0.0096052736 0.29875699
3.5406575 0.66669548 0.29614767
0.0018177927 1.3156196 0.29090807
4.6969147 1.5524058 0.29179183
0.12378091 2.9592047 0.29773554
0.56616163 3.0370746 0.29704413
1.2502964 3.1775956 0.29300556
1.9699726 3.3171902 0.29694614
1.0342782 -0.044521123 0.30179957
3.798543 0.00062863529 0.30979952
0.73462689 0.077328414 0.30035129
0.86093569 0.088450611 0.30501953
4.0157723 0.52150047 0.30722418
5.1792579 2.0728846 0.30243805
0.71552134 3.0692019 0.30349383
0.084058225 -0.03224887 0.31008056
2.8441453 -0.020011008 0.31017295
3.8665252 0.011224344 0.3185108
0.51981169 0.047156304 0.31862667
1.3145677 0.22490591 0.3128635
0.01556915 0.64475906 0.31684211
3.9903083 0.650985 0.31026247
-0.020086646 2.0745087 0.31750372
1.1423399 3.154479 0.31631044
0.10029685 -0.062999852 0.32463059
0.43267614 0.026405662 0.32112321
1.347991 0.2098915 0.3251417
3.3254828 0.64199644 0.32374975
4.4017854 1.517899 0.32268879
4.1320052 1.5307301 0.32441691
1.4115043 3.2083888 0.32826027
5.6635284 3.3486547 0.32155403
2.2361314 3.3603706 0.32398906
0.1565479 -0.079287246 0.33207098
0.46291876 -0.07057552 0.33313575
0.73602867 -0.051706776 0.33625969
2.5099139 -0.00032402575 0.33556846
3.9026647 0.025669783 0.33295467
4.0264335 0.19404656 0.33572897
0.016684592 0.21956813 0.33756092
4.0196099 0.62946588 0.33827367
4.6355414 1.5428146 0.33538845
5.3653646 2.5179205 0.33235815
1.0310541 3.134573 0.33287206
1.6416502 3.2551398 0.33913705
2.5795267 3.426219 0.33951333
5.8016467 3.772727 0.33439717
0.11374366 -0.0724338 0.34325799
1.8143897 -0.020669147 0.34611621
2.1267006 -0.024013415 0.34366754
0.46102923 0.013744697 0.34294173
0.80283463 0.096611589 0.34091869
2.6013684 0.48671275 0.34928808
4.0133238 0.60584986 0.34680256
3.3334279 0.63072371 0.34823927
3.9991632 1.3278044 0.34848389
5.1222401 1.9204398 0.34838703
5.1614876 2.0267305 0.34769526
5.5905752 3.1780643 0.34104231
1.6816642 3.2601757 0.34237334
0.067602813 -0.067361645 0.35226026
0.092269182 -0.05690708 0.3533577
0.41716486 -0.055013083 0.35731605
3.5585337 -0.0011134297 0.35662469
3.9209714 0.75156796 0.35223284
5.2371707 2.2459784 0.35634497
0.56658173 3.052114 0.35040978
2.3365819 3.3808885 0.35898611
5.8221407 3.7850151 0.35927197
5.8333821 4.0565314 0.35503235
1.6423297 -0.041293673 0.36671206
1.7593639 -0.041827835 0.36838338
1.6648798 -0.021479577 0.36680868
1.8636746 -0.027559802 0.36902949
2.4333315 -0.0034478158 0.36645606
2.8875673 -0.0012042522 0.36141643
1.2129788 0.17998233 0.36266014
3.0724964 0.58065557 0.36694321
3.5028949 0.65915495 0.36821201
4.0040698 0.85296905 0.36458585
-0.0035496354 0.90271878 0.36529067
4.7438998 1.5481093 0.36488852
-0.023638785 1.9990073 0.36743483
0.57233191 3.0276995 0.36866882
2.5123398 3.4138761 0.36287722
2.862051 3.4840498 0.36934713
0.35559922 -0.073392898 0.3720465
0.1538946 -0.051454663 0.37241408
1.4528574 -0.040900506 0.37350306
3.2768619 -0.015685782 0.37312159
3.4386971 -0.01045078 0.37884656
2.6102962 0.4739514 0.37946895
4.6379666 1.5208105 0.37898085
3.1943431 3.547051 0.37088344
0.73488367 -0.044436373 0.38226143
0.62781978 0.061786205 0.38852885
1.6566484 0.26553375 0.38050672
1.7339735 0.30062082 0.38750008
0.0033504963 0.94918263 0.38861153
5.6915879 3.4069757 0.38008884
2.421144 -0.0069496185 0.39380893
-0.010557801 1.4526396 0.39715579
4.1969066 1.5186231 0.39922425
5.1506157 1.9974898 0.3989642
3.0750842 3.5173321 0.39839026
4.526844 3.8012261 0.39067516
5.5167451 4.0019279 0.39308682
5.7890978 4.0597892 0.39786604
1.0041084 -0.057912141 0.409529
1.178925 -0.052710347 0.40418878
2.5800669 -0.0006505549 0.40070519
0.7979511 0.08876735 0.40413967
4.0074358 0.21807486 0.40284017
3.7878585 0.73510689 0.40363649
-0.022881538 2.3477883 0.40322468
5.3223281 2.4548702 0.40638551
0.78979242 3.1026616 0.40907517
2.286094 3.3623023 0.40812895
1.7162011 0.28836557 0.41905698
-0.056961566 2.7278748 0.41849396
0.082349002 2.9618869 0.41631737
1.8577449 3.2859564 0.41498318
4.6454997 3.8330145 0.41327181
1.9290426 0.33385372 0.42039374
5.3037777 2.3910742 0.42335615
-0.056556791 2.9379716 0.42107931
5.6984382 3.5141187 0.42961612
3.9519105 3.6701379 0.42315307
0.11949313 -0.064346202 0.43968835
2.4131899 -0.011656106 0.43457922
3.2337375 0.60923749 0.43215337
-0.026428372 1.5717984 0.43467847
2.0084374 3.3239512 0.4398475
2.1304164 3.3327646 0.43095115
5.7591381 3.630434 0.43201324
4.701951 3.8156281 0.43398753
1.8571935 0.31642169 0.44439724
3.3323338 0.61809641 0.44023106
0.017235756 0.97908688 0.44601366
-0.048677653 2.9288716 0.44564244
3.1475682 3.5329266 0.44030312
3.2940128 3.5493217 0.44257137
3.3515675 3.583714 0.44962612
1.4647772 -0.052180439 0.45586857
1.7646179 0.29777339 0.45663187
4.0803504 1.5169495 0.45177343
4.710443 1.548699 0.45483735
1.5801814 -0.044817105 0.46352389
3.1019583 0.56797248 0.46864972
-0.043113917 1.5604692 0.46232864
-0.036803842 2.4290638 0.4659296
1.2922086 3.1930151 0.46955726
1.8990109 3.2961702 0.46835777
2.1835248 3.3535128 0.46396789
5.7330055 3.5507493 0.46462753
5.7442851 3.5567784 0.46694413
5.7556248 3.6433978 0.46144673
0.29034138 -0.023116887 0.47763512
3.0433095 -0.0077463835 0.47622725
1.2925642 0.18776783 0.47460619
4.4029417 1.537084 0.47053525
5.3886204 2.5523005 0.47395405
0.98301613 3.1346931 0.47722027
5.8652053 4.0445991 0.47553262
0.3860845 -0.063073546 0.48875418
0.6243552 -0.066021867 0.48479512
4.0228486 0.21630368 0.48051253
1.8499091 0.29928872 0.48976108
4.0058894 1.0022801 0.48637792
0.58433437 3.0542932 0.48447701
5.7022395 3.4413352 0.48660049
3.3891895 3.5737 0.48400488
4.0620532 3.7112355 0.48156431
4.9894457 3.8959465 0.48226908
2.9563599 -0.0064832568 0.49943438
3.5358143 0.00067821145 0.49787083
3.4530141 0.66290009 0.4971433
3.9951806 1.1348884 0.49223927
-0.0066874623 1.2258186 0.4913967
-0.018168271 1.2472502 0.49120817
3.9835982 1.3699715 0.49789223
5.656209 3.3739381 0.49459329
5.8029642 4.0385551 0.4903073
0.60973227 -0.060072735 0.50049281
0.0039208829 0.40059811 0.50153387
-0.0063856244 1.0285406 0.50461507
-0.023310065 1.3389685 0.50087643
-0.026004672 1.4860289 0.50591052
0.013020188 1.6449286 0.50278676
5.2567849 2.2770963 0.50236559
-0.039561272 2.7388344 0.50405157
5.4820843 2.8807507 0.50723195
5.8806 3.9784846 0.50767016
2.1309991 -0.018024385 0.51495945
3.9365234 0.034767807 0.51711571
1.070996 0.14488921 0.51672518
5.1366849 1.9517368 0.51245105
0.320472 -0.083114214 0.52778888
0.78346038 -0.060296677 0.5271498
1.7961996 -0.028160676 0.52427804
0.032353461 0.013081208 0.52989137
1.1344664 0.15704915 0.52368724
1.6194799 0.24411124 0.52409339
2.1449373 0.3961668 0.5272789
5.0354042 1.6759611 0.52727008
-0.02785024 2.7411108 0.52541351
0.52219015 3.0456448 0.52831924
2.1096153 3.3330436 0.52449501
5.7168698 3.4994144 0.52504015
1.9480875 -0.046360694 0.5303601
-0.043546915 2.1934996 0.53451645
-0.049692214 2.7185612 0.53552711
0.88403583 3.1152678 0.53261113
4.9562063 3.8687515 0.53812754
5.4112539 3.9640551 0.53373241
5.8619599 4.0378036 0.53491628
0.95767617 -0.052888781 0.54837775
4.031002 0.18558589 0.54790008
2.3268831 0.40487713 0.5453608
3.0498829 0.57935697 0.54656446
3.600976 0.67749071 0.54639316
1.4872481 3.2126327 0.54951942
0.52660501 -0.071412891 0.55709541
1.9474788 -0.032752372 0.55733526
2.8100836 -0.018408909 0.55446279
0.34886891 0.0079481006 0.55768013
4.0127048 0.91713095 0.55531299
-0.023553789 1.6402475 0.55497658
2.2857218 3.3807998 0.55816281
0.13616723 -0.080434293 0.56794691
0.33239847 -0.074059919 0.56211495
2.2630301 -0.01094088 0.56355238
2.3646376 -0.013179183 0.56878734
3.0183263 0.0044591427 0.56124866
2.9100542 0.53580219 0.56012011
3.7030053 0.69042897 0.56074262
-0.017445922 1.8232245 0.56649709
5.9334331 4.0341759 0.56405175
3.6568842 0.0032867789 0.57164383
3.8524637 0.032292262 0.57509601
0.92268419 0.10397428 0.5787338
3.7573175 0.71449429 0.57569301
3.993947 1.0674313 0.57567728
5.0158644 1.570666 0.57482398
0.59751391 3.0537047 0.5779866
1.4190481 3.2073545 0.57760763
2.0557728 3.3196573 0.57659459
0.63172519 0.060670108 0.58048666
0.020385414 0.41219068 0.58056819
3.9979992 0.82984322 0.58818066
4.9803262 3.8885169 0.58481562
2.9503319 0.53196901 0.59627378
3.2333493 0.59671956 0.59739995
-0.012683779 1.4739438 0.5987643
-0.030027539 1.8629884 0.59877825
5.5158896 2.960032 0.5916543
4.7203298 3.8302846 0.59061861
5.0903163 3.9100204 0.5915339
2.1528451 -0.042328313 0.60430062
2.4288948 -0.02886349 0.60668409
1.1690235 0.16962707 0.60874534
1.8021111 0.30370241 0.60817146
-0.010950446 0.85444772 0.60150611
4.0466404 1.5101998 0.60160196
-0.021773219 1.7973881 0.60620081
5.4831429 2.8482409 0.60011673
2.7004681 3.4411554 0.60861707
0.0057705343 0.73930854 0.61079514
5.0252814 1.6602219 0.61121571
-0.015740216 1.9780761 0.61127973
5.1426373 2.0029459 0.61598408
2.122658 3.3571091 0.61788058
4.1772294 3.7338271 0.61071074
2.423115 -0.03719911 0.62508953
1.0562067 0.16214296 0.62799132
1.9754503 0.33813411 0.6203407
4.8603301 1.5450631 0.62082934
5.0742664 1.7724094 0.62043679
-0.0082519054 2.1889424 0.62732112
2.1936202 3.3355432 0.62452018
3.3966944 0.0090010166 0.6341269
3.0046246 0.55562544 0.63559783
4.2346206 1.533085 0.63271391
0.50196034 3.0228381 0.63423371
2.5485642 3.4180174 0.63929987
5.783205 3.6726203 0.63036788
5.8482862 3.8306627 0.63438153
0.16987854 -0.057556868 0.64746177
3.9717999 0.019807547 0.64812028
4.089397 1.5024897 0.64371121
-0.01165697 1.7890902 0.64140844
-0.029573858 1.8650879 0.64710152
-0.027972966 2.1946926 0.64519536
5.3957062 2.593389 0.64256048
1.155605 3.1407452 0.64705086
2.9009955 3.4895763 0.64932418
3.7671223 3.6446166 0.64569986
1.4281611 -0.030985847 0.6552428
0.71445525 0.069125727 0.65388501
1.4552958 0.23054212 0.65718794
2.4812951 0.45865452 0.6555078
3.9872942 0.46252936 0.65303242
4.0042067 1.08002 0.65043092
2.2655988 3.3666563 0.65602183
0.097853363 -0.053412244 0.66896892
2.4932852 0.45206052 0.66971612
3.991044 1.4132094 0.66986954
5.6397877 3.3141255 0.6686281
5.7342434 3.5707092 0.66618252
4.3838124 3.7620611 0.66022921
1.0065899 -0.061173312 0.67198038
3.0380223 -0.019097507 0.67467523
0.71865082 0.064068809 0.67773378
0.82949042 0.10921451 0.67351973
2.3004837 0.39799219 0.67032909
4.5434942 1.5143212 0.67522693
5.020967 1.6374869 0.67617607
1.9781151 3.3247757 0.67410851
2.495841 3.4067664 0.67191792
2.8234806 3.4574075 0.67497337
2.9995091 3.5198388 0.67652488
0.81790543 -0.044341825 0.68446684
0.26669383 -0.016234159 0.68142986
1.5358038 0.22604519 0.68316555
3.5758862 0.66316372 0.68965673
5.337357 2.475904 0.68594444
1.4893556 3.2311487 0.68611348
2.2592082 3.365479 0.68198037
2.4285696 -0.034012988 0.69615257
1.7794995 0.29697317 0.69253802
4.0222297 0.57842737 0.69718564
0.018471658 1.0880747 0.69865406
5.0652204 1.7499896 0.69839096
5.1191707 1.8800999 0.69562888
5.5420728 3.0420461 0.69352126
5.6090822 3.2450967 0.69987118
3.1814613 3.5453429 0.69450867
5.748374 3.5546498 0.69875109
5.263442 3.92278 0.69859338
5.9122992 3.9927073 0.69271421
0.89775574 -0.065272562 0.70279837
2.078645 -0.03233391 0.70211709
3.3763361 0.0050947815 0.70423782
2.2192879 0.39931166 0.70554888
2.9800928 0.53899145 0.70200181
4.002357 0.89431596 0.70277059
-0.031742275 2.130229 0.70217395
5.6585321 3.3269224 0.70006657
4.5272069 3.7883081 0.70213699
0.1910699 -0.046532348 0.71280324
-0.00074657798 0.15362117 0.71902132
3.1125014 0.58089936 0.71725512
4.9966435 1.5425977 0.71515739
5.232285 2.2632661 0.71944058
-0.024091512 2.5432296 0.71689236
-0.036044776 2.5783648 0.71747577
0.22393221 2.9837804 0.7162447
1.3084705 3.1654134 0.7191745
5.6568213 4.0043416 0.71429062
3.7475567 0.0016498417 0.72713041
0.025118113 0.093910903 0.72717333
2.4378197 0.43850935 0.72262406
4.0038424 1.1468319 0.72548747
-0.035572857 2.2312894 0.72910857
5.4151192 2.7124224 0.72939122
0.18950289 2.9560623 0.72751153
1.5103914 -0.0359881 0.73961556
2.8527176 0.52505934 0.73991096
5.5090652 2.9079914 0.73448348
0.0026524961 0.64649981 0.74306774
3.5658536 0.67319942 0.74949706
-0.010880709 0.94831657 0.74713755
5.2120214 2.1454573 0.74739552
0.24279082 2.9859047 0.74447465
2.2787704 3.3740101 0.74555755
3.1387432 3.5277529 0.74088192
3.2749755 3.5493302 0.74242902
3.3962867 3.5829673 0.74716485
3.3949769 0.62773275 0.7588805
-0.0058338046 1.067983 0.75168109
4.5888486 1.5222722 0.75192392
-0.033759475 2.7842541 0.75990355
3.1983564 3.5354414 0.75492191
4.5374179 3.8099108 0.75657046
4.7971449 3.8461261 0.750422
5.3784661 3.9537287 0.75536072
1.9341011 0.32405019 0.76368022
2.5473907 0.46006203 0.76692045
3.5055687 0.66504848 0.76703215
3.9826427 1.4012527 0.76391327
1.5832624 3.2339711 0.76006997
1.6918342 3.2543983 0.76858497
1.9227128 3.2934551 0.76817465
1.5531447 -0.040887848 0.77490759
3.6015859 -0.0016316921 0.77120686
3.7782483 -0.00230138 0.77298141
3.5341358 0.011752307 0.77464616
3.922955 0.017662928 0.77718401
0.59636688 0.034677655 0.77456927
1.0198858 0.13237372 0.77871788
3.1161146 0.57394302 0.77312744
3.4169188 0.63514149 0.77533352
3.9961257 1.1639606 0.77819622
3.9921942 1.4967288 0.77195001
-0.016411871 2.0040245 0.77765942
1.6122324 3.2355375 0.77898657
1.9499283 3.2919855 0.77067995
3.1672323 3.5336604 0.77150989
5.7722454 3.653759 0.77570438
5.5328684 3.9888821 0.77505648
0.43083507 -0.08347439 0.78889966
0.76155722 0.055724517 0.78251851
1.1451899 0.17402792 0.78524184
3.1786649 0.57326603 0.7818253
0.01229167 0.63225859 0.78520763
4.0026975 0.67377615 0.78006268
-0.028414011 2.5043101 0.78846991
5.3721695 2.5676079 0.78372872
0.12008899 2.9377337 0.78979707
0.78296256 -0.062563375 0.79800248
1.7168078 -0.037205867 0.79496145
3.3210468 -0.0046998262 0.79479027
0.032400608 0.026269391 0.79792118
0.82405651 0.091708884 0.79575861
3.8883839 0.73191476 0.79331231
0.0055513978 0.87844682 0.79528427
5.4458838 2.7690773 0.79527605
1.7974632 3.2594552 0.79816508
5.6450863 3.3210049 0.7907685
4.0960498 3.7189193 0.7912885
0.033530951 -0.085962683 0.80678844
2.9915535 -0.04099194 0.80730534
0.22864676 -0.03364706 0.80986452
0.8533287 0.10490581 0.80045891
1.1678928 0.165773 0.80688787
4.0131583 0.22377378 0.80422318
2.0351167 0.34867477 0.80245423
2.3591104 0.42434752 0.80985892
1.1893749 3.1590729 0.80428243
1.7950134 3.2658691 0.80859447
0.4195044 -0.05771856 0.81186199
2.0821705 -0.044028789 0.81928098
1.9814222 -0.025003135 0.81574893
0.97171319 0.13661617 0.81361127
2.850333 0.51789153 0.81514192
3.9104815 0.75210768 0.81166494
4.0037584 0.95265913 0.81548238
-0.034566104 2.2130861 0.81772995
-0.051990956 2.8141847 0.81815326
0.57929695 3.0323749 0.81062639
0.95260549 3.1126299 0.81571567
1.1499276 3.1461401 0.81879699
3.3237827 3.5602536 0.81813407
5.7593737 3.6306863 0.8152194
0.55742753 -0.061385527 0.828215
2.0071802 -0.040260434 0.82187104
3.2907698 0.61312062 0.82756341
4.0077977 0.91931701 0.82344532
-0.011873394 1.589887 0.82941651
5.082438 1.7482338 0.82948005
5.1147189 1.9028717 0.82802725
1.3532677 3.1823387 0.82688749
3.4153035 3.5762715 0.8291012
4.7080069 3.8310957 0.82487905
0.42275172 -0.070320502 0.83048201
1.1395102 -0.054012761 0.83314729
1.1915543 -0.055903979 0.83095896
2.7602479 0.50368607 0.8357631
5.0628352 1.6533008 0.83201718
5.0392628 1.6621748 0.83718133
3.3295162 3.5698485 0.83734608
0.67209733 -0.06477382 0.84089482
1.8853559 -0.046656512 0.84576547
2.2437568 -0.034996241 0.84296668
1.0706434 0.11898515 0.8484391
4.0187349 0.13774404 0.84615672
2.589066 0.44752133 0.84304488
3.5679026 0.67303276 0.84771025
4.0032015 1.1219897 0.84594202
-0.019426793 1.4166815 0.84388947
5.0606394 1.7592138 0.84647357
5.2302289 2.2145166 0.84656978
1.6764407 3.2512894 0.84611845
2.901149 3.4790277 0.84337258
3.2275805 3.539722 0.84205425
0.023469299 0.040766224 0.85697031
1.4685587 0.24907213 0.8576951
2.5538418 0.44710898 0.85351884
3.2953625 0.60736573 0.85285926
3.4591222 0.66445106 0.85845912
5.4713597 2.834537 0.85725486
0.28249627 2.9848104 0.85564983
3.4491858 3.5830626 0.85367453
5.4876742 3.9726229 0.85465693
0.46547145 -0.061079815 0.86296809
0.4824692 -0.062996998 0.86439264
0.75271678 -0.06576854 0.86072648
1.2142022 -0.053912632 0.86477196
3.6096745 -0.0064644814 0.86559844
4.0017705 0.48544765 0.86540127
5.0101662 1.6188629 0.8631469
-0.046207577 1.9270483 0.86389196
3.6393714 3.6175451 0.86338151
2.1347544 -0.025324494 0.87181413
1.8936191 0.31788549 0.87930906
4.5481148 1.5333292 0.87418461
5.0349035 1.672714 0.87453473
5.4508185 2.7658429 0.87981677
5.4802265 2.8425341 0.87307143
1.251995 3.1676502 0.87228858
4.2022181 3.7349601 0.87599123
3.0351615 0.57235003 0.88925731
4.0002098 1.4497737 0.88842916
4.8826599 1.5301851 0.88817012
0.0634045 2.9314322 0.88331997
3.8562174 3.648303 0.88165045
3.7629771 3.6519942 0.88399458
3.9057612 3.6662598 0.8899008
0.41555798 -0.01088272 0.89506245
1.6112545 0.26521713 0.89398801
3.3841264 0.6296944 0.89666045
5.2100749 2.1293259 0.89558494
5.4730124 2.8816028 0.89605176
3.451354 3.6032696 0.89173818
4.0564394 3.708179 0.89974523
0.57507992 -0.063335165 0.90142798
1.1190393 -0.057350002 0.90852869
2.114512 0.37950915 0.90001917
2.4927235 0.4426744 0.9050709
2.5639682 0.46594745 0.9042753
2.6788394 0.47946525 0.90539217
3.0496805 0.54917777 0.90580773
0.0041781366 1.2919959 0.90895915
4.697649 1.5422636 0.90216672
5.2499971 2.2293515 0.90644014
0.71703458 3.0473704 0.90465498
1.4168586 3.200531 0.90999746
5.364141 3.9645023 0.90388536
0.74540806 -0.066716745 0.91474164
1.3532166 -0.0383448 0.91283309
2.6165228 -0.019355148 0.91148448
1.9334874 0.32767183 0.91885018
2.1790817 0.38949746 0.9177146
2.2776883 0.410142 0.91377056
2.7678955 0.48610544 0.9164325
3.3290606 0.62633967 0.91269743
3.9996791 0.65171832 0.91451085
4.9923077 1.5667253 0.91454959
-0.016416728 1.6079744 0.91833508
0.99123347 3.1208425 0.91052043
1.9919569 3.3023119 0.91166985
4.0351257 3.7020202 0.91092765
4.5243492 3.7889361 0.91843998
1.3391528 -0.067644283 0.921731
1.0020515 -0.052058108 0.92780924
1.6103554 -0.039237835 0.92509723
1.9386897 0.31477758 0.92421138
1.9650578 0.32340419 0.92887163
3.9928384 0.80735296 0.9208647
4.9440155 1.5257001 0.92945266
-0.032739848 2.3919559 0.92269194
-0.052532196 2.628756 0.92474055
5.5143557 2.9231563 0.92407191
0.50763917 3.0257807 0.92967033
5.7451811 3.5485616 0.92361903
5.0866394 3.8797569 0.92464471
0.30657023 -0.083516337 0.93189549
3.2844081 -0.02676639 0.93698764
0.7631948 0.083966449 0.93305516
1.10013 0.16216537 0.93032753
4.5134797 1.5227121 0.93323243
1.1545434 3.1504412 0.93677461
2.099659 3.3239698 0.9339149
3.9188533 0.017980054 0.94579816
2.100956 0.35288751 0.94525433
3.9849281 0.90748513 0.94017792
5.279799 2.3273668 0.94079328
4.5285082 3.7932434 0.94514692
4.8951812 3.8706875 0.94019878
5.3494196 3.9424925 0.94155073
0.59167314 -0.080694117 0.95645797
0.10089165 -0.076983757 0.95695579
4.027081 0.43128467 0.95888555
3.4194345 0.65861315 0.95318866
3.9958963 1.4214056 0.95676839
-0.019843668 1.8624364 0.9576813
1.9225225 3.3094201 0.95625389
4.264966 3.7630768 0.95775068
0.089755356 -0.077057995 0.96791232
2.0875225 -0.03377784 0.96579194
0.97927272 0.12450874 0.96168792
1.0570343 0.13498187 0.96323395
3.1640224 0.59742373 0.96993756
3.2894664 0.62458599 0.9655453
4.0060725 0.62589848 0.96163261
0.010115176 0.63688236 0.96535814
0.014983594 0.82784063 0.96020293
5.2080154 2.0587902 0.96833777
1.9367518 -0.034271695 0.97146523
2.26403 -0.039447837 0.97447264
3.6683593 0.68231815 0.97056162
3.9836226 1.2835521 0.97658479
4.8036838 1.5356388 0.97933161
-0.033841163 1.6951965 0.97770989
-0.007838726 2.1073084 0.9707526
-0.048895359 2.8527656 0.97644866
1.3346757 3.1681199 0.97197068
1.3979007 3.1938071 0.97029746
4.1275024 3.7379775 0.97984982
5.7152033 4.0114427 0.97352505
2.0178742 -0.023426473 0.98069561
1.144621 0.14470759 0.98644352
1.5981407 0.23190162 0.9896332
2.1868334 0.35857713 0.98038304
3.8907108 0.7573722 0.98455989
-0.006054014 1.1771075 0.98492324
5.2146177 2.1861024 0.98711491
5.2900338 2.3171201 0.98241019
1.5393763 -0.047777183 0.99627149
2.1167054 -0.035113588 0.99789453
1.8118005 -0.01240994 0.99945891
3.7430592 0.0093055964 0.99759519
4.0073709 0.20872542 0.99934447
1.495066 0.21149024 0.99403095
0.0080924332 0.98898447 0.99865341
-0.045964241 2.8494859 0.99828124
2.8619251 3.4673862 0.99882567
3.4280424 3.5797915 0.99954069
4.601819 3.8098288 0.99668252
1.1111908 0.14038938 1.0013855
1.1410701 0.16102186 1.0054051
4.0019579 0.42702228 1.0041318
3.1691368 0.58493233 1.0078251
-0.026348233 2.5011673 1.0008571
-0.056849122 2.8786573 1.0094262
2.5271692 3.4074111 1.0075892
2.8200598 3.4472928 1.0070908
2.9346786 3.4941144 1.0094627
3.5979424 3.6051607 1.0044569
0.015912861 -0.076267749 1.015174
2.4584994 -0.026029557 1.0191045
3.5996733 0.0013622791 1.0185457
2.917752 0.52599502 1.0127069
-0.0063357353 1.0978713 1.0117795
-0.027843058 2.4942617 1.0187546
3.209682 3.5459166 1.0126067
4.0907035 3.688355 1.0148199
5.090199 3.910615 1.0125407
0.43750173 -0.083672009 1.027141
0.76624835 -0.067553505 1.0287142
2.165097 -0.036994956 1.0206528
3.7367272 -0.0084146559 1.0224984
2.4083409 0.43589032 1.0262377
2.6393769 0.47145492 1.0290143
-0.025845438 2.5729704 1.0205097
1.6953871 -0.038008794 1.0369616
2.942168 -0.014346585 1.0350292
3.867857 -0.00088636577 1.0367596
1.0031091 0.14374408 1.0341904
4.0263901 0.27633891 1.0350283
2.881501 0.52088147 1.0314302
3.4960728 0.67790157 1.0304956
3.9894133 1.0943154 1.0324956
4.8528442 1.527193 1.0398158
5.4922042 2.9463124 1.0337676
3.8333392 3.6563711 1.0369661
2.6774983 -0.017671898 1.0447708
1.5943203 0.24230182 1.0430124
2.6888897 0.46407306 1.0412476
4.633781 1.5107701 1.0444046
0.65419984 3.0550776 1.0478032
1.3469584 3.1682816 1.0450686
5.9136457 4.0390301 1.0447785
1.5132141 -0.053097181 1.0584333
1.2099688 0.15861934 1.0529276
1.3622746 0.19929522 1.0580699
3.0921943 0.56317914 1.0581869
3.2160046 0.58678991 1.0540576
3.9938364 1.1901374 1.0508374
5.1533561 1.999801 1.0588242
0.29802132 2.9778619 1.0518788
1.8965211 3.2988071 1.0574936
0.94715822 -0.061772883 1.0638807
3.9972458 0.53091109 1.0611552
3.0196619 0.54466528 1.0628186
4.076458 1.5050439 1.0682871
0.0030170381 1.7035494 1.0617864
5.0722046 1.7368238 1.0607624
-0.039557844 2.7704515 1.0663716
3.1691387 3.5242167 1.0640938
0.96349728 -0.074246787 1.0708801
2.5745811 -0.017147511 1.07794
2.4448094 0.43479043 1.0724756
0.0046940446 0.58933061 1.074056
5.0749135 1.7821791 1.0752634
1.2545807 3.1587334 1.0747142
4.0630474 3.6843171 1.0755267
0.10614318 -0.091583647 1.0831071
0.51410747 -0.062436871 1.0804068
2.9860396 -0.012581497 1.0815459
3.6099453 -0.0016170144 1.0851375
1.1007979 0.14223704 1.0816946
1.3524433 0.17891648 1.0825541
1.8908365 0.31523016 1.0875995
3.8071718 0.72242785 1.0830435
5.3428874 2.4898491 1.0894219
0.718629 3.0503421 1.0863091
5.6060376 3.1830544 1.0853019
5.6190729 3.2355914 1.0889744
2.0084207 3.3137221 1.0873132
0.31452101 -0.035016298 1.0977907
2.2014239 -0.021850437 1.0967972
2.0810456 0.3378475 1.0959141
0.011808276 0.63916618 1.0906729
-0.0075825453 1.7278678 1.0996919
0.52480948 3.0169072 1.0956693
2.9584875 3.4882965 1.0935961
2.0398216 -0.026508048 1.1034718
4.0130935 0.014317602 1.1014231
1.8805873 0.30253348 1.1007473
2.9090714 0.51001465 1.1024953
3.4883697 0.65408558 1.1098523
5.557138 3.0888982 1.103778
5.6279969 3.2213869 1.1003846
3.8415089 3.6541395 1.105644
1.7221417 -0.038248077 1.1116307
4.0229836 0.27819565 1.1140759
2.1736858 0.38437855 1.1146852
3.0621345 0.56114173 1.112731
-0.024750829 0.91405284 1.1181405
4.4416471 1.5211588 1.1187453
3.6882772 3.6364193 1.1135805
4.4643149 3.7888446 1.1157045
4.0426879 0.19418001 1.1213282
2.0906892 0.34833759 1.1227279
5.1078424 1.9119395 1.1221153
5.3187385 2.4216843 1.1278722
5.4445348 2.7074308 1.1281929
0.25932664 2.9737029 1.1290933
3.9109654 0.014752209 1.1306158
1.6891952 0.26032755 1.1302459
4.0674357 1.4966625 1.1302701
4.0696211 1.5154833 1.1342551
4.1793747 1.5348991 1.1304183
5.0499473 1.72876 1.1379482
1.3258221 3.1690311 1.1329215
1.4027386 3.1893473 1.1339498
2.7933533 3.4514556 1.1373037
3.2511275 3.542079 1.1390681
1.9520991 -0.044613943 1.1406604
2.1488602 -0.038375661 1.1481167
3.6407027 -0.0052300394 1.1425008
4.0016413 1.0231385 1.1497047
0.98931026 3.1115789 1.1492635
2.4506979 3.3967733 1.1431677
3.2228281 3.5377622 1.1454315
2.9736476 -0.024971873 1.1554767
0.014505893 0.03436026 1.1573005
4.0184035 0.063695505 1.1540283
0.005474925 0.32193917 1.1573524
2.7561915 0.4936865 1.1504394
2.7822111 0.50051689 1.1546363
-0.0045963824 0.5532409 1.1549578
5.4144635 2.7276883 1.1532639
0.12377816 2.9376025 1.1536078
5.5412374 3.0180054 1.1531007
4.1475186 3.7176805 1.1521682
5.8141418 3.7250967 1.1502037
5.0559521 3.9030356 1.1538215
3.2066162 0.5883469 1.1630927
3.4239311 0.61971647 1.1693978
3.5277977 0.66905051 1.1651126
3.9842181 0.91194499 1.163936
0.0025491118 1.2480674 1.1689447
5.508707 2.9101987 1.1651804
1.899899 3.2761569 1.1628009
0.9552871 -0.06321384 1.1779046
1.2745688 0.19307005 1.1743517
5.0276971 1.5870885 1.1787397
5.2703266 2.2848139 1.1704313
-0.033616543 2.5293789 1.1715738
5.5078363 2.9397612 1.177527
2.5759115 3.4090824 1.1769689
0.76920724 -0.080855966 1.1835864
2.3885555 -0.0095263273 1.182492
1.9243133 0.31278634 1.1848841
2.9466386 0.53150368 1.1843942
0.0027374029 0.54830927 1.1880797
3.9667597 0.7521584 1.1833259
-0.047785312 2.7754879 1.1840019
-0.050132573 2.8303704 1.1801406
5.7767377 3.5977502 1.183321
3.6410842 3.6144543 1.1833768
3.2947071 -0.0023509264 1.197413
1.4197954 0.21230677 1.1993668
2.6929023 0.47706467 1.1998268
2.7197723 0.49380755 1.1921796
2.976891 0.54565787 1.1981583
4.0293317 0.72659087 1.1929601
-0.002502501 0.96940732 1.1901321
3.990695 1.2451067 1.1903768
-0.017313391 1.8991953 1.1903077
-0.024218798 1.9678866 1.195507
1.4245572 3.1929927 1.1959784
4.9205122 3.8652787 1.1991458
2.1365755 -0.033835337 1.2042553
3.0280044 -0.0041873753 1.202081
1.1037971 0.12681794 1.2057669
1.929682 0.3046757 1.2049142
0.0093188584 0.7010541 1.2052521
4.251967 1.5098085 1.2080905
4.9827056 1.546133 1.2081095
-0.01407674 1.5793686 1.2095988
-0.03225863 2.332726 1.2057204
5.8622832 3.8705654 1.2090098
4.0022802 0.70460361 1.2167044
4.3718538 1.5117023 1.210465
2.0303335 3.2998266 1.2172608
5.6931872 3.384079 1.2172582
3.2824051 -0.012261674 1.2229136
4.0370522 0.10367569 1.2279263
4.279458 1.5133579 1.2274742
1.6572912 3.2400107 1.2294757
2.729969 3.4403868 1.220484
5.7079039 3.472343 1.2294241
0.67220008 -0.088216737 1.2333359
2.0150113 0.33151013 1.2354387
2.9219811 0.49841172 1.2384568
3.9980154 1.4394495 1.2302943
5.0264378 1.6523813 1.2342489
0.14334923 2.9506655 1.2359762
2.016 3.3200221 1.2335086
3.66782 0.69875669 1.2444309
-0.0060006082 1.1054976 1.2460209
0.34831053 2.9855719 1.2495401
0.41274524 3.0041032 1.2406553
3.2496922 3.5280194 1.2430539
5.5443969 3.9727378 1.2454951
2.8737681 -0.010483921 1.254367
0.69833887 0.057597965 1.2548319
0.99229681 0.12718064 1.2571125
3.772387 0.68920648 1.2535518
3.9868255 0.87270868 1.2569355
0.93344116 3.0953279 1.2538413
5.5816388 3.1268878 1.2596734
4.9186068 3.8521204 1.2575623
5.4621248 3.9711485 1.2590562
1.1925911 0.17261526 1.2648945
0.0056356788 1.0786309 1.269786
3.9945059 1.2750622 1.269557
5.1440043 1.9939882 1.262282
1.1808825 3.1552181 1.2664729
1.2539216 3.1568942 1.2655414
1.9518471 3.3014512 1.2683045
3.6995339 3.6346326 1.2632909
3.9991293 3.6840038 1.2684203
0.32482409 -0.080528319 1.2795396
0.067511022 -0.077465691 1.2710403
0.28106612 -0.077235565 1.2757367
0.9619236 -0.064151242 1.2712201
2.3283989 -0.021794558 1.2747395
3.2843106 0.0017723292 1.2769222
0.016314775 0.64918876 1.2794735
3.9984393 0.93910003 1.2796835
4.6268463 1.5148325 1.277488
-0.04301405 2.8822379 1.2782474
0.87075806 3.0773807 1.2785627
1.4113646 3.1833496 1.2706655
3.1926084 3.5297318 1.2794487
4.0754662 3.6940374 1.2756196
1.4670928 -0.059914783 1.2813306
3.9122691 0.73362678 1.2872853
5.0588531 1.7024345 1.2834132
5.5357704 2.9814105 1.2884231
1.6393018 3.2373152 1.2814845
0.5282315 0.0035850853 1.2917142
3.9630055 0.0086966753 1.2941158
0.0076349676 0.66744936 1.2974805
4.0093236 0.87910759 1.2921131
2.3422365 3.3609128 1.2973232
0.80970943 -0.087597638 1.305225
0.28585678 -0.065732524 1.3041857
1.6590223 0.2718986 1.3022287
-0.02366519 2.4291668 1.3095623
3.2736659 3.5530949 1.3083766
5.7667861 3.6128979 1.3008775
5.2709813 3.9161191 1.3090398
0.027652502 -0.063262403 1.3146682
3.2698565 0.0020458698 1.3178259
1.668102 0.27354759 1.3189467
5.2303271 2.1835718 1.3148836
1.3578087 3.1655593 1.3145599
5.8756557 4.046453 1.3159246
1.6882863 -0.051758327 1.3284167
1.924845 -0.045278817 1.3277667
0.28419453 -0.030490473 1.328595
1.6147809 0.24735558 1.3254973
4.000174 0.33532298 1.3247046
2.4945531 0.4197706 1.3230784
2.5156839 0.44127738 1.3223358
3.8373895 0.73779881 1.3214108
-0.044989586 2.7684956 1.3296015
3.5119104 3.5926428 1.329026
5.2769146 3.9306822 1.3222367
0.10402298 -0.072498746 1.3315799
1.2381381 0.16798526 1.3322124
2.8259647 0.49734926 1.3393342
0.014651716 0.84226358 1.333172
0.0056441724 1.4949259 1.3359511
-0.058151245 2.8443151 1.333192
0.30100137 2.9949007 1.3321651
1.964514 3.288465 1.3313301
5.7743626 3.6017818 1.33489
4.1256356 3.6885424 1.3375527
5.1396418 3.9000282 1.3373901
0.091848075 -0.11011535 1.3405435
0.36329073 -0.01223208 1.3445499
4.0192451 0.018398702 1.3413804
4.0033464 0.073462114 1.3407899
-0.018064827 1.2945696 1.3496739
4.6437917 1.5224714 1.3418125
0.012069374 1.5931158 1.3494977
-0.052939475 2.6094475 1.3454627
1.5543087 3.2051907 1.343549
5.8617873 3.8510871 1.3445849
0.80951989 0.068971857 1.3576177
1.1314415 0.14605692 1.359956
3.2037039 0.5802024 1.3577223
4.6362567 1.5089241 1.3505075
-0.040154099 2.7402487 1.3541859
0.56067717 3.0136442 1.3559692
0.95272374 3.1034055 1.3538572
4.3771539 3.7535496 1.3522687
0.71784866 -0.08169017 1.3685944
1.2506429 0.17349946 1.3696624
-0.037481517 2.3726864 1.3615617
1.3084266 3.1623869 1.3606446
2.0257857 3.3089356 1.3638483
4.0086484 0.4000352 1.3757322
3.3452647 0.60658044 1.3789026
3.9971848 1.1169391 1.3770669
5.2866268 2.2769051 1.372249
1.417412 3.2017698 1.3702911
5.256464 3.9181676 1.371538
5.790009 4.0323172 1.3754714
0.37732929 -0.026171446 1.3887748
4.0376687 0.014514402 1.3886675
1.9513016 0.2968691 1.3895934
4.2290936 1.5082138 1.3823781
5.0310998 1.6629524 1.3827418
-0.0043027997 0.20134127 1.3995656
4.0141845 0.24163175 1.3986079
4.4505033 1.4908196 1.396116
-0.015413642 2.3270826 1.3978895
1.3602468 3.1871505 1.3939166
0.26414698 -0.09570498 1.4080024
2.0727928 -0.051200449 1.4002795
2.2746809 -0.044426367 1.4016972
2.5390065 -0.026313037 1.4021724
0.34942603 -0.011165589 1.4035114
0.0067868531 0.17015356 1.4069912
0.0030945241 1.1999052 1.4010102
-0.010094553 1.9543735 1.4085543
-0.041815758 2.7301478 1.4037056
0.73672879 3.0601492 1.4083917
5.7621365 3.591073 1.400914
3.6013145 3.6211829 1.40302
3.8344984 3.6674261 1.4004778
0.33529377 -0.074694984 1.4100707
3.1914704 -0.0075382739 1.4188423
-0.012529314 0.89157796 1.4169079
3.9814281 1.4757767 1.4117129
5.1753049 2.011332 1.419759
-0.060571551 2.8373156 1.4186072
0.062288165 2.9018168 1.4169745
5.5762568 3.1210136 1.4187998
2.4925206 3.4143386 1.4197135
5.6510429 4.0061722 1.4197133
3.9889264 0.84918964 1.4222049
0.0098699629 1.1083868 1.4252201
-0.011397332 1.4584785 1.4203377
-0.024442554 2.3477516 1.4281017
-0.02348116 2.9203577 1.4206064
4.5429831 3.7776928 1.4264381
5.2333388 3.9091482 1.4251328
0.15487671 -0.067117535 1.4326397
1.3544869 -0.063814417 1.4383014
2.4007962 -0.03361728 1.4359924
2.6420131 -0.023124874 1.4361051
3.4583461 -0.011227101 1.4364561
-0.0047768056 1.6475241 1.4348688
5.2309604 2.1179466 1.4362977
1.4979726 -0.083127536 1.4442968
2.9244618 -0.01844573 1.4450389
3.4793913 -0.0052454919 1.4439392
4.0152464 0.028003387 1.4413717
2.5156128 0.44901931 1.4477669
3.9995327 0.49676967 1.4442655
4.6633 1.5350957 1.4450663
5.0162001 1.5360312 1.4417828
-0.022857428 2.0682626 1.447632
5.1807451 2.0790062 1.4498514
-0.040005833 2.0859747 1.4487672
1.3810765 3.1829958 1.4420696
5.7197328 3.4410768 1.4473689
0.013565123 -0.08923649 1.4524412
0.4600805 -0.081939653 1.4526409
0.038532317 -0.059234485 1.4541495
2.6187713 0.46695119 1.4521148
0.0037961602 0.85832965 1.4572114
-0.01482442 2.1044612 1.4577782
5.2074294 2.1210923 1.4566067
2.0481887 3.2961249 1.4597279
4.2582822 3.7345538 1.4565492
4.3502092 3.744349 1.4508806
4.4785395 3.7898722 1.4531962
5.0004797 3.8651943 1.4574987
0.52435035 -0.085002244 1.4634027
0.28078437 -0.045108594 1.4660975
1.8753936 -0.048359677 1.4692239
3.3981283 -0.015995562 1.4618301
4.0288706 0.034720883 1.4609061
2.8000784 0.48018378 1.4672561
3.2650511 0.5811497 1.4678257
3.9933028 0.64241952 1.4677882
3.8999157 0.72071373 1.4619275
-0.025125891 1.7142199 1.4646192
1.7013474 3.2444201 1.4603812
5.5825925 3.9950747 1.4696374
2.6283438 -0.020891026 1.476734
1.8240948 3.2730742 1.4747146
4.320787 3.7352428 1.4720292
0.41468221 -0.0051986277 1.4880396
0.6998173 0.059280246 1.4869213
1.4898963 0.21666643 1.4869328
3.9928184 0.8036297 1.4863901
4.8706412 1.5168704 1.4888582
5.3994188 2.6254454 1.4844815
0.27471113 2.9644637 1.4832339
5.8719115 3.924005 1.4814829
5.8671703 4.0280104 1.4828867
1.6508524 -0.052861817 1.4909925
1.404672 0.21931368 1.4982349
4.0210471 0.30950519 1.4970425
-0.033813298 2.3740878 1.4905854
1.8966844 3.2863293 1.4901947
5.7410684 3.4912658 1.4962082
5.2187457 3.9117188 1.4960938
5.5268793 3.9753881 1.4908659
5.8294544 4.0177078 1.4948295
1.12366 -0.071999863 1.5056551
0.012532651 0.85957539 1.5005956
-0.032599211 2.1268563 1.500361
5.4762521 2.8123198 1.5025415
0.83193493 3.0842805 1.504678
4.3849607 3.7590818 1.5059706
0.5802573 -0.085747212 1.51755
0.41251069 -0.0091461092 1.5188395
0.94940698 0.09838587 1.5179607
1.0818461 0.13061616 1.5106635
2.8765643 0.50353485 1.5191021
2.8348908 3.4429522 1.5152698
4.8658586 3.8623433 1.5195807
1.4678271 -0.055438936 1.5218573
1.7882493 -0.047994643 1.525759
3.504668 -0.016707167 1.5261105
4.0261641 0.28716195 1.525416
2.5299706 0.45039058 1.5286009
-0.032771468 2.4357309 1.5236537
5.4350815 2.7216372 1.5217094
5.6330762 3.3075686 1.5299076
2.1256046 3.3170586 1.5241562
3.5142846 3.6062088 1.5274866
-0.0053972602 0.79638219 1.536069
2.502213 3.4007764 1.5343955
1.8162127 -0.056149364 1.5459127
-0.0046716332 1.3741462 1.5423294
0.0025523007 1.3722564 1.5402551
3.9642391 1.4253488 1.5457979
5.0820737 1.7893378 1.542137
2.236517 3.3356924 1.5440472
5.8331566 3.839241 1.5498693
5.5858984 3.9909778 1.545467
1.4894024 0.22314715 1.5529354
0.01105094 0.4806729 1.5580201
0.00014966726 0.67102736 1.5597289
0.0082916021 1.3528439 1.5507405
-0.0042284131 1.5237161 1.5533056
0.36183357 2.9651556 1.5526949
0.59368122 3.0281658 1.5524962
2.0373347 3.3059874 1.5598691
2.1918066 3.3269262 1.5561471
5.7423429 3.5673313 1.5598736
3.6905107 -0.030415803 1.5651591
2.7465091 -0.024903089 1.5614275
0.50829965 -0.0033631623 1.5679328
3.7405429 0.0063812584 1.5666291
1.5890243 0.2239933 1.561559
2.3783057 0.41101217 1.5605053
4.8233399 1.5375441 1.5682149
2.1302059 3.3149657 1.5630301
5.873899 3.9278407 1.5655837
1.371735 -0.072814807 1.5757111
1.3075085 -0.065903127 1.5765903
0.88890421 -0.040196083 1.5785145
3.431726 -0.0090441257 1.5775149
0.87221849 0.1055426 1.5757552
1.2639009 0.1858947 1.5740968
3.0743303 0.55807632 1.5773776
4.0059838 1.346373 1.5752339
4.0046387 1.5083939 1.5750301
2.8301651 3.4650974 1.5792522
5.706007 3.4955301 1.573233
4.6871319 3.8144321 1.5781152
2.1500101 -0.03725937 1.5897731
