# .PCD v0.7 - Point Cloud Data file format
VERSION 0.7
FIELDS x y z
SIZE 4 4 4
TYPE F F F
COUNT 1 1 1
WIDTH 1500
HEIGHT 1
VIEWPOINT 0 0 0 1 0 0 0
POINTS 1500
DATA ascii
0.65687573 2.3643959 0.0025298595
5.2448454 2.3656137 0.0032947063
2.4331169 2.4066222 0.0014068931
3.8668089 2.4257667 0.0041210204
3.6263509 2.4384191 0.0086006373
2.7279339 2.4610779 0.0084544718
0.97826254 2.4702489 0.00089101493
1.3186764 2.4723923 0.0058630407
0.6124754 2.4822397 0.0077920854
2.0889635 2.4918098 0.0028055906
2.6622477 2.5063727 0.0021860749
3.4069362 2.5394771 0.0060546994
1.7750114 2.5506709 0.0039427429
5.2569742 2.583262 7.3701143e-05
0.37791067 2.5947826 0.0093265474
0.39868361 2.6063213 0.0041872412
2.5040812 2.6541483 0.001639083
0.067947745 2.6677802 0.0068924725
0.68141329 2.6685903 0.0026365817
0.14553297 2.6715043 0.0016340911
5.2872291 2.6907315 0.0051504821
3.2833509 2.7301505 0.0065867603
4.522635 2.7330894 0.0050882846
2.0870252 2.7419982 0.0076022297
1.2756633 2.7578073 0.0018277317
4.6369147 2.7753515 8.495152e-05
0.35794872 2.7915864 0.00043959916
0.64519477 2.7927642 0.0064005703
3.9503875 2.8140905 0.0022128373
4.3629274 2.8177543 0.00052651763
4.9787822 2.8524816 0.0083294362
0.57700491 2.8652346 0.0071927011
1.2258626 2.8645632 0.0012402833
3.873404 2.8677201 0.0036990047
1.0701132 2.8730109 0.003466934
1.1846429 2.8706603 0.0038609207
4.0321741 2.878921 0.0044544041
4.4026589 2.8786538 0.0064116418
1.2948251 2.8984478 0.0093912482
4.2836771 2.9023991 0.0016193837
2.8907728 2.9332204 0.0069351196
5.4775624 2.9348392 0.0011575222
1.7980419 2.942085 0.0079040676
2.9378333 2.9564602 0.0099584013
4.7494965 2.977046 0.0019026399
3.7177525 3.0474281 0.0024847984
0.7220242 3.0726197 0.0086568892
2.2077117 3.0807178 0.0078769475
2.3617449 3.0967188 0.0081766248
1.6513368 3.114037 0.0065696388
4.3215647 3.1501114 0.0073997229
2.3277106 3.1643984 0.0022091866
1.3092939 3.1882403 0.0028276891
2.3455243 3.1856782 0.0068127811
5.3791356 3.2537811 0.0056344569
4.6848059 3.2834387 0.0049292296
1.985356 3.3246009 0.0059418231
3.7037802 3.331208 0.00097112358
5.3235655 3.343266 0.0012205243
4.2305493 3.3889215 0.0023965389
5.0113549 3.3826439 0.008849591
5.6889701 3.3809071 0.0069630593
2.8337111 3.4022779 0.0074114352
4.3418479 3.4064817 0.0031625181
4.0343704 3.4358158 0.0032996535
4.1402168 3.4360595 0.0038875192
4.3330736 3.4430346 0.0010333061
3.430161 3.4676838 0.0047583878
5.3933082 3.5475388 0.0059162229
5.3145776 3.5764077 0.0030014366
4.6128387 3.6608572 0.0072322637
5.6338892 3.7287993 0.0066826493
4.9116321 3.8398559 0.0019628406
5.2347999 3.8699038 0.0061543286
5.8411565 3.9857848 0.0094891638
0.0023583174 -0.052226223 0.013603702
0.47588396 -0.050183453 0.013920307
3.2625227 -0.025103897 0.018465862
3.8151188 -0.016057566 0.019815177
1.7737998 0.192408 0.010654882
3.4584546 0.6602037 0.013052061
2.2518005 0.67150289 0.011959031
3.7714615 0.70726264 0.016711801
2.4088454 0.76891214 0.012714088
2.0594282 1.1538014 0.014075428
1.2852243 1.1851287 0.017684877
0.50728792 1.3299663 0.012751102
1.8198088 1.5646772 0.012810826
4.9054193 1.5780611 0.014699295
5.0536442 1.6826637 0.016565442
0.73003089 1.6987393 0.015781462
-0.024926424 1.8898656 0.010649785
3.6728506 1.9015009 0.011987492
4.3872976 1.9125557 0.012506738
3.7574062 1.9475744 0.019194782
3.0568361 2.0409341 0.012626335
0.98486364 2.0879915 0.010649532
3.029099 2.117713 0.014371499
0.94758701 2.1703103 0.011132896
4.4053459 2.200721 0.018457144
1.3149884 2.2794936 0.015382618
2.577991 2.2890997 0.010215878
2.8719673 2.2873712 0.012701184
0.67976654 2.2950149 0.016709313
1.9878093 2.2932806 0.014266506
0.44401789 2.3637011 0.015146226
0.93029404 2.3926129 0.013538405
0.69602489 2.4386823 0.011941567
1.8766574 2.4672046 0.010406539
2.5236316 2.5251946 0.010444671
2.2510638 2.5337794 0.013494074
2.4250588 2.5370529 0.014055833
0.43596506 2.6663508 0.011980146
0.97677505 2.6824245 0.012787968
1.6254164 2.6801448 0.019067675
3.3805928 2.6801322 0.017313004
4.6174555 2.7253649 0.014607653
3.4709034 2.7772515 0.0129105
1.1221631 2.7973182 0.017545268
0.94362485 2.8604596 0.012949377
0.40028405 2.9085698 0.014574841
1.8484334 2.9233856 0.019390792
2.5710778 2.9604611 0.013207927
2.9488969 2.9944913 0.011079311
1.5085812 3.0604064 0.010446966
1.7008365 3.0824571 0.011456966
2.2670321 3.0813155 0.012506291
3.2703776 3.0924752 0.01320076
5.0991492 3.0928431 0.012710184
5.3425713 3.1261871 0.013528168
5.6226678 3.1487925 0.015829921
1.1700341 3.1788721 0.019750118
2.9856601 3.2467301 0.015790731
2.9153605 3.279304 0.015346289
5.6768823 3.3091547 0.011505246
4.0447154 3.3730378 0.012677118
2.4697948 3.4057658 0.010907575
3.7285709 3.4722912 0.01276888
3.8415098 3.5736597 0.014791906
3.905273 3.6548445 0.015501082
4.3523111 3.6788151 0.01536651
4.6388221 3.777389 0.016342863
5.6707597 3.9372165 0.018968627
0.90979898 -0.059648976 0.027305022
0.6316005 0.0580125 0.021191612
3.9961886 0.58215678 0.020220131
0.0081895292 1.5975091 0.025505677
3.0597882 2.3071761 0.024547622
1.6489137 2.3759322 0.028023094
5.4765744 2.7918134 0.026688784
5.5340734 2.9131866 0.026508838
1.7391328 3.0172746 0.028453439
0.47271782 3.0255003 0.028191537
4.6223574 3.0423865 0.021014005
3.5113692 3.6034544 0.026282683
5.2670169 3.9180491 0.02400516
5.3534751 3.9395788 0.025769845
0.77095377 -0.03452456 0.038165048
1.4062494 -0.03833241 0.035139829
2.0956917 -0.020616665 0.033612058
3.7399864 -0.013718918 0.036372155
2.8324924 0.5178569 0.035787955
5.0298843 1.656105 0.038286179
2.0366035 2.6060517 0.033182174
0.7913605 3.085073 0.038830698
3.8300118 3.6525702 0.038904071
0.22147506 -0.0044517219 0.047385454
4.839705 1.5215442 0.046064764
1.4193467 3.1997669 0.042173922
3.6563969 3.6016667 0.049403161
1.7750412 -0.031288125 0.059514135
1.9105507 -0.022503331 0.052256525
3.137393 -0.02439484 0.051481634
4.0051804 0.28526622 0.058435321
2.4000382 0.42330068 0.059240252
-0.016681671 1.9331052 0.050540149
0.19689274 -0.052380338 0.067627907
2.6163869 -0.0339472 0.065380991
2.6055784 0.46741575 0.063443214
-0.013149202 0.63409466 0.069917411
3.8217134 0.71322703 0.067559958
-0.010628194 0.98003286 0.065099239
4.0753188 1.5010679 0.065456122
-0.03122896 1.9088371 0.066276103
0.09043473 2.9513924 0.063880026
2.3659873 3.36729 0.063862801
4.6138186 3.7864931 0.067305058
0.19450259 -0.0030043274 0.07361871
0.54569435 0.047302604 0.074702054
4.0116191 0.17537022 0.071305811
2.293314 3.3721728 0.073307097
3.5554795 -0.0040558875 0.082467198
2.4704976 0.46445978 0.088282615
-0.010385811 1.4113281 0.087492049
4.3893299 1.5066762 0.086955309
-0.030163348 1.5260134 0.080434859
5.6136756 3.1359179 0.085013241
2.2752872 -0.029861324 0.099040627
3.9838362 0.0084321499 0.091659427
0.89432931 0.12568808 0.090104192
1.7299336 0.29035893 0.098586082
3.7359281 0.68608987 0.096382141
-0.0058278143 1.4389594 0.09334594
0.62838483 3.0742457 0.092932403
2.1065078 3.3337972 0.099791735
2.7797523 3.457773 0.098509222
5.2562284 3.8959773 0.091065884
3.2767549 -0.0063454956 0.10549447
0.57710397 0.070916995 0.10080302
0.61120081 0.078879431 0.10343665
0.69627523 0.083111092 0.10037339
3.9925313 1.2883058 0.1026136
1.347023 3.2075448 0.10902435
2.8792839 3.4645534 0.10110921
4.9380994 3.8429506 0.10200283
1.3788702 -0.027709626 0.11971229
0.75657153 0.098757669 0.11186028
4.0159974 1.4772525 0.11402324
4.7621884 1.5061002 0.11952505
5.0484877 1.6672542 0.1190227
2.4659328 3.3971231 0.11046794
0.26311862 0.013772935 0.12992603
1.9412538 0.32511139 0.12975866
2.5911694 0.47124785 0.12913239
3.724359 0.69178325 0.1235736
4.8461633 3.8350487 0.12102333
0.50628972 -0.055332534 0.13610816
0.47787231 -0.045671389 0.13436598
0.99512577 -0.045100905 0.13765499
0.71006966 -0.034112461 0.13697278
0.52090824 0.047443524 0.13621533
-0.026028425 1.1817915 0.13516632
5.5063515 2.8909404 0.13909549
2.060338 3.3302259 0.13414776
2.6454444 3.4273584 0.135768
5.7852507 3.6406369 0.13479409
3.9948211 3.6975069 0.13789675
5.482657 3.947366 0.13706464
5.5651078 3.9532597 0.1319856
0.40987623 -0.036852695 0.14379686
0.41504496 -0.038302042 0.14721635
1.8381447 -0.028669499 0.1414161
2.7906151 -0.017276973 0.14628795
-0.019382119 1.1844473 0.14748001
5.0205307 1.6306982 0.14888075
1.3028773 3.1928365 0.14015394
2.9778523 3.47789 0.14932692
2.9551063 3.4974737 0.14456031
3.2568474 -0.024524502 0.15147012
3.7554822 0.006951049 0.15973946
3.9977412 0.55671394 0.15022114
4.5475273 1.5150793 0.15515679
4.9732423 1.5377405 0.15982214
-0.023492545 2.2035019 0.15872553
2.0421138 3.3309097 0.1569024
3.8917589 3.6481986 0.15089849
4.8535423 3.8265769 0.15309373
3.37642 -0.0071509928 0.1657306
2.1993527 0.37880605 0.16741869
0.21492893 2.9801266 0.1603229
0.36652374 3.0160594 0.16587773
5.6082435 3.161911 0.16441974
4.0504785 3.6615214 0.16863367
5.9376898 4.039515 0.16001603
0.50154334 -0.03437975 0.17089748
3.2334423 -7.1436167e-05 0.17081973
0.26900977 6.9856644e-05 0.17669889
2.9428506 0.5283674 0.17809552
5.4209461 2.60798 0.17956579
0.92641914 3.109488 0.17347986
1.5427691 3.2347176 0.17514813
5.7052054 3.4367535 0.17921183
5.8117585 3.6535256 0.1726476
5.2976289 3.909725 0.17332965
-0.010231733 -0.043616422 0.1811851
0.011294425 -0.042001754 0.18186021
2.5576615 -0.028509326 0.18008685
1.0050316 0.14691529 0.18526226
2.7495289 0.49497128 0.18566948
-0.028128535 0.85832292 0.18344468
-0.014449596 1.0900838 0.18657476
0.53163242 3.0485249 0.1835157
4.5998344 3.7729163 0.18381533
4.8754921 3.804574 0.18280861
1.3179882 -0.050506607 0.19886735
1.0252234 -0.035500288 0.19974419
0.15179855 -0.028164007 0.19834745
3.3181314 -0.0024611503 0.19460168
0.002358079 1.0841215 0.19209394
-0.025111794 2.6551454 0.19265431
0.74679387 3.0842991 0.19686624
1.2725567 3.1511052 0.19555807
5.8083606 3.6832266 0.19016472
5.8986168 4.0254879 0.19561768
2.5581489 -0.015892565 0.20544648
1.6387302 0.28388223 0.20440263
1.9987966 0.34790611 0.20578569
4.0148325 0.65703398 0.20549667
-0.011309385 0.90548056 0.20873433
-0.027054876 2.4597793 0.2033515
5.5160832 2.8516469 0.2052294
0.01583153 0.10593086 0.2137267
2.1003532 0.37802565 0.21290848
4.0183177 0.42372984 0.21376762
2.9705381 0.53018993 0.21525463
4.9157219 1.5214968 0.21032187
3.3356462 3.5514393 0.21445295
5.1330485 3.8685071 0.21538731
0.61654222 -0.054462671 0.2220414
3.0488844 -0.021436632 0.22179264
1.4179158 0.24506858 0.22045693
1.7732724 0.28931123 0.22411498
2.2851315 0.41206223 0.221881
-0.033554792 2.4513149 0.22247425
3.0908422 -0.012447417 0.23798081
-0.00046002865 1.3443487 0.23960376
5.0762124 1.7547739 0.23205945
-0.0041723251 2.0162435 0.23694584
-0.037714899 2.7072103 0.23904416
5.5131397 2.9286027 0.23978874
0.97965515 3.128561 0.23233092
5.7549024 3.5019188 0.23278648
2.5005932 -0.010170192 0.2416167
3.8565402 0.0024867952 0.24229777
1.1589236 0.1785222 0.24391535
1.6629139 0.27578944 0.2482397
-0.0047465563 0.29664794 0.24076337
3.5973806 0.67202049 0.24457034
0.022034526 1.4937913 0.24900451
3.0888929 3.5041819 0.24004722
2.0566878 -0.036697052 0.25890973
3.9156446 0.0024640113 0.25363025
2.7748771 0.49776566 0.25643089
3.8616362 0.7314741 0.25449243
2.8188252 3.4477134 0.25397009
3.1033998 3.5176821 0.25495908
5.888319 3.8960598 0.25823364
5.558085 3.9638927 0.25145203
3.8964715 -0.0062795132 0.2699315
0.62025726 0.072573394 0.2609399
0.025844574 0.64919895 0.26998684
5.2298117 2.1745648 0.26286414
4.4385099 3.7631402 0.2627579
1.0118479 -0.03744857 0.27536336
3.2767224 -0.011985391 0.27050909
1.597263 0.26975581 0.27003402
0.0019285679 0.6881026 0.27106428
5.056488 1.6702614 0.27123922
-0.016287327 2.8611264 0.27470189
0.29704106 -0.063608319 0.2866827
0.76945806 -0.048457563 0.28755888
0.88625872 -0.03556101 0.28395367
0.17621261 -0.016821474 0.28009883
3.9841557 0.38769919 0.28325003
3.9930749 0.42979079 0.28610864
-0.026360452 1.9569545 0.28057599
0.082482219 2.9621398 0.28594095
3.3622556 3.5569725 0.28047279
0.90274382 -0.027803019 0.29236013
3.8822618 0.011337161 0.29392403
4.0025954 0.76557779 0.29634517
4.0085244 0.91095358 0.29110134
-0.0086288452 1.3253284 0.29758346
5.3425946 2.4703646 0.29399204
0.29687548 3.0125794 0.29434282
4.4350457 3.752836 0.29780167
5.6859345 3.9818623 0.29552019
0.95898807 -0.044496849 0.30004168
3.2739906 -0.015938565 0.30881596
2.2941055 0.41450167 0.303195
3.9789023 1.0450463 0.30285031
4.8474913 1.5040038 0.30433935
-0.035737872 2.8621776 0.3031857
1.0098487 3.1435807 0.30884677
5.8633857 3.8479369 0.30775934
2.4337173 -0.014086589 0.31140745
0.98734045 0.1390948 0.31661481
2.5432119 0.46433568 0.31668264
3.9688988 1.50741 0.31768453
5.3969803 2.5883412 0.31474751
5.3791471 3.9361584 0.31591153
5.798512 4.0161881 0.31318837
0.28465003 0.0028299242 0.32322454
3.6371827 0.0060360283 0.32557118
1.3213015 0.19367653 0.32441807
0.0029717386 0.9574905 0.32301748
5.1984906 2.0772991 0.32375538
2.9801769 3.4994049 0.32959253
5.6834064 3.9856317 0.32303542
0.022001684 -0.054307356 0.33999908
2.6881046 -0.012120634 0.33186781
0.84143782 0.10339673 0.33620411
1.2745383 0.20825386 0.33533871
-0.007951349 1.1429462 0.33420128
-0.013105899 1.6957376 0.33491319
-0.0069178939 1.8162262 0.33992916
2.381444 3.396486 0.33986592
5.9067554 4.0108113 0.33471328
2.0716324 -0.028266042 0.34077692
3.753664 0.0030543804 0.3446129
1.3862162 0.22810224 0.34403837
1.7175828 0.30746838 0.34125203
2.3629084 0.42684919 0.34157497
3.0457153 0.57220423 0.34824675
4.2940307 1.5232267 0.34867829
5.6217065 3.1879737 0.34257996
4.2894397 3.7356586 0.34873241
3.3852119 -0.0019653738 0.35448402
0.0019588172 0.18625695 0.35430712
1.2490238 0.19377628 0.3548674
2.6831398 0.50813508 0.35295784
3.9774184 1.312742 0.35805154
4.1997023 1.504797 0.35500312
4.9881554 1.5367234 0.3549757
-0.02820763 1.777158 0.35282236
-0.03464222 2.7348354 0.35159153
5.7309546 3.482475 0.35809922
1.0333619 -0.048689649 0.36716521
2.6047335 -0.02905152 0.36980093
3.9837308 0.68245989 0.36909264
0.001932174 0.76122457 0.36233819
5.7789774 3.5687599 0.36800689
4.1390486 3.7008462 0.36777222
1.2565475 -0.055357471 0.3744489
0.015692055 -0.044685371 0.37024862
0.0001796782 -0.021055274 0.37331665
2.3418918 -0.017385498 0.37949133
3.6951718 -0.0028094798 0.37270308
5.0121889 1.5696402 0.37062019
1.9824175 3.3239362 0.37296832
2.9686704 3.4768999 0.37039584
5.9115424 3.9054 0.37680453
0.18233192 -0.076567203 0.38790399
3.8207054 0.71431112 0.38573086
4.0201049 1.5058019 0.38001996
5.4332042 2.6994369 0.3857702
5.5546761 3.0269425 0.38471425
1.7591091 3.2675796 0.38567603
3.2317204 3.5544074 0.38934708
3.4705992 3.5741465 0.38668031
4.5463591 3.7678745 0.38878101
2.3335752 -0.033337586 0.39819431
2.0816898 0.36670476 0.39825284
-0.028406709 1.9223971 0.39047998
-0.023147792 2.4402423 0.39682889
1.5867697 3.2479699 0.39852399
1.7336191 3.257391 0.39326763
4.4433689 3.7600484 0.39322025
4.9366708 3.8662941 0.39752376
3.2138867 -0.007028535 0.40909082
4.0051246 0.16434774 0.40349364
4.0096312 0.34167311 0.40643448
3.2897401 0.61169559 0.40923607
-0.022687882 1.9153028 0.4071638
1.7101849 3.2537816 0.40833306
5.6976061 3.3539531 0.40559334
-0.01277703 0.59292996 0.41386855
0.0027777851 0.88250619 0.4198094
-0.027887166 2.0612323 0.41296619
0.0025119483 2.4064889 0.41197002
1.1482062 3.1337335 0.41885841
3.4137349 3.5738869 0.41295183
0.37051719 -0.041429907 0.42291981
1.7325705 -0.02942875 0.42898124
2.3421779 -0.021352246 0.42413044
2.4420633 -0.02090171 0.42029262
0.19032252 -0.010832608 0.42013013
0.0068061054 0.40857172 0.42993456
2.6814027 0.47999352 0.42803067
3.2294517 0.60126823 0.42284036
-0.028251559 2.6083477 0.42224157
0.73041594 3.0898933 0.42035478
1.7180282 3.2527409 0.42315781
1.1043557 -0.035944186 0.43198413
4.0121756 0.1622403 0.43729854
4.9893451 1.5325387 0.43826997
5.0928459 1.7854958 0.43478143
5.3072314 2.3654687 0.43076175
3.1178432 3.5105462 0.43034679
4.9617219 3.8394728 0.43079978
5.3698764 3.9203379 0.43084902
3.9921594 1.4845598 0.44743282
3.9809475 1.4936743 0.44140303
5.3944912 2.559186 0.44214284
5.7470999 3.5328391 0.44331044
5.0179629 3.8474474 0.44271314
4.8899922 3.8526151 0.44244611
5.8997393 3.9010446 0.44149786
1.2613273 -0.036198936 0.45036584
1.6321858 -0.029767074 0.45587963
2.5777373 -0.013221845 0.45164418
-0.0085707307 0.14750922 0.45431256
1.0054666 0.15913194 0.45633727
3.9905229 0.92051905 0.45108962
-0.030595422 2.0301166 0.45033026
-0.02992782 2.8282485 0.45547283
4.4875245 3.7749836 0.45976478
4.7962127 3.8111923 0.45361501
0.51576042 -0.046324827 0.46116823
2.2538114 -0.022067681 0.46723503
-0.023825109 0.57955766 0.4638744
4.500555 1.4917438 0.46140128
5.1829243 2.0587466 0.46331352
0.2360937 3.0140207 0.46833754
2.1255856 3.3370409 0.46699148
3.1127625 3.5253208 0.46777171
3.9057074 3.6609013 0.4600023
4.4679103 3.7662873 0.46577597
4.9819822 3.843534 0.46053326
0.19071543 -0.017259911 0.47184581
1.4034176 0.22881305 0.4725821
2.5480304 0.45808953 0.47284347
4.0019817 0.68768734 0.479146
4.586452 1.509146 0.47263002
5.5371885 2.9598911 0.47689462
2.5110755 -0.016534254 0.48211694
3.1617799 -0.010705575 0.48724771
-0.001059413 0.99506372 0.48536074
4.0569882 1.5028343 0.48761624
4.5262485 1.5165505 0.4826929
1.3760908 3.1776266 0.48424965
4.4126978 3.7394249 0.48755997
3.1514025 0.58492446 0.49939096
4.0706482 1.5042801 0.4979828
4.5044193 1.5170431 0.4995926
2.4704523 3.3952022 0.49023616
3.7480907 3.6359477 0.49850929
1.9752036 -0.031327844 0.50768399
-0.02720958 0.4189322 0.50689769
2.3017244 0.41094834 0.50371134
2.6356907 0.46478242 0.50356251
5.1090713 1.8403053 0.50224715
1.5894269 3.2531304 0.50197893
3.2473531 3.543184 0.50930381
2.2571025 -0.027876675 0.51253241
2.8982387 -0.0086595267 0.51372361
3.2540112 -0.00041076541 0.51554793
1.5491358 0.27985552 0.51691341
2.5497575 0.45759267 0.51532537
3.6037307 0.67245084 0.51863641
3.6515956 0.67429906 0.51152247
3.8536239 0.73026812 0.51444399
4.8863568 1.5242672 0.51675874
4.9939218 3.8681877 0.51888144
5.2240019 3.9090097 0.51602179
2.6290498 -0.015793666 0.52119792
1.9107777 0.31502509 0.52228755
4.1492682 1.5028188 0.52067691
-0.032328695 1.9560101 0.52304769
0.017480433 2.9560463 0.52620876
4.6321602 3.7874532 0.52493507
3.2017636 -0.031979799 0.53404331
3.3486452 -0.011504129 0.53380036
4.958744 1.5201702 0.53625154
0.1624881 2.9815321 0.53186572
0.96818078 3.1291912 0.53890097
1.5035002 3.2226925 0.53167015
4.825953 3.8349376 0.5349018
2.3563747 -0.031612538 0.54247445
2.55054 -0.022468515 0.54014933
2.8450837 0.52917701 0.54548377
0.0057214797 0.61520392 0.54714066
3.9916024 0.66597176 0.54809415
4.5538297 1.5287473 0.54064327
0.8256762 3.0970893 0.54573679
0.6031574 -0.051461175 0.55776381
2.2896395 -0.026113838 0.55996734
0.92746067 0.12361762 0.55170953
3.600636 0.66069168 0.55864531
3.9806943 1.5168598 0.55392206
5.3078604 2.3407352 0.55446643
3.9953856 3.6849084 0.55900401
2.1365056 -0.017863616 0.56359029
2.9243059 -0.004277721 0.56267136
1.6474618 0.26898009 0.56043184
-0.0014887154 1.2439148 0.56635797
-0.034529269 1.5348489 0.56868088
5.0212908 1.5312159 0.56162274
5.2497115 2.2025952 0.56304508
5.2810578 2.3408 0.5615201
0.0033699572 0.1306192 0.57284427
4.0031228 1.2512112 0.57259721
4.6822262 1.5157349 0.57408303
5.3165312 2.3955262 0.57379442
5.5416632 2.9782531 0.57523704
4.2677102 3.7260919 0.57225436
0.59863675 -0.04078877 0.58156359
3.0994854 -0.021132432 0.58275133
3.10707 0.57501543 0.58791196
3.7702742 0.70640743 0.58175373
3.8610272 0.74156415 0.58648646
3.9875789 0.76507127 0.58960712
4.8597312 1.5021846 0.58804882
4.2351379 1.5173922 0.58999282
1.7921094 3.2797308 0.58605009
5.7255564 3.4300699 0.58351737
2.9049082 3.4899647 0.58022863
3.3763084 3.553483 0.58044791
4.11761 3.6961718 0.58932853
0.89855111 -0.047585823 0.59679711
1.1104156 -0.028149359 0.59129262
2.1565576 0.38177526 0.59441894
1.0371867 3.1372631 0.59054428
5.2241235 3.8920195 0.59793848
1.0134768 0.14128551 0.60865337
1.618003 0.25096899 0.60109049
0.0089172125 1.5327549 0.6002605
5.0760913 1.7645226 0.60553354
-0.052458793 2.9184675 0.6063481
1.7087435 3.2545474 0.60467011
2.5114846 3.4132359 0.60437906
3.4203892 3.5800037 0.60249323
4.4645309 3.7509987 0.6086188
0.086971223 -0.050788119 0.61781973
1.9287261 -0.04530783 0.61839229
2.233201 -0.029044397 0.61334634
3.5093169 0.0063523054 0.61285061
0.64597237 0.06879966 0.61720806
0.92947197 0.1350987 0.61864007
2.506701 0.44415814 0.61024994
2.6742301 0.48756516 0.61234742
3.838202 0.71459049 0.61668313
4.0150852 1.2439966 0.61768287
0.73742795 3.0862088 0.6115005
4.9636955 3.8455842 0.61897641
5.5664191 3.9501636 0.61743855
0.087162375 -0.046944328 0.62426502
2.0652866 -0.027142815 0.62794274
1.664282 0.28514546 0.62077415
3.9881129 0.29820126 0.62454331
1.8325378 0.30380151 0.62410378
2.0959458 0.36449528 0.6256144
4.3907619 1.507287 0.62890667
4.8431425 1.5255959 0.62549388
2.6082087 3.4306822 0.62160182
2.6744933 3.4411535 0.62499762
4.4182181 3.7527688 0.62344939
2.3271208 -0.025859535 0.63528389
1.471307 0.25230989 0.63731605
2.7595754 0.50205946 0.6397649
3.0986524 0.55832112 0.63748872
5.0889034 1.7800214 0.63805515
0.9577595 3.120065 0.63276142
1.8380758 3.2876678 0.63747251
2.0713034 3.3395014 0.63091487
5.5999985 3.9584339 0.63002098
3.6243019 0.67009336 0.64147544
1.2099338 3.1678114 0.64200342
4.3125739 3.7156594 0.64193374
1.9647452 -0.013882354 0.65310949
0.98811793 0.13946253 0.65519369
5.4083548 2.6569219 0.65222377
5.2348027 3.9012415 0.65163362
5.5080919 3.959902 0.65452659
3.4780774 -0.0025510639 0.66088748
3.5099277 -0.0058041364 0.66042858
1.7199281 0.29205045 0.66919082
3.4775968 0.63464832 0.66973221
5.2088394 2.0883451 0.66503847
4.3544679 3.737154 0.66245306
5.1533823 3.8911283 0.66808248
0.08426255 -0.058233596 0.67293012
2.0181885 -0.026375636 0.67934245
0.31765378 0.0078249723 0.67527449
3.08778 0.57602489 0.67410469
3.9951506 1.3492229 0.67536283
5.0410752 1.637538 0.67866462
0.95175576 3.1238182 0.67890131
1.3871979 3.1970773 0.67946267
2.1771741 3.3287184 0.67911941
2.3573232 3.4014416 0.67752886
2.9712272 3.4785194 0.67085111
2.9316955 3.4840875 0.6723069
4.8252635 3.8234117 0.67011434
0.042162359 -0.047570534 0.68969125
3.0409417 -0.017490312 0.68656379
4.4262052 1.4982705 0.68093926
4.4545312 1.5090103 0.68321162
-0.021805644 1.5377653 0.68646348
0.11437678 2.9705679 0.68927085
1.2773166 3.1709468 0.68453902
1.4092467 3.2132266 0.68560934
1.5018656 3.2329292 0.68262476
2.9803915 3.4817328 0.68406522
3.0653315 3.5120709 0.68317497
3.3603587 3.5598803 0.68016058
5.6163301 3.9765832 0.6817233
0.14216429 -0.056040004 0.69823539
0.40330637 -0.047324598 0.69224197
2.8047981 -0.022602089 0.69930363
3.77739 -0.0010165721 0.69065499
3.9582047 0.012122035 0.69183773
1.3380877 0.22101015 0.69619507
4.0016932 0.47369456 0.69355363
4.5913239 1.5293403 0.69814736
-0.015871346 1.7275095 0.69141477
5.2622571 2.2077463 0.69499141
-0.0016982555 2.9639111 0.69465458
1.9971875 3.3056157 0.6975199
2.3870125 3.3968787 0.69327307
5.2928276 3.9145696 0.69258457
0.67092252 -0.041011423 0.70387417
2.7296739 -0.02807425 0.70490712
3.5810103 -0.01691331 0.7032572
3.0077071 -0.009030968 0.70445222
3.6507349 0.69187731 0.70682585
4.230453 1.5058596 0.70944107
-0.01051715 1.8164222 0.70347267
-0.029101372 2.4959285 0.70651257
0.30551267 3.0196044 0.70061499
0.97186327 3.1240518 0.70153397
2.3220329 3.3919311 0.70364648
3.1322727 0.57012606 0.71525496
-0.0041716397 1.2768912 0.71951193
-0.0026367307 1.4653554 0.71065795
-0.028802902 2.6879516 0.71682358
3.2463703 3.5357099 0.71107095
4.0755835 3.7034769 0.71142673
5.3901529 3.9294798 0.71055752
5.4057388 3.9295905 0.71767664
0.96786153 -0.041130222 0.72787756
1.6824783 -0.037063144 0.72766024
2.2817168 -0.031211317 0.72344416
-0.0037235618 0.11751544 0.72518551
0.96693671 0.11787772 0.72342426
1.4737772 0.22822091 0.72310913
1.4061654 0.23924235 0.72780395
4.0028515 0.83724344 0.72442216
-0.024056256 1.4489548 0.72004718
4.5667596 3.7988615 0.7299884
5.5268245 3.945996 0.72475874
0.83429694 0.10212839 0.73041999
0.0043839812 0.13862613 0.73131245
1.8794979 0.32882661 0.73195106
2.6043053 0.45811081 0.73856771
3.6132731 0.65275759 0.73713005
4.3979597 1.5128565 0.73221666
-0.0015415549 1.7152932 0.7393145
0.1952123 2.9778697 0.73895729
0.175385 -0.037625194 0.74610913
3.2535334 -0.0076141953 0.74742526
3.6870618 -0.0056799948 0.74003381
4.0106459 0.085872829 0.74099195
-0.027626276 1.8878925 0.74618971
0.084362209 -0.063264966 0.75171208
4.1988001 1.5143609 0.7538268
4.2247958 1.5186751 0.75741106
-0.010782063 1.6178033 0.75867271
5.3011656 2.3685215 0.75791699
2.3086309 3.3756764 0.75303
3.9838486 3.6637442 0.7501263
5.9367399 4.0341811 0.7539736
0.5979321 -0.045911551 0.76238269
0.12965649 -0.033632308 0.76958722
0.15552324 -0.035629764 0.76360965
1.064846 0.15528235 0.7616967
1.5140141 0.25977898 0.76033169
3.9927344 1.0577157 0.76145089
3.9828553 1.2673757 0.7698741
-0.0086598694 1.5468144 0.764974
1.3734043 3.1952996 0.76800126
1.7630683 3.2506893 0.76556438
1.9209284 3.2932401 0.76907706
2.1790204 3.3163872 0.76245594
2.2016964 3.3609712 0.76339138
2.9001875 3.4674292 0.76227546
5.2315674 3.9157708 0.76914054
5.9323516 4.018826 0.766976
0.095772505 -0.047996327 0.77617764
1.0729001 -0.042194784 0.77877122
1.6718696 -0.026852086 0.77191943
0.0051739812 0.0011919886 0.77683914
0.57285321 0.050175518 0.77119982
-0.019679457 2.3548002 0.77219623
1.6799594 3.2574713 0.77428138
2.2761784 3.3650694 0.77546948
3.0571489 3.5303876 0.77104574
5.8192086 3.6944456 0.77524245
4.3217878 3.7290525 0.77344435
0.1265642 -0.071756199 0.78614557
1.8145295 -0.03143061 0.78645349
3.5928059 0.0072609782 0.78085279
0.73988235 0.08882916 0.78545564
1.4870716 3.2001209 0.78785455
3.2848859 3.5502224 0.78067178
3.29984 3.5540943 0.78112942
5.9216752 3.942663 0.78543007
0.81665635 -0.062724449 0.79818064
1.7678975 -0.041829653 0.79254919
1.6945103 -0.0173603 0.79616982
-0.0091648996 0.3072595 0.7960977
4.2871165 1.5085452 0.79114109
5.0283179 1.6090794 0.79437023
5.2740002 2.2945817 0.79518849
3.9830894 3.6787889 0.79332393
4.3615866 3.7373273 0.79278618
5.8653655 4.0049481 0.79720563
1.5290645 -0.035387859 0.80707914
2.0576835 -0.034928761 0.80281228
2.9483061 -0.014101341 0.80153424
3.4994864 -0.014855877 0.80429941
0.85011828 0.12104565 0.80942076
1.5987335 0.26803067 0.80310887
1.8189498 0.30003229 0.80782467
4.0027189 1.287436 0.80057794
-0.026907295 2.903532 0.80773622
5.8486629 4.0053639 0.80133194
3.3673501 -0.0047473609 0.81992847
0.014416814 0.25985515 0.81789821
3.3024621 0.60207921 0.8152439
3.4705014 0.65689051 0.81146151
3.9952717 1.0247862 0.81748956
3.9942765 1.1481788 0.81118923
-0.00021415949 1.6405897 0.81250471
5.0773106 1.7612362 0.81769472
0.37152445 -0.061246879 0.82854766
3.9978981 0.22743559 0.82472199
2.8130555 0.52169311 0.82195371
3.9699035 1.1316245 0.823677
0.00037819147 1.7600622 0.82507366
-0.025607198 2.560544 0.82727939
-0.043575943 2.7351022 0.82833725
-0.038398594 2.8414433 0.82813102
5.7690191 3.5636718 0.82242984
3.995327 3.668462 0.82100755
4.404067 3.7363012 0.82632738
2.3261333 0.42242438 0.83149368
4.0120835 1.1690445 0.83434457
5.1552577 1.9576595 0.83680695
5.1731448 1.9737155 0.8346011
5.3561478 2.4610281 0.83097464
0.034446537 2.9595683 0.83812159
2.6957517 3.4306643 0.83929163
3.6925263 3.6035185 0.83518249
1.6648794 -0.02566006 0.8490054
1.9795686 -0.024850413 0.84349006
2.6860971 -0.012645274 0.84752542
1.6723374 0.27456701 0.84083229
2.4683447 0.43380481 0.84322494
4.9886589 1.5493598 0.84942204
5.5937705 3.1203282 0.84608108
5.6271992 3.1946366 0.84021538
2.9882774 -0.018178299 0.85275882
3.0265326 -0.012536898 0.85320765
0.030931175 0.29406402 0.85089999
3.5645385 0.65884066 0.85855335
4.7832861 1.5073857 0.85712689
4.5736604 1.5205629 0.85415632
5.4275136 2.6824698 0.85002512
-0.022078425 2.7079103 0.8553198
3.9742823 0.64335752 0.86315066
5.1053467 1.8052602 0.86172456
5.184854 2.002629 0.86630195
1.2009758 3.1790729 0.86635011
1.2612537 -0.044172511 0.87009197
0.81537247 0.10829479 0.8711372
1.6243399 0.27656117 0.87479836
1.6976982 0.2918745 0.87948924
2.5688581 0.46668267 0.87530249
-0.027094275 1.1658554 0.87102145
4.7497444 1.497843 0.87723583
0.1652568 -0.029669814 0.88254493
2.482163 -0.017246529 0.88864404
2.627604 -0.018516153 0.88706833
2.5375147 -0.0035159737 0.88062459
0.35895175 0.012681007 0.88536578
1.0091597 0.14888108 0.88685828
4.0034075 0.30511534 0.88877147
2.6114655 0.46123451 0.88504654
4.0147076 0.60824662 0.88944429
2.1338391 3.3329065 0.88183862
5.7012129 3.4354851 0.88835961
2.6857548 3.453532 0.88308972
4.2129817 3.711766 0.88733131
0.92925322 -0.033095963 0.89213198
1.1521735 -0.039486915 0.89417833
0.0029960275 0.56150568 0.89556116
4.6974063 1.5169864 0.89838403
5.2279892 2.1381373 0.8948788
5.3814969 2.5846498 0.8927651
5.4067574 2.5943408 0.89415807
0.30664939 3.0017662 0.8958171
3.0646133 3.5170753 0.89195091
3.7869692 3.6523607 0.89497286
2.9896474 0.54522604 0.90547436
-0.0021871626 1.7553082 0.90472704
5.1119771 1.9041178 0.90425748
5.5785694 3.0749993 0.90445
2.8693194 3.4882486 0.90405697
2.6582637 -0.018242702 0.91087884
0.88583684 0.12430322 0.91978258
1.1842742 0.16625005 0.91874832
1.8739296 0.30964583 0.91671592
4.0157361 0.4008525 0.91401035
3.9914389 0.55935937 0.91529244
1.2103363 3.1810904 0.91435343
1.0397173 -0.038565263 0.92454118
2.4380293 -0.039292835 0.92646724
0.29176885 0.0043055117 0.92707282
1.342945 0.21624029 0.92532808
3.9897766 0.28941181 0.9239251
3.9987082 0.64677215 0.92635471
4.3131108 1.4984927 0.92350429
5.0310378 1.6436136 0.92503387
1.5173675 3.2272384 0.92025357
1.6172551 3.2351611 0.9236086
1.7550205 -0.033534966 0.93117291
2.3342953 -0.02166605 0.93926901
0.29730844 -0.0056594908 0.93991059
0.0010065734 0.21924213 0.93729836
3.2340965 0.60867906 0.93954331
3.995379 1.0684681 0.93527979
-0.0046197772 1.1591687 0.93970591
0.10031325 2.9606628 0.93533307
0.23735172 2.9888921 0.93457335
2.5559711 3.4242816 0.93761498
5.8287468 3.7176373 0.93792933
5.0484567 3.8745272 0.93645138
5.6991458 3.9895318 0.93583077
0.10181785 -0.035282671 0.94073039
1.1248868 0.17169699 0.94014245
3.9717474 0.57766235 0.949045
3.2442794 0.60473073 0.94035071
3.6321344 0.70617658 0.94674248
4.2998109 1.4791505 0.94754857
1.7191731 3.2517612 0.94807786
2.2188725 3.3451588 0.94861823
5.2996273 3.9199874 0.9496935
5.3863215 3.9281032 0.94512421
0.51330566 -0.050375462 0.95474249
3.9961228 0.31500959 0.95810205
0.42426276 3.0290284 0.95103365
5.6773868 3.3050678 0.95610553
5.7529407 3.4753947 0.9502086
5.8754621 3.8785856 0.9512611
2.9767423 -0.031425007 0.96577793
2.078228 -0.022587724 0.96449608
-0.0028446317 0.29334652 0.96865505
2.4423823 0.42640626 0.96911424
3.6106544 0.65873694 0.96528977
4.152472 1.5082181 0.96269614
-0.020569533 2.0956318 0.96844727
0.57008088 3.055547 0.96639782
2.2222877 3.3453503 0.96269184
3.5750709 3.5932376 0.96653301
5.876194 3.7945275 0.96678632
-0.0042768419 -0.059988394 0.97426254
3.0763106 -0.016268238 0.9710924
3.999423 0.077080086 0.97067255
1.1477159 0.17832711 0.97497243
2.7812357 0.49258065 0.97188467
-0.027116388 1.8500013 0.97516412
1.3029566 3.1839356 0.97575098
5.7097731 3.4114738 0.97520858
4.201736 3.7221172 0.97715813
5.0804019 3.8744614 0.97413772
3.4128394 -0.017394125 0.98867804
0.19545597 -0.0032995492 0.98808616
1.6046804 0.27626961 0.98147255
-0.034365088 1.9648578 0.98050815
5.1799674 1.9789393 0.9895708
5.4852509 2.8087163 0.98009592
0.14417297 2.968013 0.98816627
5.6314125 3.1845853 0.98745626
1.7675279 3.278954 0.98472065
3.8333192 3.6547291 0.98353189
4.4759846 3.7567928 0.98425239
0.96498775 -0.045423158 0.9994455
2.7114143 -0.030281812 0.99515933
1.1386137 0.17183077 0.99869019
1.6179634 0.26951802 0.99154586
3.7127233 0.69390923 0.99520963
3.9881759 0.80120993 0.99209017
0.0046590567 0.95616072 0.99169272
-0.036265612 2.3308668 0.99703401
5.4101806 2.5738273 0.99088401
-0.037412047 2.747637 0.99428874
-0.030848622 2.9242079 0.99263746
0.26297694 2.9907603 0.99592084
1.71042 3.2527637 0.9998495
1.8060969 3.2778401 0.99491256
2.3921604 3.3892503 0.99418098
4.4214993 3.7681897 0.99846119
5.026998 3.8573472 0.99472386
5.6620603 3.9760811 0.99332744
0.27242833 -0.0021037757 1.0033953
1.033486 0.1402376 1.0088902
3.9969134 0.32288301 1.0011022
2.8076496 0.50152338 1.0003455
4.0137467 0.78322232 1.0090494
3.9910173 0.91565436 1.0057752
4.844636 1.5020771 1.0088005
4.7977347 1.5216551 1.0088818
5.0096054 1.5817556 1.0073369
1.9015578 3.3076296 1.0085979
5.7661548 3.5412149 1.007169
3.9857602 0.0098518878 1.0124323
-0.016725093 1.4695995 1.0181236
3.2261004 3.5569987 1.0141227
4.2499142 3.7354803 1.0182137
4.69838 3.7872188 1.0126271
0.015291393 -0.050549284 1.0282533
0.98013914 -0.026832215 1.0201173
1.5349549 -0.025534205 1.0242507
1.5029274 0.25536349 1.0247757
0.028763533 2.9356887 1.0232937
2.0133171 3.3371725 1.0212541
4.4222722 3.7371969 1.0203104
0.21741843 -0.058736682 1.0376608
0.32852125 0.016778767 1.0390561
0.63562953 0.079820186 1.0383756
0.68915749 3.079536 1.036298
1.3789719 3.186697 1.0325921
0.072066009 -0.04499948 1.0481606
1.6956702 -0.041665092 1.0401139
0.82637548 -0.038701385 1.0467601
0.22951084 -0.016407236 1.0402119
3.9982758 1.1988947 1.049861
5.4750924 2.7730639 1.0466049
1.1295525 3.1528924 1.0402846
2.8442206 3.4804647 1.0440032
5.0833607 3.8693945 1.049767
1.4761277 -0.050930701 1.0546062
3.0244226 -0.012653142 1.0561457
0.74451184 0.094269395 1.0561047
-0.009477973 1.5496731 1.0539134
-0.02486968 1.8893175 1.0572774
5.2647433 2.2018814 1.0588067
5.4603996 2.6959658 1.0504878
4.2869954 3.7255757 1.0521088
5.8370137 3.7454729 1.0547745
5.8046684 4.0219607 1.0508704
9.0897083e-06 0.2475571 1.0604119
4.0240841 0.37489462 1.0653317
5.7596917 3.5229378 1.0641437
3.2127337 3.5338387 1.0656443
3.8022571 3.6357124 1.0616763
5.8220992 3.9895551 1.0689917
2.253788 -0.02257292 1.0745218
5.536653 2.9163685 1.0748925
1.1642237 3.178288 1.0768085
5.751605 3.5248766 1.0727232
3.8833675 0.00083422661 1.0828753
4.4913182 1.5040102 1.0889237
4.5506115 1.5220585 1.0839572
5.0133419 1.5734839 1.0892868
-0.03130281 2.4246349 1.0842602
0.82550943 3.0986495 1.0897708
1.4144413 3.2003417 1.0818021
5.764853 3.5698905 1.0898485
3.9872456 3.6796088 1.0894423
5.8694425 4.0208616 1.0882616
2.6945853 -0.0047563463 1.0978177
3.4597192 0.64768147 1.0971184
4.0445347 1.4911585 1.0949249
0.63299131 3.0433872 1.0993426
1.4933728 3.227493 1.0963373
2.053134 3.3241854 1.0998335
4.9745646 3.8662927 1.0908697
5.3405695 3.9040143 1.0958879
5.921524 3.9923112 1.0954742
2.4007902 -0.011862859 1.1099389
-0.0075637102 0.51486081 1.1019204
-0.032061338 1.8808122 1.1029482
5.3654671 2.5070894 1.1092026
0.25914943 2.9948187 1.1018982
0.55929232 3.0419822 1.106118
0.63633466 3.0608737 1.1029129
1.4924752 3.209265 1.1001849
4.7651033 3.8105917 1.1033597
4.8875494 3.8443623 1.1000402
0.86060953 0.12896731 1.1105602
-0.013495624 0.80719435 1.1149473
4.1280804 1.4969864 1.1190259
4.3723598 1.5232208 1.1159635
5.0487242 1.6621757 1.1151872
5.3976073 2.588002 1.1162353
1.6298105 3.2435594 1.1105123
1.8912116 3.2828434 1.1160052
2.8967452 3.4831173 1.1123025
3.9309158 3.6554415 1.1141229
4.2131248 3.7123718 1.1152368
4.3034334 3.7312465 1.1151717
0.82904434 -0.047958933 1.1201341
4.0250816 0.34061208 1.1261051
2.6053643 0.45851666 1.1260595
2.7816243 0.50247687 1.1232154
2.9828725 0.54490638 1.1221044
0.00090068579 2.1038043 1.1256573
5.2567267 2.1741323 1.1239302
-0.027387619 2.456856 1.1236734
1.049968 3.152648 1.1218927
1.6405462 3.2496281 1.1200519
5.7224216 3.3931265 1.1213064
5.7388887 3.5237021 1.1235065
0.31382227 -0.063637555 1.1312575
1.3857427 0.23496464 1.1370475
2.1000695 0.3438915 1.1307671
2.7006021 0.50291234 1.132884
3.9401965 0.72830158 1.1348832
4.4702215 1.48947 1.1363182
0.4845224 3.0255449 1.1319201
0.74279749 3.0862286 1.1328151
2.1057005 3.3287325 1.1342075
3.9591327 3.6622233 1.1310465
4.3978214 3.755724 1.1318305
4.8830881 3.8369787 1.1307919
5.1105094 3.8846042 1.1306477
4.0117598 0.040323079 1.1415756
0.0019417405 0.36553389 1.1442091
3.9977894 1.2356188 1.1402969
-0.0069620013 1.3088887 1.1484759
-0.027065843 2.0642991 1.1493585
-0.01353991 2.6721525 1.1487286
0.22609115 2.9899533 1.1459069
2.1000452 3.3269432 1.1481671
2.6080379 3.4267242 1.1422575
1.0093745 -0.040110677 1.153796
3.1101432 -0.028279163 1.1542735
0.6253835 0.057268023 1.1535759
4.387712 1.5116887 1.1519041
-0.011047095 2.3416533 1.1548264
3.3021388 -0.011484489 1.1650548
3.845324 0.013251811 1.1600213
3.9965315 1.3610876 1.1654987
-0.019502372 1.7991929 1.1687534
-0.017213255 1.9597464 1.1625812
1.8014349 3.2837946 1.1673453
2.0583959 3.3004539 1.1647067
2.4609761 3.3886979 1.1642733
4.3031235 3.7279978 1.1667747
2.3777623 -0.0073654652 1.1777484
3.4115076 -0.0065355152 1.1745617
3.0479579 0.5664469 1.1737664
5.2696595 2.2242162 1.1726882
0.89672625 3.1277399 1.1798038
5.9385233 3.9693425 1.1782131
3.9357553 0.0067071021 1.1827168
5.1609259 1.9328268 1.1865206
-0.025906861 2.2879398 1.1836648
3.9680195 1.4979742 1.1998715
5.3561144 2.4819992 1.1986628
2.8309393 3.4534497 1.1969903
3.229701 3.5346005 1.1922798
4.7090092 3.7864716 1.1927071
1.1315603 -0.042494535 1.2043242
0.73146975 0.08979921 1.2016466
1.0302362 0.14576843 1.2052267
3.9987178 0.15047801 1.2009234
3.9984174 0.50348777 1.2062886
2.8045678 0.51040041 1.2016721
2.9701886 0.52392429 1.2053504
0.0057644248 0.57846773 1.2011423
3.3072019 0.60316473 1.2066214
5.1392465 1.9747133 1.2050233
0.92438209 3.1097448 1.205718
3.9237056 -0.00081153214 1.2199676
4.0276632 0.3777318 1.2185822
3.8987827 0.72458035 1.2178504
3.9921398 0.85688788 1.211025
3.9926128 0.91299599 1.2130642
4.0191503 1.5088341 1.2150557
4.2660232 1.5173655 1.2136974
0.72725832 3.0782726 1.2137368
5.5998158 3.0856972 1.2150271
5.7225947 3.4412498 1.2100873
3.2549057 3.5328639 1.2138815
3.5748773 -0.0014675707 1.2283981
1.287918 0.21022442 1.220911
4.0140672 0.23043561 1.2217567
-0.0085409582 1.6048586 1.2280645
-0.026107013 1.7491798 1.227176
5.5972342 3.1544032 1.222842
2.2927184 3.3457828 1.220073
4.2349582 3.7184105 1.2251518
5.4377942 3.9415963 1.2274635
5.8583193 4.036026 1.2269328
0.83994436 -0.042570025 1.2305496
2.4226661 -0.02980724 1.2349262
0.75578117 0.089791074 1.2340684
3.9877834 0.95947546 1.2314188
3.9900608 1.1320119 1.2304378
0.0020438731 1.8410747 1.2372317
1.4396063 3.1936376 1.2320502
1.7432071 3.2747025 1.2316275
1.7877327 3.289089 1.2362087
3.5038505 3.5817511 1.2306807
5.9115334 4.0163097 1.2308514
2.1956038 -0.033864334 1.2442861
2.8978343 -0.019291177 1.2454498
2.9928269 -0.017265961 1.2456405
0.79717064 0.092548266 1.2483132
0.0095444918 0.93445295 1.2498603
5.0514164 1.6692977 1.2417631
5.377707 2.5700972 1.2496276
4.6152959 3.7884328 1.2417738
0.64229786 -0.050953157 1.2555847
2.5665984 -0.026571214 1.2573538
2.5102792 0.45344794 1.2584436
3.8234921 0.7159934 1.2568545
3.9987044 0.73339576 1.2568192
3.995729 1.2098451 1.2521658
3.9721003 1.3069782 1.2574675
5.4252129 2.6573195 1.2537918
5.7789698 3.5478737 1.2570145
5.7981 3.6131709 1.2568688
0.75664997 -0.054925799 1.2667322
0.3896535 -0.049264938 1.2617843
0.11236167 -0.03936699 1.2648361
1.4491041 -0.034298748 1.2639751
3.8872862 -0.0081655383 1.2667508
3.1883969 0.57079726 1.2609556
3.1104054 0.58356905 1.2643914
3.4531841 0.6360743 1.2645895
3.9711609 0.8855291 1.2683616
2.0420833 3.3002481 1.2694793
0.49045068 -0.03862761 1.276258
1.6701068 -0.022115812 1.2774155
0.47890961 0.049589649 1.2705119
-0.014426082 0.44401944 1.2726815
-0.0013597608 0.96501964 1.2756658
4.964849 1.5137832 1.2727966
2.6422529 3.4074366 1.274771
4.412529 3.7397158 1.2713091
0.5298847 -0.04425671 1.2858195
3.531384 -0.024290919 1.287025
3.7542434 0.71173447 1.2864799
3.9726529 0.94492847 1.2828386
0.98856151 3.1233063 1.2847426
1.0924028 3.1444225 1.2849381
1.9039308 3.2773612 1.2855086
3.2495208 3.5460358 1.2876823
0.24914116 -0.065902725 1.2919106
2.8153157 -0.0030620098 1.2980893
3.7227426 0.69808125 1.2969735
-0.018302768 1.2964184 1.2972615
-0.029798776 1.9188807 1.2988522
0.029459596 2.9456716 1.2909021
1.502763 3.2146356 1.2930601
3.2117357 3.5166273 1.2921484
3.9289761 3.6570222 1.2998989
4.0079069 3.6701038 1.290324
4.6421561 3.7863402 1.2967951
5.540585 3.9670665 1.2934861
1.760712 0.27438316 1.3031545
4.0065918 0.4675101 1.3085895
3.3045688 0.61263543 1.3008716
3.4975691 0.65483201 1.3085136
-0.011090666 1.3382175 1.303381
-0.046622574 2.0101712 1.3035669
0.22826618 -0.044770285 1.317929
0.87972319 0.11403039 1.3150086
3.9796057 1.1673059 1.3129909
5.2101288 2.0993993 1.3143692
3.6175942 3.6182973 1.3156996
5.5413446 3.9610202 1.3107131
3.2868528 -0.014373124 1.320657
0.48625189 0.044161171 1.32546
1.3984486 0.20804629 1.3294101
4.0144444 0.48728216 1.3250401
3.7488875 0.7158519 1.3262231
-0.026954472 1.6845515 1.3299031
5.1396575 1.8761234 1.3259926
0.88546133 3.1053708 1.3287764
3.1202226 3.5157657 1.3236575
3.6286716 3.6038959 1.3219302
5.8856635 3.8290069 1.3262374
5.4858198 3.9508998 1.3247597
3.9177194 0.73829526 1.3393731
5.117259 1.8901663 1.3366604
-0.023794174 2.1085134 1.3336921
1.3365278 3.2069924 1.3395238
2.5090637 3.4139214 1.3390381
2.7004852 3.4406884 1.33921
3.3348041 3.562109 1.3360009
4.5517244 3.7760434 1.33494
4.8279347 3.8202002 1.3383279
5.3662572 3.9382675 1.3336897
0.50351918 -0.065268688 1.342675
2.0060639 -0.035247281 1.3453991
0.020652354 0.041028604 1.3407965
2.4630742 0.44497621 1.3427813
0.0031893551 0.52100545 1.3407171
3.9891167 0.6599111 1.342746
5.0560269 1.6540186 1.3453369
5.4784741 2.756557 1.3482392
5.5501857 2.9517982 1.3411779
2.2282004 3.3551991 1.3498189
2.2993917 3.364578 1.3401334
2.5621705 3.4009843 1.3405437
3.1251993 3.523566 1.3414185
5.7660089 3.5719554 1.3426023
5.8722453 4.0143862 1.3418398
1.6292852 -0.044690855 1.3553169
2.2066426 0.38659877 1.3580167
4.8084126 3.8198926 1.3520815
5.3068285 3.9143651 1.3504844
5.9157319 3.985811 1.3524508
2.4266262 -0.025224566 1.3601704
1.9759284 0.31760874 1.3654578
2.5648136 0.44763285 1.3622169
0.017554522 0.65193403 1.3678815
3.9752288 1.0164976 1.365135
3.9993954 1.2645483 1.3668039
4.743175 1.5069039 1.3630261
-0.040813327 2.3699398 1.3622775
5.5066104 2.8900056 1.3676224
1.7307988 3.2778609 1.3604763
3.2411509 3.5498402 1.3695357
5.7985668 3.5688736 1.3663373
3.5828199 3.588093 1.3684657
4.0380583 3.6791615 1.3680496
0.38554275 -0.059106275 1.3758497
1.7632176 0.30456153 1.3735785
-0.02312234 0.70438564 1.3795118
4.1110148 3.6884196 1.3767116
5.8834953 3.8477726 1.3700602
2.4574556 -0.044171117 1.383229
4.0034046 0.2251108 1.3817127
2.4517341 0.42736083 1.3842001
5.2324324 2.1876798 1.388283
5.5795369 3.0836086 1.387804
4.4084048 3.7594354 1.3842657
5.4636269 3.9495552 1.3877203
0.82587993 -0.030184448 1.3961022
3.1604295 -0.022769384 1.3977571
2.6056104 -0.013744697 1.3986611
1.7048596 0.30542976 1.3995366
3.9986877 0.953677 1.3907797
-0.0094988942 0.97933501 1.3990238
4.0008845 0.99950057 1.3906529
0.11851591 2.9837723 1.3972297
1.8681818 3.3000026 1.3946855
4.2881255 3.7114775 1.3944085
4.5979638 3.7976675 1.3932233
1.0070632 0.1685926 1.4056222
2.3603473 0.41692305 1.404423
3.1980696 0.58560246 1.4042268
3.6037889 0.66218615 1.4069676
5.303668 2.3699563 1.4031537
5.3654594 2.4960446 1.4010329
3.6870265 3.618767 1.4098382
0.28514802 -0.048454717 1.4125345
0.0055690408 0.19288737 1.4150891
1.9485995 0.32674465 1.4158647
2.234767 0.38765126 1.4164042
2.6632938 0.47833782 1.417671
-0.010975748 2.6274736 1.4150076
1.4392996 3.2040942 1.4103751
2.1853919 3.3358867 1.4118752
5.8491459 3.7872982 1.4138098
0.036571681 -0.047346011 1.4272742
2.553257 -0.044743054 1.4280367
3.1825585 -0.027017355 1.4257109
1.5559028 -0.018908709 1.4256642
1.5218042 0.24125928 1.421242
1.6015958 0.25939104 1.4224682
2.394928 0.40703291 1.4251854
3.2110934 0.60267347 1.4248407
-0.015399069 0.9815473 1.4241767
3.9896836 1.3622046 1.4250424
4.0110922 1.5068688 1.4223769
2.1187458 3.3337085 1.4272006
2.3288579 3.3704581 1.426523
2.596591 3.4058185 1.424464
3.2323427 3.5282445 1.4202476
4.0870814 3.6936164 1.4233816
1.1890911 0.18887308 1.4385598
-0.0065032542 1.846915 1.4314532
5.2724686 2.1752017 1.4345183
-0.012957841 2.3273549 1.432416
-0.028124988 2.9001443 1.4392335
0.53991032 3.0474868 1.4337697
4.9344859 3.8487623 1.4320738
0.81966639 -0.052750923 1.446589
2.4920583 -0.0071546733 1.4488385
0.49613351 0.03944613 1.4416332
0.819502 0.10341154 1.4476779
2.8521605 0.51790929 1.4420211
2.8856931 0.51456821 1.4456961
-0.00034296513 1.2333562 1.4473484
5.5400701 2.9260674 1.4412582
3.4371567 3.58391 1.4461653
4.1794329 3.7008007 1.4402041
5.2175827 3.9025776 1.4451249
5.425375 3.9532883 1.4478984
5.9219513 4.028028 1.4409895
0.019647837 -0.073379092 1.4517865
0.5351342 -0.061590441 1.4563358
1.0311952 -0.041005045 1.4579177
0.4302398 -0.037041277 1.4511633
1.0735792 0.16964287 1.4518597
2.5723538 0.45499665 1.4539418
3.2603912 0.5854755 1.4593482
3.4651513 0.63404596 1.4553344
3.3623123 3.5550742 1.4590461
3.8664188 -0.010702774 1.4698026
3.9984164 1.4937894 1.4611559
0.34517574 3.0122566 1.4693596
2.6519451 -0.028474674 1.4727488
3.961041 -0.011890993 1.4742484
2.9080563 -0.0047255605 1.4711936
3.0524316 0.55266416 1.4747877
-0.0052906573 1.1787703 1.4773357
-0.0038235486 1.3360403 1.4799323
4.4344754 1.4951675 1.4776473
-0.017129093 1.5932262 1.4776211
0.69903862 3.0812168 1.4776278
0.84934926 3.1004801 1.471658
3.5209146 3.5790007 1.4776051
1.4062452 -0.024137795 1.4818707
5.0950227 1.7532935 1.4887655
5.343298 2.4125125 1.4849272
0.6436255 3.0617828 1.4880228
2.6576591 3.4283948 1.4879227
3.0988884 3.4887023 1.4812224
5.0825114 3.8557179 1.4848864
0.3830604 -0.046312824 1.4924297
2.1481867 -0.048446894 1.4928908
3.8887486 -0.0071424544 1.4909041
0.004547894 2.9653766 1.490582
0.60949719 3.0409889 1.4989138
0.61473668 -0.046157397 1.5091982
3.8851047 -0.012239397 1.5062182
4.0292311 0.10927606 1.5043337
3.6280251 0.66749436 1.5017235
5.4823709 2.7670078 1.5001283
5.5791216 3.0267174 1.5050464
1.1096262 3.1715486 1.5071971
1.7129124 3.2654335 1.5066516
3.052125 3.5054379 1.5085897
4.1880298 3.7052753 1.5080452
1.530341 0.24145427 1.5155449
0.039959192 2.9510143 1.5160649
2.2925429 3.3670626 1.5185699
5.9138594 3.9149425 1.5119908
3.4093714 -0.0063702315 1.5224664
0.0064674318 0.083476916 1.5288532
3.5608559 0.66515601 1.5276279
5.4687505 2.7748475 1.5223835
5.5076852 2.9052143 1.5271215
5.5134315 2.9294441 1.5296972
1.456247 3.2082312 1.5262661
2.4863706 3.3808353 1.5283804
0.52271831 -0.060136214 1.5383141
1.6915685 -0.039147571 1.5308199
3.996367 0.2706835 1.5354357
5.2910657 2.3031676 1.5350192
5.5016031 2.829536 1.5356975
5.0589294 3.8687389 1.5322852
5.5382357 3.9550731 1.5353119
0.062672138 -0.064620651 1.5413046
0.73082304 -0.049866341 1.5406852
0.43282193 0.027199402 1.5403166
4.0112228 0.085748583 1.546479
0.0026070476 0.47056353 1.541991
3.9891644 1.0420997 1.545223
-0.026816785 2.1978328 1.5454056
0.18325049 2.9758193 1.5432527
3.7096186 3.6357887 1.5433636
1.4898088 -0.043031298 1.5503325
0.0015720129 0.1265513 1.5563891
2.637578 0.47882503 1.5593374
3.9873419 0.84313667 1.550492
-0.019528449 1.2779715 1.557364
-0.0017588139 1.6260366 1.550832
2.0985355 3.3550816 1.5564632
5.2820854 3.8947423 1.5560398
3.2062955 -0.032371044 1.5618944
1.116607 0.17052215 1.5694168
3.859705 0.72180349 1.5620792
-0.0077107549 0.86126083 1.5603855
-0.03123638 2.4900961 1.5667048
1.7816776 3.2723742 1.5690165
3.5392327 3.5913606 1.5637672
3.5668602 -0.0062197 1.5736284
5.2048836 2.1257653 1.5701835
5.936069 3.9986818 1.5796323
0.90258825 -0.064843342 1.5867023
0.13947678 -0.042781577 1.5815527
1.2668343 -0.012809217 1.5871065
0.0078013241 0.022350371 1.5897493
0.6866504 0.078093737 1.5821795
1.6906229 0.27701965 1.580333
1.8913103 0.32440212 1.5859592
2.0202084 0.35065719 1.5815079
-0.0084068179 1.6707785 1.5828605
-0.03181082 2.1351213 1.5877349
5.25562 2.274122 1.5831714
0.82675529 3.1013033 1.5856719
1.2302647 3.1727877 1.5862899
2.9467893 3.4799356 1.5809662
3.3130145 3.5412605 1.5833778
3.8075318 -0.0034074634 1.5915949
0.0035246611 0.53280538 1.5976214
4.0374322 1.5068853 1.596909
4.0423293 1.5062819 1.5937288
5.0291595 1.6855125 1.5902221
0.43670869 3.0230083 1.593498
1.6140035 3.2514431 1.5979676
