# .PCD v0.7 - Point Cloud Data file format
VERSION 0.7
FIELDS x y z
SIZE 4 4 4
TYPE F F F
COUNT 1 1 1
WIDTH 1523
HEIGHT 1
VIEWPOINT 0 0 0 1 0 0 0
POINTS 1523
DATA ascii
5.1815033 3.8931282 0.52495706
1.760904 -0.036047079 0.53458905
0.013709247 0.31143838 0.53979921
3.9942012 0.3478629 0.53195262
2.003262 0.35693252 0.53726792
2.9523411 0.56772989 0.53943574
4.3138385 3.7360678 0.53446949
0.26789683 -0.047666863 0.54096091
0.83157098 -0.049617283 0.54387975
2.22752 -0.01393038 0.54255772
2.3438282 -0.0025766939 0.54039764
-0.016274095 1.6585622 0.54751289
-0.02781713 1.9821284 0.54104149
0.29190469 3.0010509 0.54673636
0.80252755 3.1045389 0.54170883
2.0640473 3.3220747 0.54358745
5.0621958 3.8965051 0.5414362
0.3882525 3.0092816 0.55916464
0.47765452 3.0455556 0.55481768
1.0057647 3.1418965 0.55926204
1.3337297 3.1955431 0.55021012
1.4707621 3.2105312 0.55004907
5.6921687 3.3460836 0.55166888
3.0641193 3.5042429 0.55751896
3.9902029 3.6808102 0.55432689
5.8453999 3.7630317 0.55159283
4.5458083 3.7826302 0.55690265
4.8806834 3.8346939 0.55287719
2.9518981 -0.026589207 0.56840527
3.7304416 -0.011614576 0.56045246
3.7065163 -0.0031177849 0.56864643
0.92828453 0.135259 0.56300735
1.3657012 0.22153085 0.56806803
3.9942398 0.71640587 0.56665564
4.5683646 1.5248735 0.56159103
-0.010685384 2.1383102 0.56230295
-0.022550434 2.5522559 0.56649888
0.18830264 2.985239 0.56584966
0.3529073 3.0160718 0.560009
2.2132645 3.3487597 0.56058979
5.8039331 3.6700242 0.56465232
5.4160681 3.9514873 0.56323624
5.8792191 4.010982 0.56026769
0.020535111 -0.046077974 0.5773102
0.030029297 -0.033053182 0.57373011
2.034739 -0.013969332 0.57891273
3.1005158 0.0037243664 0.57062697
0.89545965 0.12146133 0.57563591
4.0001998 1.2183764 0.57027876
-0.023023278 1.2694521 0.57949436
-0.0087959468 1.7107189 0.57335293
-0.025421709 2.380811 0.57254171
-0.046033174 2.7234259 0.57187951
4.7337508 3.8048913 0.57786059
5.7849336 4.0207696 0.5759933
1.4850955 -0.015005894 0.58201575
3.3976474 0.64562273 0.58599925
4.0108237 0.65143096 0.58172119
4.7835765 1.523515 0.58275938
5.3606167 2.4833708 0.58236241
0.2790423 2.9992645 0.58203828
1.2064551 3.1621487 0.58436036
1.4891471 3.2359235 0.5847373
5.688067 3.3452725 0.58158076
5.0884852 3.8778536 0.58411145
0.47962421 0.031143785 0.59919071
2.0316033 -0.022950977 0.60500014
2.8844185 -0.0034128428 0.60546052
4.0019212 0.10289052 0.60836816
0.0042261183 0.1427899 0.60096693
1.2361244 0.20279175 0.6043812
1.4368124 0.22572041 0.60637343
1.8319899 0.30594155 0.60560441
3.0093932 0.55375057 0.6035676
3.9878306 1.181916 0.60567009
5.6249099 3.1616077 0.60010803
3.3380499 3.5570045 0.60043848
5.9200897 3.9319723 0.60956705
1.9008456 -0.029643804 0.61677372
4.0042181 0.43847859 0.61242282
3.9994597 0.48959887 0.61481273
-0.013853401 2.1043632 0.61030507
5.2941704 2.3332248 0.61792672
0.33405221 -0.045433193 0.62462425
1.3761387 -0.046135515 0.6250658
1.9877156 0.34811437 0.62856102
3.6446772 0.66702551 0.62915075
0.00012871623 1.0703015 0.62845182
-0.045273781 2.7879674 0.6240108
2.1065321 3.3403852 0.6218158
3.1362853 3.5224521 0.62502873
0.2605142 -0.047550447 0.63240719
0.0946545 -0.030267321 0.6355958
2.9198151 -0.01640673 0.63881636
4.0134487 0.014313072 0.63054192
4.0180507 0.1237171 0.63491845
1.120828 0.16924885 0.63765574
-0.011110723 0.79202819 0.63007367
-0.020825058 1.2716842 0.63433671
5.072361 1.7025261 0.63705111
-0.015455961 1.7138317 0.63559902
5.3710995 2.5259976 0.6390928
1.9619738 3.3065827 0.63479221
5.7789602 3.5924747 0.63321483
4.9843616 3.8436813 0.63919365
3.4376712 -0.021809898 0.64396524
2.2523451 -0.0030837357 0.645944
2.3384504 -0.0024794787 0.64615679
0.50364047 0.034402132 0.64252913
0.18666452 3.0037699 0.64030981
5.8619013 3.785326 0.64294922
5.7834501 4.0152531 0.64276218
1.308823 -0.012161523 0.6587826
2.9133329 -0.010342956 0.65277243
3.5172238 -0.010535046 0.65467823
0.63568044 0.084543988 0.65727544
0.0164994 0.2290135 0.65410447
5.1239762 1.8914225 0.65141153
5.4784598 2.834697 0.65534782
3.0294747 3.5023339 0.65844393
3.3379426 3.5641491 0.65356016
3.9048691 3.6690609 0.65453982
5.9185033 3.9649775 0.65809536
0.01200965 0.15355882 0.66584051
3.3456349 0.61741364 0.66365957
3.9944305 0.66927516 0.66997862
-0.037154943 2.2496221 0.66454124
-0.029554039 2.7318785 0.6634984
0.87007999 3.1151102 0.66328382
4.3620639 3.7539876 0.66817784
2.8834152 -0.021536782 0.67814898
0.18816376 -0.017334677 0.67148423
3.3299117 -0.0042408556 0.67471838
0.55528653 0.05459781 0.67147624
4.0076966 0.44651359 0.67621064
1.9902886 -0.033696428 0.68298721
0.27072817 0.016504452 0.68716455
0.016755044 0.16092911 0.68972528
1.9833409 0.3415857 0.68838704
2.108736 0.36016512 0.68332422
2.7150688 0.49286729 0.68570554
2.887917 0.53792274 0.6842494
3.9693875 0.76447141 0.68625319
4.013833 0.81771135 0.68446219
4.9651589 1.5114603 0.68998623
-0.046198726 2.7953341 0.6821183
0.030593872 2.9330444 0.68345976
0.089344203 2.9572423 0.68709278
0.69094241 3.064626 0.68440247
1.2142802 3.1688008 0.68642294
1.2689329 3.1954346 0.68348467
3.3461533 3.5620112 0.68262374
5.5241075 3.9564197 0.68772829
5.6101022 3.9831116 0.68317807
2.2449999 -0.013318315 0.69718075
-0.012351662 1.8876271 0.69380593
-0.028078139 1.9020681 0.69895887
-0.026602715 2.2864447 0.69591033
0.58591104 -0.050822511 0.70828164
3.010704 -0.022940047 0.70100486
2.0812249 0.36428851 0.70322287
3.9986901 0.71683419 0.70839214
-0.013635069 1.5590773 0.70346951
-0.024185598 1.8267467 0.70654881
5.2922974 2.3344564 0.70308173
-0.037273377 2.4094698 0.70886838
0.18847275 2.9786091 0.70302713
5.8657346 4.0172663 0.70700669
2.7628636 0.50513858 0.7141155
2.7443986 0.51003194 0.71482968
4.0021896 1.2546077 0.71491385
0.70714533 3.0698602 0.71743739
2.5303755 3.4197924 0.71595395
2.8940315 3.4879324 0.71887767
3.1790452 3.5422347 0.71740127
4.4830775 3.7746263 0.71740544
4.6587715 3.8150833 0.7179606
1.3205658 -0.0269752 0.72285736
1.8880929 -0.028428406 0.7253921
0.47890335 0.038290635 0.72564852
5.5361428 2.9804866 0.72897136
3.7586713 3.6212041 0.7278738
3.3627377 -0.01271674 0.73654556
1.570038 0.26854104 0.73963165
3.9983535 0.41538447 0.73886287
-0.0080701709 1.2533591 0.73217785
-0.014547259 1.36637 0.73124707
4.0021625 1.3859429 0.73563588
5.0544353 1.6850297 0.73425901
3.5851541 3.6014888 0.73544216
4.6738901 3.8068755 0.73171473
2.376966 0.42085558 0.74962425
4.0212846 0.58161598 0.74479651
3.3162284 0.61331195 0.74123603
3.7128706 0.69521028 0.74627995
-0.0033287406 1.010967 0.74378908
5.6322312 3.15821 0.74626839
5.1778564 3.9107811 0.74014843
0.037063956 -0.056893185 0.75492096
0.84142041 -0.038130224 0.75701118
1.7225653 -0.029463284 0.75521159
3.6274362 0.0027068555 0.75293708
0.023636281 0.70489204 0.75311661
4.0014286 1.2436314 0.7599709
-0.0097073019 2.0416133 0.75890493
2.2115993 3.3472502 0.75700176
3.4166288 3.5691748 0.75348759
3.723969 3.6259565 0.7536422
3.2009482 -0.011966333 0.76672208
1.6397446 0.26624539 0.7612462
1.8934449 0.32437372 0.76201904
2.6571231 0.49127793 0.76998293
-0.013913691 0.68385035 0.76500213
3.9241824 0.73752958 0.76543105
4.624917 1.4996614 0.76162577
-0.017066151 2.1022987 0.76006758
-0.0098686814 2.3736522 0.76349401
3.3213568 3.5506618 0.76548719
-0.0027842224 0.5146842 0.77460194
0.044468582 2.9616709 0.77447724
3.5195584 -0.0077492595 0.78411829
0.021665812 0.41236418 0.78360891
3.9791589 0.75733072 0.78098154
3.9812222 1.3242843 0.78859258
3.9942098 1.3531456 0.78508472
5.241817 2.1749694 0.78925788
5.2639866 2.2407179 0.78002214
-0.023674935 2.7912121 0.78077781
5.5060382 2.8778284 0.7826761
5.6217313 3.1791503 0.78635991
1.942715 3.3285382 0.78735113
5.7328181 3.5083168 0.78558099
3.315382 0.0023929328 0.7918278
3.3339057 0.010373101 0.79130113
2.095962 0.38330024 0.79273462
-0.0024558604 1.0751107 0.796785
-0.00079587102 1.4811172 0.79022932
4.9014611 1.5198987 0.79905009
0.47882789 3.0307057 0.79437149
3.725852 3.625603 0.79372263
0.74224377 -0.043759331 0.80667758
1.7064136 -0.028433315 0.80242789
2.7602382 -0.0040825456 0.80012572
3.9169097 0.017679334 0.80792594
0.0099205673 0.60761023 0.80425262
3.9852381 1.3131249 0.80510187
4.9261742 1.520134 0.80051041
2.4182363 3.3993466 0.80014443
0.11489421 -0.048870526 0.81642771
1.2293336 -0.039279804 0.81922555
1.7538654 -0.028253861 0.81008422
2.8891683 0.004815802 0.81489718
-0.01628381 2.7809465 0.81884027
1.9323341 3.3083119 0.81818676
5.7306147 3.5210757 0.81358254
2.8620901 -0.0068714172 0.82097447
-0.030576527 2.5578892 0.82453597
2.4898963 3.398149 0.8222822
4.6047664 3.7801437 0.82425761
0.19318497 -0.038082905 0.83859551
3.2514811 -0.014394008 0.83438754
2.8211231 -0.0027539432 0.83979952
3.4709802 0.002301842 0.83761895
0.0032336712 0.032026276 0.83206737
4.0070038 0.21209541 0.83055604
3.9044085 0.73734218 0.83689487
5.1879392 2.0355527 0.8365612
-0.033300281 2.1646671 0.83623147
0.96645498 3.1484122 0.83014143
5.6500893 3.229583 0.83455718
5.7520204 3.5046673 0.83660531
5.5406127 3.9671037 0.83292449
1.3417459 0.21587452 0.84579539
2.2767863 0.41125017 0.84498644
0.00068342686 1.0839374 0.84103572
4.3571582 1.5144413 0.84212685
4.727387 1.525023 0.8405875
1.6570848 3.2627492 0.84587693
4.0627351 3.6943476 0.84331691
5.9161382 3.9382246 0.84369564
2.9499297 -0.010891959 0.85000789
2.6884012 -0.0038445294 0.8535881
4.0016108 0.54923987 0.85728753
3.9873004 0.63935304 0.85520983
4.6157517 1.5165455 0.8549937
0.82488418 3.1037655 0.85188043
2.0769458 3.3469481 0.85081017
5.7072392 3.3537519 0.85988927
5.5998826 3.9520285 0.85387266
0.21663404 -0.030288756 0.86136067
2.2825365 0.42826307 0.86877847
3.3371902 0.6292699 0.86827636
-0.012247562 1.0304244 0.86048651
4.0143104 1.1810036 0.86772156
-0.018681556 1.4209123 0.86791778
5.0157461 1.5622277 0.86604643
-0.011392951 2.0903044 0.86775064
2.7952948 3.4775815 0.86719429
3.5930791 3.6101604 0.86590862
4.7205815 3.7955458 0.8627826
0.31404585 -0.053946249 0.8740387
4.0169473 0.26088515 0.87931633
4.0085258 0.59326899 0.87967181
3.281179 0.6261602 0.87299514
3.7611752 0.70502615 0.87146926
-0.04349336 2.6719649 0.87928271
5.4962125 2.8107727 0.87346995
4.652812 3.8149979 0.87524968
5.8978214 3.9146307 0.87810445
0.44842839 0.053678691 0.88037324
0.74266505 0.085807577 0.885818
0.01369372 0.65201396 0.88035142
4.100471 1.5016384 0.88939714
0.77921557 3.1043434 0.88191438
2.1996727 3.3602667 0.88741326
5.7549233 3.4914699 0.88372838
4.1281328 3.7116106 0.88044477
4.9061122 3.8389368 0.88541985
4.9221559 3.8500872 0.88421178
5.3050933 3.9187648 0.885656
1.5116172 -0.032015242 0.89314055
1.6072031 -0.026034325 0.89625359
0.018526196 0.049448192 0.89036429
1.4708848 0.25699386 0.8980422
2.2856784 0.41363275 0.89193761
5.2394681 2.1943374 0.89370811
-0.027917475 2.2744236 0.89624238
1.5331424 3.21315 0.89803958
2.0329599 3.327698 0.89818025
4.1052747 3.6916187 0.89287055
5.8744893 3.794569 0.89727581
2.6672878 -0.016812086 0.90148234
3.9970694 0.50058067 0.90291822
-0.012223929 1.5801318 0.90609097
5.3583012 2.4991231 0.90902162
1.4550767 0.25884989 0.9111445
3.0709939 0.57339066 0.91369772
5.0235271 1.5711291 0.91091442
-0.025962472 1.8681562 0.91679239
0.43533111 3.038384 0.9116143
-0.015602827 1.1763561 0.9208343
5.4488716 2.7443664 0.92534149
4.6732564 3.7997282 0.92857063
5.8674111 3.7979484 0.92510545
-0.018302292 2.2536025 0.9341892
5.5347862 2.9071095 0.93865168
0.22083509 2.9878695 0.9342941
5.7386527 3.4922061 0.93807185
3.3617802 3.5709577 0.93443501
0.023330927 -0.045660034 0.94034576
1.8009068 0.30549574 0.9486351
3.2699275 0.59670943 0.94351828
-0.017201811 1.5265257 0.94162595
4.8967786 1.524487 0.94588757
1.6083969 3.24103 0.94643009
5.8170261 3.7126091 0.94141591
2.0822821 -0.022589713 0.95671141
4.0177908 0.3095018 0.95781851
3.5411382 0.65664744 0.95979416
-0.001570344 1.3575962 0.95665622
2.5703945 -0.019952044 0.96404123
0.021441042 0.19898257 0.96136689
3.9911094 0.40451282 0.96215284
4.0063796 1.0121725 0.96591496
3.9974012 1.1575968 0.96323431
3.994081 1.3103034 0.96484625
0.20490587 2.9761248 0.96178722
5.5577455 2.9960282 0.96683848
5.1311493 3.885689 0.96017778
5.5147543 3.9577525 0.96438599
2.6214538 -0.018940158 0.97073162
2.9266243 -0.015820473 0.97736311
-0.0003491044 0.058695614 0.97636139
0.0092271566 0.27737641 0.97952771
4.2999253 1.5302875 0.97532713
5.2875261 2.3019135 0.97574151
2.650991 3.423847 0.97661448
3.3734751 3.5722229 0.9717201
0.17479026 -0.045719698 0.98447657
3.4417887 0.0040250272 0.98523033
1.0294679 0.14678749 0.98183286
1.2985994 0.19628581 0.98641193
1.3291701 0.21992159 0.98191941
1.3930305 0.23125547 0.98771489
3.994226 0.38630635 0.98863244
2.941268 0.53286815 0.98589885
4.0032234 1.4120708 0.98150182
5.5332689 2.9210119 0.98495984
0.016854942 2.9499373 0.98115134
0.66030085 3.0538976 0.9889605
3.5652709 3.5840056 0.98794878
4.00951 3.6801336 0.98563266
4.9058418 3.8566442 0.98207843
0.43418604 -0.064335525 0.99474633
1.2660944 -0.024038538 0.99079061
3.727787 0.012057796 0.99214399
0.92168152 0.13786691 0.99020708
4.0060353 1.3813667 0.99960911
-0.011767894 1.7924705 0.9952184
-0.006693542 2.0192826 0.99219787
0.017790556 2.9351902 0.99080777
-0.0025143623 2.9604237 0.99070704
4.1697717 3.6929677 0.99958026
1.3978783 -0.031378366 1.0093881
4.0139136 0.50392276 1.005205
-0.006072253 0.51326895 1.0032012
3.0585127 0.56367207 1.0083976
0.0079359114 0.82087946 1.0048823
4.7823696 1.5213914 1.0034108
3.9639692 3.6759081 1.0045533
0.082082272 -0.035266526 1.0132806
2.3675947 0.40850174 1.0175416
3.5583644 0.65448028 1.0122379
4.0068827 1.216146 1.0172894
0.035917163 2.9473569 1.017435
0.12082517 2.9539969 1.0124964
0.91246009 3.1285803 1.0184333
2.4467015 -0.021614365 1.0227813
2.2432799 0.40482932 1.0248127
2.369976 0.41328043 1.02632
3.0840869 0.57935458 1.0294935
3.9946766 1.1862872 1.0242678
-0.0045567453 1.5031245 1.020901
-0.038277656 2.0642366 1.0242664
1.1106261 3.1575482 1.0278049
1.8811616 -0.011118323 1.0343788
0.26636714 0.014495075 1.0375254
0.85887957 0.10375674 1.030054
3.99017 1.2222564 1.0324699
4.6510963 1.5254545 1.0319557
-0.011213809 2.4099345 1.0346168
2.8148694 3.4705935 1.0357865
1.064708 -0.044328935 1.0435559
2.2341499 -0.020700052 1.0490534
0.55714226 0.046179146 1.0450462
3.9924145 1.0029712 1.0410839
4.0117955 1.4912183 1.0404124
4.7799687 1.5195076 1.0480417
5.0552125 1.7076018 1.0472047
5.2516332 2.2290108 1.0481673
-0.050180793 2.365608 1.0472807
-0.014943391 2.8340542 1.0484695
2.7874212 3.4642997 1.0401416
4.5917749 3.7882283 1.0423489
5.5717502 3.9424298 1.043835
0.92676425 -0.03834556 1.0566247
3.8986216 0.0095658004 1.0596112
1.3732872 0.23458433 1.0504178
1.8250858 0.30212578 1.0589057
3.9957476 0.9508124 1.0530562
-0.019445151 1.8984993 1.0573477
5.7771974 3.6068537 1.0505493
1.396351 -0.03161294 1.0667169
0.01782763 0.26926625 1.0659431
1.7834533 0.30989498 1.0665078
2.8533845 0.52520585 1.0678815
-0.019993603 1.1378849 1.0610427
5.1816807 2.0004733 1.0675418
4.5503874 3.7895103 1.0648808
3.5773363 -0.023840591 1.0736138
2.4891348 0.44189996 1.073977
3.9918761 1.4112742 1.0710671
4.572618 1.4851201 1.0791739
4.5840788 1.5159533 1.0788366
-0.015697867 2.3181946 1.0795012
3.84163 3.6625953 1.0706942
5.3892021 3.9406087 1.0766379
0.076830626 -0.039024144 1.0890219
2.6085868 3.4347196 1.0807481
3.5674987 3.5989761 1.0881953
0.11120731 -0.037874177 1.0955995
1.6168145 -0.030237973 1.0943429
4.0210514 0.28744125 1.0924582
2.470006 0.42826217 1.0969681
3.6964369 0.69252163 1.0961323
3.9911132 1.4188576 1.0939219
4.2476764 3.7185085 1.0994393
4.7612944 3.8252389 1.0975875
0.84704876 -0.054048412 1.1026237
1.0574801 -0.038450822 1.1067708
3.0759416 -0.0078253448 1.105727
3.9052868 0.023645505 1.1026027
-0.0018104911 0.19528595 1.1083144
1.6025935 0.25013575 1.1041262
3.9992495 0.29713675 1.107491
0.0039935112 0.35830128 1.1096969
3.9816213 0.89743012 1.1053189
5.5636034 3.0427701 1.1001946
2.9504619 3.4990189 1.1096983
2.8277588 -0.029602379 1.1148833
3.209188 -0.007814154 1.1109717
1.7174338 0.27907094 1.1161882
1.6837004 0.28666571 1.1195391
3.9984498 0.67859298 1.1165371
4.5972466 1.4970264 1.1103055
5.5097284 2.9203625 1.1168441
0.45680588 3.0237334 1.1115253
1.1025931 3.130708 1.1100516
2.3878398 3.3797228 1.1135092
2.4199448 -0.016453907 1.1240656
3.5506134 -0.010600254 1.1297598
0.88496625 0.11356792 1.1211944
2.5165868 0.45753932 1.1239432
2.5707169 0.46218276 1.1297802
3.6914568 0.70052248 1.1290154
5.4502873 2.7157514 1.120239
5.53227 2.9193411 1.1294342
5.4484882 3.9287727 1.1266291
1.204914 -0.028606564 1.1341734
1.9431552 0.33494648 1.1396301
0.0069702566 0.69985187 1.1393021
4.0040712 0.89854771 1.1300924
-0.041471839 2.7452269 1.1351982
0.96130133 3.1252136 1.1352923
0.20146549 -0.019727319 1.145569
1.1443164 0.18264297 1.1478757
1.5777992 0.25250399 1.1477015
4.0084925 0.35067075 1.1477803
0.010093391 0.72929305 1.1452804
0.075385988 2.9530797 1.1486689
0.88410163 3.1134777 1.1499285
3.3693295 3.5410028 1.1493928
3.7990942 3.6500061 1.1428145
5.8116903 3.6768906 1.1494455
2.8081512 -0.030329078 1.1573296
1.5244628 -0.014477432 1.1570342
3.8155661 0.70840907 1.1569839
-0.014850736 1.8930397 1.1547413
0.45161599 3.0109694 1.1513143
1.02098 3.1352835 1.1563455
4.1036716 3.6735456 1.1547954
5.9104638 3.8810036 1.1549824
5.9192729 3.9609883 1.1580672
1.0377082 -0.057690524 1.1617244
1.3794346 -0.027907968 1.161395
0.5671289 0.049128085 1.1662118
2.5064044 0.44960988 1.1645613
3.0786638 0.5578661 1.1663134
1.1233934 3.1498513 1.1663465
5.6970749 3.9738081 1.1646409
0.80382204 0.10080507 1.1750245
2.0282068 0.34996229 1.1767415
2.0758457 0.37384385 1.1725644
-0.017999411 1.5620484 1.1758538
0.238473 2.9899158 1.1752324
0.44499105 3.0245383 1.1795436
5.5870924 3.1092424 1.1730556
1.7086221 3.2727056 1.17404
1.8343872 3.2716458 1.1712276
3.8965216 3.6654985 1.1775311
3.9795804 0.51590806 1.1821123
3.9779472 0.80254459 1.1864266
1.5358144 3.2228239 1.185201
2.3217087 3.381659 1.1828542
4.2176876 3.7094505 1.1801789
4.6052814 3.8116693 1.1899599
4.8157825 3.8219783 1.184629
0.15653139 -0.059396505 1.1923884
1.8415884 -0.054563828 1.1958878
1.6339191 -0.034149967 1.1946561
3.5321994 -0.0038748682 1.1927221
4.0013919 -0.0084873289 1.1946234
2.7214351 0.49320215 1.1907903
4.0215235 0.51261568 1.1915644
3.5891056 0.66889989 1.1909547
-0.0043926537 1.2131233 1.1963513
4.5798321 1.4911635 1.197198
-0.021638423 2.3518198 1.1943859
-0.021718413 2.6563747 1.1998855
5.4705863 2.7538049 1.1987424
-0.041442961 2.9298093 1.1996695
1.1549956 3.1480453 1.1931871
2.8156619 3.4495404 1.1928477
2.9479532 3.4863892 1.1984353
3.6084394 3.5786593 1.1959714
5.6647453 3.984513 1.1939051
5.931973 4.0125875 1.1976289
0.17342693 -0.064177491 1.2034091
3.431344 -0.0017564297 1.2058855
0.75454748 0.08054401 1.2091562
4.0108304 0.17050719 1.2087386
4.0617299 1.5101333 1.2064737
-0.013191491 1.7504861 1.2063588
0.83603954 3.098249 1.2029096
2.4267788 3.3844709 1.2081696
4.8762612 3.8340802 1.2031412
1.4310699 0.22999498 1.215124
2.2861753 0.40662348 1.2157948
0.0086542368 0.52427095 1.215209
3.2837825 0.60331035 1.2141532
3.9928412 0.70788002 1.2178831
3.8701739 0.72500902 1.2125394
0.0041577816 1.0423243 1.2149403
2.9225845 3.47177 1.2145553
4.318584 3.7463825 1.2184601
4.76583 3.813755 1.2127976
0.44849008 -0.052892134 1.2296427
1.9071885 0.30163372 1.2265613
4.4804244 1.5166364 1.2253963
5.1951351 2.0773938 1.2253838
5.6423855 3.1993043 1.2234538
3.0933876 3.5186543 1.2293761
2.5428948 -0.024247378 1.2301612
2.2471285 0.38942957 1.2383035
4.0323734 0.45277083 1.2363663
3.9926605 0.8455115 1.2301602
-0.010911405 1.9723318 1.2385976
1.0712105 3.1308253 1.2345989
5.3670831 3.9280908 1.235671
2.3579021 -0.019778408 1.2424735
3.9901285 1.4863555 1.2436167
-0.022500575 1.5409331 1.243943
5.6654873 3.2761145 1.2474769
3.3336434 3.5571008 1.2421572
0.12290299 -0.043755643 1.2571462
0.78190196 -0.040760189 1.2503818
0.82140136 -0.027370937 1.252794
3.0114017 -0.0049155504 1.2536663
4.0019093 0.70496929 1.2559173
4.041636 1.4996872 1.258943
-0.022064954 2.7977633 1.2508328
0.37122786 3.0053301 1.2574123
1.6180061 3.254632 1.2553784
5.368279 3.9230139 1.2526233
2.8171864 -0.0028840899 1.2632579
0.78910077 0.10618474 1.265306
1.814109 0.30071035 1.2639432
-0.012651324 1.3162613 1.2665141
5.0666962 1.7691276 1.2675598
5.1094341 1.8300405 1.2625562
1.3439609 3.2026045 1.2639453
1.806455 3.2629008 1.2689075
3.0619817 3.509012 1.2687426
4.8937201 3.8507428 1.2607957
5.0107269 3.8671458 1.2644476
1.4938618 -0.032871924 1.2738986
0.22618324 -0.02499374 1.2707864
3.8706498 1.3113022e-06 1.2799376
3.6947956 0.68125963 1.2794117
3.9935713 1.0923247 1.272535
-0.00047045946 1.466567 1.2754138
2.5900841 3.416693 1.2749774
5.7068353 3.4420886 1.274356
5.8111458 4.000833 1.2722565
0.88491833 0.10744092 1.288599
3.1156487 0.58569956 1.2825481
-0.0093383789 1.6201375 1.2820746
4.2576756 3.7178454 1.285674
3.5564556 -0.0078524053 1.2995298
3.9209242 -0.0045532733 1.2978458
1.4818102 0.24760982 1.2908851
2.4882436 0.45555598 1.2933633
4.2238054 1.5036523 1.2933438
-0.0023893416 1.5136316 1.2955678
4.8402114 1.5198545 1.2930216
0.31481057 3.0018716 1.2936978
0.538836 -0.054365218 1.3050083
0.21368939 -0.023157232 1.3006357
0.3564505 0.0020217896 1.3090708
3.7255368 0.0020339638 1.3070526
0.95260978 0.1379852 1.3096265
1.6223191 0.26969874 1.3044708
3.4543686 0.61363208 1.3021063
3.9774079 1.2284794 1.3071501
5.7263598 3.4808881 1.3009282
5.0016127 3.8392706 1.3026977
0.88143039 -0.064297482 1.3181703
1.7282883 0.28498852 1.318902
3.2161517 0.60691005 1.310124
3.8437767 0.72144347 1.312991
-0.026346266 2.3448949 1.316534
-0.032878399 2.5685039 1.3147879
-0.044429153 2.6021204 1.3105409
0.51986039 3.0409782 1.3114108
0.74276042 3.079386 1.3184662
2.0559812 3.3274007 1.3148255
5.7010059 3.3582315 1.3135633
3.1395884 3.5224314 1.310975
5.8074322 3.6631703 1.3121948
4.7256699 3.8161871 1.3172184
5.8713999 3.8118415 1.3174403
0.019557536 0.10073437 1.3204887
3.3355279 0.59851861 1.3236148
0.0024698079 1.1064465 1.3253359
4.318933 1.4980907 1.3239512
5.1463046 1.9328556 1.3227291
1.1693082 3.1623974 1.3291509
1.2768589 3.1691103 1.3233984
1.6020831 3.2430401 1.3263108
2.3750167 3.3786328 1.3297422
3.6108203 3.6100869 1.328228
4.1459007 3.714287 1.3275554
5.9184022 4.0218315 1.3255799
1.715592 -0.050813198 1.337023
1.2301676 -0.031741492 1.3359759
1.5935622 -0.027866155 1.3367974
4.005332 0.25798848 1.3370113
-0.00074696541 0.30474523 1.3319587
-0.036391109 2.633112 1.3334278
2.9180255 3.4784541 1.3300976
0.26657951 -0.00017894804 1.3445694
3.9990096 0.58853251 1.3425061
3.2815309 0.62299418 1.3446335
3.9990888 1.1049743 1.3436404
4.5771503 1.501683 1.3475589
0.98222816 3.1485202 1.3426973
2.6666188 3.4335241 1.3472675
3.1883588 3.532706 1.3471788
0.030528665 -0.066536359 1.3534921
0.65440655 -0.056334555 1.3527741
2.8369856 -0.017753132 1.3523235
0.8536514 0.10937063 1.358176
0.90473986 0.1189355 1.3587743
-0.010544837 0.93128246 1.3538663
5.1391706 1.8882587 1.3565718
4.9510727 3.8475647 1.3548236
1.0644652 -0.052372798 1.3660767
1.138407 -0.057937264 1.3661038
2.6933165 -0.021694534 1.3608345
4.0089607 0.24410579 1.3686119
4.0053105 0.43323046 1.3628275
4.0125804 0.75042742 1.3641201
0.0032322109 0.84339947 1.3603734
5.042613 1.7243533 1.3646349
1.2356614 3.1614687 1.3608801
5.9216113 3.9812391 1.3641255
0.32757246 -0.063908316 1.3722234
0.84849524 -0.04947257 1.3748022
3.7190962 0.002951026 1.3791794
-0.00017666817 0.077286363 1.3747916
0.76348507 0.09593305 1.3768194
0.00049674511 0.63042444 1.377622
-0.0020922124 0.8101145 1.3725414
-0.034677714 2.76019 1.3710054
3.4890757 3.5551119 1.3790172
1.9248773 -0.044117257 1.3837311
2.2312398 -0.0053613335 1.3830906
3.6230416 -0.0057946146 1.3822129
0.80632651 0.10693522 1.3848644
1.0700098 0.16243964 1.3869058
4.0028496 0.30802327 1.3816605
4.9473495 1.5149999 1.383606
5.2336702 2.1778727 1.3855345
-0.045135021 2.7531805 1.3819984
1.0738211 -0.036560804 1.3942269
1.6668302 0.27727053 1.3992441
3.9879007 1.4193528 1.3936809
5.0332079 1.5975215 1.3988904
-0.018365711 1.9804981 1.3948781
5.7637033 3.5365076 1.397465
1.0909576 -0.049631454 1.4060922
3.9984236 0.77682656 1.401565
1.3910065 3.193213 1.4028107
4.7708497 3.8405724 1.4055371
-0.0072157383 -0.01941634 1.4183462
0.01713419 0.075284243 1.4109815
-0.001024276 0.10788831 1.4190125
0.92916667 0.11897528 1.4199846
1.6263686 0.27007583 1.4145775
2.6769457 0.47861582 1.4137176
-0.0066104233 0.58547443 1.4194157
3.3799477 0.62156302 1.4189503
3.3667774 0.63459527 1.4181917
5.2502356 2.1551678 1.4148389
5.3186717 2.3393502 1.410671
0.9196589 3.1044552 1.4187855
3.3347778 3.5259175 1.4104542
3.9482074 3.6412621 1.4131316
4.5178332 3.7759359 1.4123585
4.912004 3.8256083 1.4126103
0.073248386 -0.040498614 1.4279176
2.1537809 -0.021367908 1.4258292
2.5641074 -0.029026352 1.42147
4.0092883 0.13174868 1.4258312
3.9960732 0.43892688 1.4299673
0.020076334 0.47217584 1.424167
3.53722 0.6547845 1.4272145
3.7708921 0.73646015 1.4291102
-0.013145775 1.3701203 1.4277456
5.0087051 1.595139 1.4236031
0.45354164 3.039855 1.4296907
5.5927677 3.081852 1.4252493
2.2203507 3.343292 1.4294245
5.4703507 3.9350154 1.4265095
1.5151967 -0.054381192 1.4330741
2.055409 -0.038538553 1.4308527
2.2246218 0.38943213 1.4302064
3.9768543 1.3726141 1.4375737
4.6091514 1.5052483 1.4370662
5.088973 1.7672069 1.4359838
5.1833215 2.0183744 1.4339335
-0.010144025 2.6725206 1.4346341
4.5109816 3.7617998 1.4368325
5.8833919 3.8632443 1.4329058
0.023532748 -0.066554397 1.4428353
2.776125 -0.014376529 1.4486203
2.4171729 0.41093028 1.4439671
-0.0012003183 1.4041474 1.4481786
4.2642713 1.5189841 1.4418927
-0.0084583759 1.8377934 1.4478999
5.6130643 3.1726706 1.4423223
2.3162994 3.3662288 1.4405618
3.2579412 3.5326974 1.4436115
0.20863175 -0.055125952 1.4535674
1.0588945 -0.054683581 1.4524324
1.1622918 -0.055484198 1.4598891
0.5503583 -0.04340595 1.4545679
3.2961583 -0.0076921135 1.4562294
3.9842796 0.75567001 1.4528279
5.1479177 1.9680867 1.459674
5.2150087 2.1264052 1.450843
-0.033003896 2.7324345 1.4596739
5.4940238 3.9343035 1.4500055
0.061025262 -0.050058514 1.460536
1.2530528 -0.045495443 1.4648199
1.6220986 -0.038396254 1.4698493
3.6561551 0.67643231 1.4686459
-0.022843242 1.9257131 1.4678404
5.2148299 2.1581595 1.4655271
-0.038232327 2.278033 1.4681798
5.2556529 3.9141238 1.4624517
5.9360461 3.989989 1.4650428
1.1150702 -0.047967777 1.4775503
1.3859192 -0.036034077 1.4722543
1.8196756 -0.037702136 1.4750916
2.6852503 0.48632288 1.4714297
3.3438163 0.61901122 1.47163
-0.02188921 1.4096806 1.4719843
5.5601554 2.9930534 1.4750416
1.6957566 3.2534919 1.470401
5.2262611 3.889848 1.4770818
2.0508556 -0.035064667 1.4803052
2.8326445 -0.028502092 1.4899601
0.014485002 0.61026973 1.4851044
3.7361674 0.67214197 1.4859872
4.0002637 1.0049415 1.4824632
-0.0082855821 1.3311703 1.4838324
4.5552688 1.4977117 1.4826593
4.0333581 1.5029719 1.4851167
4.9728727 1.5028408 1.4815102
3.087008 3.4986746 1.483117
2.6337681 0.47791904 1.4918507
3.1880484 0.59312463 1.4926332
3.4638767 0.64810723 1.4966639
3.489809 0.65619564 1.4973018
3.9885383 0.73706758 1.4915307
-0.0032292902 1.0587645 1.4954268
-0.016218066 1.7804413 1.4918966
0.59692085 3.0577462 1.4999382
4.6053352 3.7756112 1.4982082
4.6010814 3.7954981 1.4994868
5.5302472 3.9392846 1.4970572
0.1420573 -0.068914503 1.5007993
3.9824743 0.0082435012 1.5079647
0.71140778 0.084130749 1.5058417
1.6528879 0.27023086 1.5042312
2.7643695 0.50360227 1.5011315
-0.002132833 1.6878331 1.5059016
2.0434232 3.3267856 1.5063823
5.4630995 3.9362853 1.5032463
0.71641552 -0.052897871 1.5130211
2.2134452 -0.038670301 1.5139881
1.0854926 0.16927305 1.5167059
4.001092 0.67668933 1.5179567
-0.016660929 1.1105731 1.5136245
4.9841762 1.5257769 1.5163866
1.6700412 3.2395573 1.5166194
5.1234288 3.8754041 1.5135684
0.89029038 -0.04796914 1.5256619
0.83835709 -0.036642946 1.5220537
-0.0027458966 0.30289623 1.520919
0.014379889 0.49276108 1.5286212
3.359374 0.60069221 1.5261997
3.7262945 0.69748104 1.5295969
4.0001574 0.72437334 1.5242678
4.7857594 1.5027623 1.5288103
3.595315 3.5894487 1.5248621
2.6812754 -0.023674391 1.533911
0.46530658 0.031001225 1.5300912
1.2744173 0.192195 1.5315194
4.0076156 0.49101305 1.5327891
4.1973586 1.5012317 1.5308058
5.1351099 1.9104214 1.534546
-0.024722427 2.2408736 1.5389813
-0.034877121 2.5759742 1.5344874
-0.02266711 2.7959759 1.5321798
0.03061527 2.9435456 1.5311527
3.2501464 3.5289049 1.5334125
4.8639121 3.8351455 1.5344901
0.9313134 -0.038937785 1.545465
2.8854594 -0.016605839 1.540572
3.0013599 -0.013448864 1.5464103
0.41394001 0.020194143 1.5490482
0.74210989 0.089422271 1.5490861
3.3127842 0.60032803 1.5493833
-0.043333858 2.7476027 1.5468563
1.4150085 3.1997261 1.5439636
1.3659719 3.2189646 1.5480371
2.6009893 3.4071045 1.5430024
1.0047358 0.13833812 1.5559567
0.014414489 0.32777715 1.5575905
3.333426 0.61581671 1.5595957
-0.013789117 0.95470864 1.557096
0.61863363 3.0503697 1.5548084
4.7796812 3.794749 1.5515565
0.83816171 -0.037216619 1.5641044
0.01906091 0.062959567 1.5624123
0.74715054 0.1002963 1.5694752
4.0097303 0.30813989 1.5672311
4.9927053 1.5075777 1.5673926
-0.021680474 2.2621408 1.5687947
5.3910971 2.5655513 1.5665414
5.6368589 3.283159 1.5641205
2.4207006 3.3917496 1.5611957
4.0086017 0.62107736 1.5790935
5.1781564 2.0532122 1.5778579
5.4343801 2.6853795 1.5773259
1.7081991 3.2584414 1.5720774
2.6323586 3.4289863 1.5784776
2.8240557 3.4508512 1.5738982
5.5051742 3.9540374 1.5773655
0.20496261 -0.065080971 1.5800477
0.26212311 -0.045740396 1.5831493
2.1490736 -0.016437098 1.5859801
3.528194 -0.0082008839 1.5811872
1.9466289 0.33978304 1.5875504
2.3945937 0.4224472 1.5820398
4.4547482 1.5109689 1.583719
1.7271773 3.2629824 1.5809258
2.5248709 3.4094462 1.5867475
5.0424676 3.8742583 1.5877081
1.5615896 -0.026949361 1.5994396
0.019148469 0.35743445 1.5936971
2.1430397 0.37845296 1.596782
2.6456265 0.47739333 1.598125
-0.03738153 2.0827725 1.5964044
5.3092093 2.3443913 1.5931273
-0.046085864 2.583802 1.5992122
-0.041144073 2.5936835 1.5983306
5.4717221 2.7890487 1.5921936
5.505115 2.8466558 1.596042
1.0592861 3.1402576 1.5923698
5.7863598 3.5894115 1.5956324
-0.011857718 0.71244478 1.6002122
5.3642702 2.5234964 1.6043216
0.51402658 3.0406327 1.6052333
1.9333354 3.2898436 1.6030955
0.0098537803 -0.086109236 1.6129504
0.066785693 -0.04963477 1.61558
1.890431 -0.0468335 1.6122376
1.8799497 -0.03746856 1.6110179
3.5399323 0.65808761 1.618659
5.6119723 3.1939042 1.61233
0.1843127 -0.068637639 1.6265067
1.3994344 -0.047062531 1.6280665
2.7825532 -0.025425054 1.6285336
0.55300927 0.047812849 1.627793
3.6752663 0.70379615 1.6221199
3.9237003 0.75213277 1.6209624
4.8289604 1.5082192 1.6272541
-0.023676455 2.0745177 1.6243665
-0.028836608 2.7447169 1.6238512
1.4746509 3.1980784 1.6204939
1.3995553 3.2046161 1.6240039
1.9690903 3.2909479 1.6282101
3.8542762 3.6261404 1.6229142
0.70166373 -0.047228381 1.6371229
4.3044796 1.4958351 1.6385483
4.817286 1.5016954 1.6308306
4.9966083 1.5649691 1.6357576
-0.036827207 2.7116492 1.6396559
3.4764419 3.5822902 1.6336892
2.3372488 -0.020241164 1.6490446
3.7803593 -0.00093384087 1.6435113
0.0067881942 0.10777068 1.6431168
1.2114056 0.20489407 1.6435543
4.0070839 0.3235085 1.6470239
3.5071082 0.65637439 1.6476765
3.6292367 0.67343712 1.6416279
3.809104 0.70781487 1.642054
3.979383 0.74585098 1.6496845
3.980495 1.0849793 1.6403379
3.9760928 1.292527 1.6439275
4.629457 1.5153971 1.6496938
-0.031423777 2.0219662 1.646451
5.5896187 3.1329889 1.6419501
1.5626453 3.2404797 1.6484557
3.9734039 3.6817691 1.6492181
4.5764823 3.8055928 1.64859
1.0599824 -0.039732806 1.659093
3.9820032 -0.0004440248 1.6525359
0.90161264 0.11142507 1.6565416
-0.0088285804 0.24391973 1.6551542
4.0039892 0.61771065 1.65432
-0.0042574108 1.4418395 1.6520374
5.0558424 1.7223611 1.6584572
5.3468037 2.4423649 1.6520377
0.42262512 3.0095165 1.6514733
4.9855542 3.8436644 1.6549051
3.694737 0.0016606599 1.662249
4.0008454 0.078980431 1.6615796
1.9167303 0.31049877 1.6667789
3.1890831 0.56777781 1.6608851
-0.0058228672 1.5209703 1.6622702
5.3355126 2.4600525 1.6632996
3.2950215 3.5585039 1.6671984
3.3937221 3.5597603 1.6640935
5.7978296 3.6137376 1.6659416
5.2153888 3.882477 1.6687913
0.023219764 -0.060698725 1.6768721
1.0196899 -0.049747773 1.6735154
-0.01957345 1.1104486 1.6761898
5.3859644 2.5799282 1.677009
5.4593301 2.756727 1.6779846
-0.033676028 2.8096771 1.6766362
-0.032128125 2.8576686 1.676182
0.832268 3.0940397 1.6796898
4.2698627 3.7316844 1.6799814
1.0903735 -0.05117254 1.6832043
1.8554372 -0.040182203 1.6876609
3.0909204 -0.013640881 1.681851
1.8426811 0.29168648 1.6810191
2.0646119 0.35193196 1.6858045
3.9920497 0.7924794 1.6852574
0.48554611 3.0364387 1.6860884
2.8619738 3.4710305 1.6887287
3.6195135 3.611021 1.6816276
4.5374517 3.7656913 1.6870238
5.7545233 3.9654334 1.6868752
3.9990926 0.090017468 1.6921604
4.0002899 0.26570806 1.6926483
2.4816766 0.44701612 1.6970284
0.0071871281 0.52438945 1.6978961
-0.041315764 2.2912943 1.6992142
-0.026154548 2.6407263 1.6944414
1.4077164 3.1902065 1.6937444
5.7561593 3.5404336 1.6937577
0.23271382 -0.06790705 1.7086437
1.3572265 -0.043149315 1.7023735
0.13125384 -0.029480383 1.7048795
2.3097835 -0.0092285126 1.7058123
3.5927572 -0.00023458898 1.7079345
2.831357 0.49425822 1.7062091
4.7267694 1.5008342 1.7023776
-0.024540633 2.1906836 1.7074655
5.6052675 3.1538742 1.7047855
3.5589938 3.6105144 1.7021101
4.1268406 3.7050285 1.7066386
5.821269 3.7067342 1.7088604
5.5373616 3.9619234 1.7066327
2.7197471 -0.026334167 1.7160529
1.7818555 0.30392775 1.7139735
1.9270488 0.33230871 1.7127101
4.0112052 0.75020903 1.7129387
4.0185266 1.5052886 1.7181911
5.4668946 2.7747772 1.7180527
0.33876657 2.9963162 1.7183411
5.6089034 3.1304634 1.7152445
5.8947682 4.0123019 1.7171702
2.2158604 -0.035227351 1.7277489
2.5693412 -0.021691352 1.7235163
2.3517685 0.42808682 1.7293967
5.2041292 2.0769622 1.7220987
5.2894807 2.297956 1.7264689
5.4451852 2.6977832 1.7227232
2.1585002 3.3407454 1.721679
2.4796228 3.4013238 1.720457
3.7967267 3.6215067 1.7214991
5.1409888 3.8967302 1.7277466
3.3696804 -0.018206209 1.7357647
1.2094715 0.18340892 1.7308657
1.8477896 0.30853942 1.7310767
3.2188263 0.59905374 1.7397885
4.233449 1.494349 1.7392573
1.4997646 3.2251139 1.7371751
5.7547402 3.5113909 1.730082
4.1090293 3.7006862 1.7303817
4.560431 3.7773097 1.7382933
0.9201057 -0.051018119 1.7416925
1.0025523 -0.043918133 1.7454106
0.57268596 0.070685312 1.7443312
0.75513387 0.092183873 1.7447898
1.5415288 0.25346193 1.7428086
3.9804144 0.91074044 1.7477018
4.860095 1.5139942 1.7452594
5.1003485 1.833137 1.7432356
3.8671126 3.6640418 1.7418172
4.9723988 3.85741 1.740247
0.018539131 0.60283101 1.7512356
3.9997787 1.0231223 1.7533054
5.3016591 2.3109612 1.755488
1.4334098 3.2183983 1.7577835
3.1360908 3.5240455 1.7539271
5.4799728 3.9249728 1.7502215
1.184916 -0.048764095 1.7687612
1.9006747 -0.036555499 1.7675717
0.50924981 0.029161379 1.7628294
1.1070985 0.17469865 1.7693207
3.408864 0.63696402 1.7696397
3.9832664 0.65251178 1.7665849
5.2613702 2.2911434 1.7664953
1.8785077 3.2784431 1.7626303
1.982824 3.2835908 1.764419
2.3057642 3.3552561 1.7607517
0.26751596 -0.013172477 1.7740364
0.28088295 -0.012678117 1.7717981
3.3284221 -0.010332897 1.7779641
3.1574731 0.58056241 1.7783318
5.2686663 2.2426748 1.7701972
5.1162286 3.8794544 1.7709563
1.4187386 -0.050105385 1.7814074
1.534779 -0.041978493 1.7822506
3.9921794 0.38753563 1.7821069
4.0059915 0.90641469 1.7870827
3.9883223 0.9789173 1.7879372
1.0799501 3.131628 1.7833607
1.2785696 -0.052531913 1.7993069
3.6650653 -0.014469787 1.7998405
3.559804 0.0039242506 1.7979314
2.2523799 0.37754321 1.790848
5.0296369 1.6258798 1.7931838
1.9070393 3.2901816 1.796912
2.0932088 3.3247035 1.7970731
0.2017377 -0.06557136 1.8058343
0.22674781 -0.063629031 1.8024857
3.6471505 -0.011131763 1.8085828
3.7902474 -0.01059255 1.8094606
2.9317069 0.0015674233 1.8093667
1.7278358 0.29241574 1.8031695
3.9855151 0.85524899 1.8090534
3.985589 1.0022171 1.8061903
-0.031039417 2.3263638 1.8048048
5.3368778 2.4204493 1.8049347
0.93074989 3.1049526 1.80761
3.1474371 3.5239019 1.8032284
0.040952682 -0.046484321 1.8186638
2.8093972 -0.016085997 1.8107953
3.9434414 0.0052670091 1.8114703
3.1817894 0.58946395 1.81809
3.6492748 0.67580795 1.8144417
0.0069356859 0.86688274 1.8155465
5.1661463 1.9993536 1.8159015
5.6034946 3.1686463 1.8102319
1.2379278 3.1746202 1.8131838
5.8318706 3.7333972 1.819041
0.38484609 -0.063592568 1.8209445
2.4544492 -0.041576877 1.8217881
2.266109 -0.021377087 1.8209398
-0.0046841502 1.0073407 1.8230019
-0.022806555 1.5679345 1.8251312
5.2566519 2.248853 1.8228812
-0.015811622 2.7513938 1.8207633
0.060940146 2.958313 1.8250566
5.5772185 3.0541232 1.8223984
2.3244486 3.3703294 1.8224676
0.82306361 -0.073957458 1.8384128
1.0148944 -0.051540524 1.8315854
2.0647845 -0.042029522 1.8343256
0.40924102 -0.002610147 1.8388774
2.9016366 0.0023591071 1.8363383
1.143224 0.16123587 1.8356869
2.0808244 0.34317055 1.8344362
2.9286261 0.53409284 1.8319118
3.9842029 1.0243177 1.8348398
-0.014682829 1.2668121 1.8397942
0.12736058 2.9643908 1.8381293
0.22863698 2.9681876 1.8358533
2.2172379 -0.031552114 1.8432779
3.089119 -0.019455157 1.8472342
3.5791035 -0.012174815 1.8440907
1.3102708 0.2083649 1.8434465
3.9995542 0.71022308 1.8471766
4.0041251 0.89869565 1.8403862
-0.013235867 1.5196052 1.842844
4.7110524 1.5195656 1.8430281
5.4406676 2.7272141 1.843492
0.33617127 2.9957423 1.8435409
0.40311897 3.0213127 1.8461208
2.3824773 3.3757246 1.840415
3.0281615 -0.0086231232 1.8518281
3.3651676 -0.0097781867 1.8506594
3.563159 0.6494664 1.8598313
0.76646471 3.0831656 1.8547497
1.5839854 3.2066598 1.8589058
4.4076986 3.7415369 1.8533733
5.1924062 3.8967216 1.8534365
5.909215 3.8971488 1.8500187
0.86748612 -0.059350304 1.8629811
2.1914706 -0.036542848 1.8617063
0.80899894 0.092638686 1.8637106
0.01246798 0.4591074 1.8634591
4.8991203 1.4831731 1.8638415
0.3178038 2.9979866 1.8605351
5.7857618 3.5630293 1.8697641
0.18562353 -0.041644782 1.8797426
1.3236339 0.17834884 1.877465
5.1147814 1.870363 1.8782794
-0.030095369 2.0523655 1.8730686
-0.033927649 2.4219711 1.8718412
3.0630703 3.5035625 1.8707037
5.6002083 3.9630439 1.8723803
0.0028724074 -0.064991698 1.8855751
0.055307806 -0.04568579 1.8889959
2.0924067 -0.028895676 1.8884642
0.90659606 0.12207574 1.8868511
4.0287108 0.15357009 1.8843014
3.5289836 0.63768017 1.8816743
5.1948638 2.0545144 1.8886106
5.3824711 2.5446968 1.8803318
0.6300962 3.0641336 1.885987
5.6216764 3.1696777 1.8895745
1.196072 0.16909167 1.8958192
2.5146718 0.44509435 1.8907368
3.3010459 0.60694093 1.894026
3.7505646 0.6918081 1.8986752
-0.0063837171 0.71725136 1.8993735
3.9887857 0.80331779 1.8938863
-0.037801504 1.7975979 1.8902969
1.5588034 3.2235167 1.8922546
4.0045834 3.6608274 1.8905342
0.12770909 -0.059293091 1.9047356
0.43643177 0.017046109 1.9035408
4.2709141 1.4841831 1.9055543
2.0097408 -0.039558426 1.9145184
0.004312098 0.11969593 1.9174478
2.2441707 3.3518772 1.9176424
2.9590445 3.4750366 1.9115291
5.7790089 3.6296816 1.9147742
4.4156623 3.7518549 1.919014
5.7348909 3.9881308 1.913198
0.29998326 -0.050948605 1.9253991
2.8638992 -0.017096087 1.925097
3.1132712 -0.017884143 1.9210362
1.1490805 0.16311741 1.9278998
0.0079111457 0.23969996 1.9284427
3.3424716 0.6264469 1.9224296
-0.0012635291 0.68400937 1.9217999
4.3554702 1.5189598 1.9279723
5.0429811 1.6376109 1.9240172
-0.024284631 2.1579201 1.9250312
0.86793339 3.1072347 1.9237237
3.5737505 3.578541 1.9270954
2.1759868 -0.010061666 1.9310036
3.0930123 -0.0078177303 1.9313612
2.1048956 0.36141449 1.9337537
2.860137 0.52755779 1.9362528
4.0306416 1.4958575 1.9350147
5.0701208 1.7181396 1.9373424
3.4543548 3.5492167 1.9308729
4.8388176 3.8196721 1.9330151
0.15201819 -0.031114906 1.9497287
2.694489 -0.024851069 1.9411001
0.75384402 0.076796219 1.9499726
0.97179413 0.13910082 1.9423554
0.34411317 0.46074045 1.9413967
3.9936557 1.0932984 1.9432042
3.9732709 1.2923975 1.9431539
-0.0089455247 1.3090258 1.9462295
1.1102611 3.137012 1.9489496
1.5517033 3.2191074 1.9470122
4.0361085 3.6808157 1.9479022
5.8210673 3.9950621 1.9440823
1.3156053 -0.058951445 1.955523
3.8065643 0.00098189712 1.9538651
0.5574162 0.049925715 1.9504585
1.8508831 0.1206156 1.9571111
1.4655535 0.15291843 1.959105
2.1974149 0.24167058 1.9586074
2.5697813 0.81832403 1.9569724
0.0007879436 1.7761657 1.9516709
1.7446858 3.260124 1.9583912
5.6880951 3.3074462 1.9534538
0.89880264 -0.062108323 1.9695194
3.5292263 -0.013370782 1.9645793
0.57881176 0.042286694 1.9618359
0.77671075 0.13113883 1.9670458
1.0429939 0.17234886 1.9685111
1.2468799 0.17574224 1.9645374
2.5500607 0.21370539 1.9611244
3.9458265 0.21858603 1.9657178
0.21653414 0.2274878 1.9670975
0.4807198 0.32867223 1.9669015
0.75452006 0.35118601 1.9603891
1.974192 0.3815347 1.9646592
1.4588456 0.39794379 1.9658663
0.41336435 0.42781681 1.9689829
1.2468556 0.43563145 1.9687703
1.9868697 0.50390512 1.9688661
1.3450688 0.75269228 1.9662037
0.20773953 0.78044909 1.9665067
0.0097549856 0.79726058 1.9641545
0.010497719 0.84309042 1.9630079
1.0807804 0.89688593 1.9673011
1.7230638 0.9799909 1.9657774
0.11462373 1.1904283 1.9628618
4.6627226 1.5115454 1.9604294
0.054155648 1.778033 1.9670162
5.5372863 2.9747665 1.9685555
1.8779389 3.2790523 1.9625206
4.6949983 3.7930326 1.9656689
5.1802144 3.8872836 1.9612079
5.3943114 3.9099987 1.9644248
0.17571622 -0.014508359 1.9745896
1.3015621 -0.017217852 1.9711697
0.71904469 0.021866113 1.9757557
1.4206053 0.032287583 1.9769804
0.44269288 0.063192427 1.9734149
0.64938462 0.071795598 1.9779456
3.9879851 0.099511594 1.9708674
1.860056 0.10346472 1.9706361
1.4129574 0.14453435 1.9733171
0.98998463 0.18696573 1.9746339
1.4469105 0.22669205 1.9719155
1.6855477 0.22661614 1.9790013
1.6970497 0.22971579 1.9735837
2.1720691 0.22245705 1.9765937
0.57062471 0.23513401 1.9721131
2.9817662 0.24101108 1.9704757
0.58372462 0.25470141 1.9768898
1.7713999 0.28716522 1.9767025
1.0293053 0.29514667 1.9709408
0.91332483 0.31461748 1.974869
1.1419765 0.3181217 1.9756587
1.6525143 0.36337352 1.9791086
1.2574623 0.38641065 1.9754777
2.3488765 0.38781291 1.970104
2.2825847 0.39820039 1.9792473
3.5926986 0.4024846 1.9732757
2.0156665 0.41155517 1.9753547
2.0632834 0.41245914 1.9758303
2.3189983 0.41843313 1.9756916
2.692956 0.44092482 1.9790208
2.1675038 0.47711241 1.9766049
0.66742921 0.48273426 1.9790852
0.85882771 0.48974419 1.9758401
1.6217223 0.49696326 1.9762592
2.3164673 0.49593586 1.9768925
1.4548268 0.54674345 1.9724331
3.0607934 0.55762589 1.9783568
1.8771061 0.5788492 1.9785471
3.6823506 0.57937759 1.9774742
3.9494939 0.59070772 1.9773488
3.5943065 0.61421257 1.9783592
2.1585994 0.62872094 1.9748113
1.8340603 0.65078461 1.9764059
0.4043451 0.67423701 1.9757621
1.0365459 0.67771876 1.9725914
1.9392987 0.67760003 1.9720166
2.4062085 0.69936377 1.9727328
1.459552 0.70986921 1.9787326
0.59136212 0.74023896 1.9778595
0.18261379 0.86672682 1.9776881
2.2572064 0.86589211 1.9769142
2.6265936 0.87304932 1.9774394
2.9501534 0.9069069 1.9747169
2.5798421 0.9193626 1.9749911
2.1713023 0.92372435 1.9706528
1.1067665 0.94747525 1.9736512
2.0579805 0.94735152 1.9767203
2.847744 0.9458254 1.9748783
1.5151895 0.99391454 1.9735029
3.0360551 0.99601227 1.9778521
0.24781364 1.0124612 1.9706166
0.41159475 1.0187254 1.9701321
0.80230403 1.0304039 1.9776733
1.7518181 1.076997 1.9799049
1.4199538 1.0816555 1.978636
2.151732 1.1152365 1.9774401
0.54032385 1.1374278 1.9703081
1.5251945 1.1305363 1.9766865
1.143382 1.1844573 1.9763734
1.9637431 1.2372737 1.9765582
0.55357623 1.2445438 1.9760602
0.76460576 1.3557053 1.9763863
0.10130227 1.3813083 1.978029
1.1156315 1.4076951 1.9767857
2.9131756 1.4238386 1.9761422
0.99594772 1.4878914 1.9722598
4.3920279 1.5115342 1.9764149
0.1338551 1.7027164 1.9736552
3.7844644 1.7408619 1.9788122
0.0031432211 1.9410503 1.9726081
1.2263728 2.0974314 1.9751348
0.28961807 2.2072558 1.9793403
1.1510274 2.3099666 1.9778314
1.5533012 2.4992657 1.9779654
0.73127508 2.5154784 1.9764879
0.67898357 2.6255527 1.9795883
0.50441688 2.789021 1.9749074
2.7502794 2.9104111 1.9799294
1.9163324 3.2930095 1.9734662
0.56789732 -0.040387079 1.9877448
0.33716607 -0.027977079 1.9814041
3.5335774 -0.00093713403 1.9824967
0.25083381 0.010425538 1.9813457
3.0894694 0.041495129 1.9820144
2.8382492 0.051683411 1.9861121
3.5061717 0.095304221 1.9882593
3.7413201 0.12292534 1.9861088
2.8660159 0.17242262 1.9841719
3.4115043 0.19864029 1.989845
3.0472565 0.20966345 1.9820418
3.5835013 0.21646905 1.9856071
2.1627631 0.23671436 1.9814887
2.1322975 0.2468887 1.9885857
3.3607397 0.27180839 1.9809048
3.3042274 0.28882468 1.9812889
3.0131388 0.31803265 1.9874516
3.9236627 0.33819684 1.9824855
1.3086605 0.34528166 1.9858258
4.0000181 0.39503646 1.9826458
3.8993216 0.4680146 1.9881439
0.87616181 0.51924199 1.9812913
2.6648092 0.52070802 1.9834673
2.4654541 0.53211784 1.9832287
0.18441677 0.56254679 1.9809167
0.9051137 0.5722329 1.9820311
1.5723654 0.57261932 1.9884295
1.41003 0.64390332 1.9806404
3.4035058 0.64101255 1.9843292
3.116221 0.65605927 1.980165
1.8905803 0.66738236 1.9889646
1.4202812 0.6816569 1.9811633
0.84108794 0.70189613 1.9845195
1.4397486 0.73221684 1.9839816
1.6994296 0.75255871 1.9898133
2.5745487 0.76932532 1.9848289
0.42250466 0.77865845 1.9871333
2.3071713 0.77356672 1.9830155
1.7787427 0.82489347 1.9825914
1.3848901 0.83514231 1.9874618
3.8964138 0.84702241 1.9881141
1.9611355 0.86739749 1.9851942
0.40961885 0.92396504 1.9851592
3.7223454 0.93677002 1.9882569
2.289628 0.95442766 1.9837887
1.9203776 0.98789531 1.9810843
0.22685289 1.0100992 1.9835865
1.3408937 1.0408654 1.9840524
1.9919461 1.080138 1.9845853
0.14919448 1.092896 1.9832845
0.60014093 1.13392 1.9862888
2.8226337 1.1645555 1.9863396
1.3771836 1.1951175 1.9815817
2.6220078 1.2481384 1.9864206
1.870026 1.2571836 1.989157
3.3852639 1.2642095 1.9895208
1.7268282 1.3057525 1.9826465
0.34529895 1.3111324 1.9852655
0.66135359 1.3341746 1.9825912
1.3348643 1.3454273 1.9844477
0.95251667 1.3574657 1.9888954
0.21189427 1.3799088 1.9872289
3.1279421 1.3916082 1.9899371
0.37801301 1.4007971 1.9865599
0.64524138 1.4087288 1.9853704
0.79236639 1.4209273 1.9815176
3.7657437 1.4628117 1.981756
0.63924754 1.4836307 1.9842486
3.4754233 1.4920557 1.9869528
1.0564436 1.5175548 1.9831777
4.6282015 1.513402 1.9825683
0.61032295 1.5359347 1.9807634
2.4649477 1.5773301 1.9824646
0.53688359 1.6227653 1.9836493
1.5433074 1.6585193 1.9883511
3.5200806 1.6704276 1.9881301
0.54148483 1.711067 1.9807348
1.4036901 1.7105081 1.9855239
0.38503224 1.7215145 1.9847996
3.3585424 1.7280202 1.981524
3.7589869 1.7818441 1.9896166
0.27372074 1.8004003 1.9833763
0.32220143 1.8093145 1.9884717
0.10967344 1.8197918 1.98013
2.7718782 1.8262837 1.9800892
0.65215039 1.8523147 1.9836812
3.5996628 1.8599441 1.9866869
0.72129464 1.9102337 1.9891791
1.6449922 2.0428967 1.9824443
2.4963617 2.0464208 1.9896481
2.6727419 2.1074975 1.9869545
2.7228541 2.1278908 1.9895964
3.6316237 2.1413703 1.9857254
1.8645831 2.1511872 1.9827828
3.7026997 2.1553907 1.9892621
5.2522345 2.196775 1.988811
0.96674526 2.2047353 1.9873414
1.6070515 2.2496943 1.9836304
-0.038145065 2.2783771 1.9829798
1.6614453 2.2906113 1.9894669
1.9335335 2.3060458 1.9898942
2.6101971 2.3265197 1.9833007
1.9822527 2.3831928 1.9890945
1.6616031 2.4337695 1.982007
0.32873267 2.4482317 1.9806681
-0.043215364 2.489598 1.9807544
2.1878572 2.5003097 1.984175
3.6847196 2.5122547 1.9876659
2.1349258 2.5432503 1.9816024
0.80141008 2.6021733 1.9850035
1.797067 2.6347864 1.9856346
-0.0063309968 2.8046896 1.9811754
0.52654755 2.8039515 1.9842136
1.0724856 2.8006742 1.9852269
1.2177323 2.8397145 1.9860137
0.00027760863 2.9049311 1.9880583
3.78548 2.961026 1.9870291
1.2483952 3.1672039 1.9850006
5.6921134 3.3570542 1.9875343
3.7425866 0.15817487 1.9951687
3.7962427 0.17149901 1.9908552
3.5191865 0.19158065 1.9934361
3.9731908 0.30202579 1.9991393
2.7177687 0.31703582 1.9984145
3.688014 0.31057778 1.9933443
1.6238147 0.36574185 1.9913914
3.3641834 0.37269813 1.9949639
2.7231846 0.40491909 1.9969008
3.6927061 0.44311446 1.9999702
1.3936554 0.4675042 1.9934101
0.92270756 0.47624117 1.9903636
2.9668684 0.47084707 1.9962025
