# .PCD v0.7 - Point Cloud Data file format
VERSION 0.7
FIELDS x y z
SIZE 4 4 4
TYPE F F F
COUNT 1 1 1
WIDTH 1509
HEIGHT 1
VIEWPOINT 0 0 0 1 0 0 0
POINTS 1509
DATA ascii
-0.019234598 2.2196426 0.12500548
-0.016501576 2.7182407 0.12136406
5.456831 2.7106581 0.1264469
5.5785484 3.0400383 0.12618726
5.1989069 3.8891809 0.12203607
5.7165718 3.9909351 0.12823141
3.0216079 -0.018455133 0.13777664
0.0045250654 0.45146036 0.13186267
4.0043964 0.52208579 0.1361025
-0.015962064 0.86989129 0.13344339
-0.02316907 1.6798496 0.13908499
-0.0091682374 1.9005859 0.13932317
5.1651945 1.9682615 0.13857377
5.1679964 1.9782362 0.1305303
1.4806495 3.236433 0.13836277
0.42882681 0.048726112 0.14454257
0.67324793 0.092973337 0.1432249
-0.015035063 0.87283289 0.14339757
4.8079882 1.5061791 0.14924556
-0.017245531 1.7595438 0.14984253
-0.021586478 2.771498 0.14615104
5.0860558 3.8792772 0.14977929
5.3181114 3.9302719 0.14454436
0.10255969 -0.011576414 0.15856913
0.61509788 -0.015375368 0.15259251
3.8138769 0.00071585178 0.15182433
3.1264312 0.59961516 0.15872473
5.2427549 2.1778202 0.15111426
5.3635092 2.5022511 0.15517437
-0.057017535 2.6520183 0.15735066
1.8060472 3.2988346 0.15871331
3.6558678 3.6091967 0.15721953
3.7712758 -0.011622444 0.16343713
0.29094386 0.02033031 0.16925097
0.65469217 0.10480137 0.16082674
3.8704088 0.73338306 0.16164061
3.25 3.5416691 0.16149318
0.74137545 -0.039256193 0.17378327
1.6557162 -0.022271268 0.17548025
3.9916303 0.60912007 0.17307019
3.9940708 1.4591788 0.1702925
5.2890434 2.2965877 0.1790314
5.664547 3.2333686 0.17525247
2.8537199 3.4959197 0.17838868
5.7626057 3.5376873 0.1789223
5.4925089 3.9391854 0.17821899
1.1677728 -0.02197805 0.18282574
0.3972702 -0.012536503 0.18600956
1.5721679 -0.019121736 0.1878975
-0.022499144 0.3228378 0.18640238
1.8861134 0.35196364 0.18506628
2.0003476 0.36919841 0.18124685
3.9729798 0.76450324 0.18467671
4.5606718 1.500989 0.18722534
-0.020078808 2.3428986 0.18383706
5.5727005 3.0237837 0.18873426
1.6826892 3.279578 0.18247685
2.4702415 3.415834 0.18608704
4.8393688 3.8145328 0.18231517
5.9055643 3.9009964 0.18129656
1.9817195 0.36134052 0.1926077
2.7316549 0.51080263 0.19137853
2.814307 3.4450545 0.19661611
3.6712673 3.6063046 0.19284216
1.6148489 -0.041160256 0.20381308
0.69926 -0.021503918 0.20402756
3.1358402 -0.018299714 0.2062676
3.6193931 -0.0074829981 0.20242906
2.7857485 0.0047080815 0.20287797
-0.012992263 1.0542027 0.2049033
4.2488346 1.5065827 0.20631516
-0.025812715 2.0568464 0.20387724
5.2747116 3.9061987 0.20718211
5.4473886 3.9358389 0.20527425
2.4203897 0.44774514 0.21081886
2.4499245 0.4681716 0.21614373
4.0018892 0.78832644 0.2104511
-0.009962976 1.2793993 0.21750563
5.005352 1.6229155 0.21260914
5.3731756 2.4908617 0.21714771
-0.023479253 2.9490986 0.21405989
1.1714846 3.1922398 0.21982366
2.5376298 3.4124954 0.21638119
3.9957588 3.6706192 0.21758202
5.8186646 3.6914966 0.21818414
0.047695279 -0.034476914 0.22725415
0.42649692 -0.031406768 0.22258258
1.2637229 -0.034549654 0.2233761
0.87878537 -0.027602725 0.22563314
1.2866303 0.21519214 0.22716242
-0.016115695 1.2591624 0.22948989
2.7674079 3.4661713 0.22034371
2.9756305 3.4861171 0.22332001
0.68316746 -0.033046827 0.23036331
1.4469844 0.24592027 0.23078805
1.8198795 0.32187331 0.2370545
-0.021261156 1.1389047 0.23154432
3.9799569 1.4567502 0.2358
2.9293387 3.4897528 0.2394098
5.8879137 4.0178289 0.239144
0.50424683 -0.060843416 0.24218994
3.5212562 -0.018844903 0.24051964
-0.0050673485 0.0086533576 0.24959332
-0.011942416 0.69015348 0.24278697
3.8242176 0.71786237 0.24584433
-0.0090520978 0.98912442 0.24329227
0.0013720989 1.7206196 0.24024662
5.3711548 2.503933 0.24369621
5.5023012 2.8550706 0.24792963
0.969275 3.1500502 0.24305615
1.2273872 3.1790586 0.24739411
1.5162714 3.2439895 0.24286899
2.2442319 3.3666542 0.24288216
2.3794069 3.3942258 0.24222881
3.0564334 -0.0023744181 0.25919291
4.0018988 0.028663456 0.25221297
0.9855932 0.14690977 0.25406781
5.7808666 3.620954 0.25432903
4.4556551 3.7564399 0.25361937
5.5231924 3.9276297 0.25911897
2.1812329 -0.041162141 0.26209024
1.2196229 -0.025697023 0.26402795
1.1491812 0.19046739 0.26887786
2.1650238 0.39376354 0.26160377
2.3395817 0.43398148 0.26220426
-0.017249256 0.65013498 0.26772428
-0.029130101 1.1362412 0.26327842
4.3231173 1.5224842 0.2638337
5.1186171 1.8239954 0.26252648
5.5332565 2.9013186 0.26616907
5.7929153 3.5488086 0.26728815
0.95144701 -0.032774284 0.27060521
1.2732456 -0.016594335 0.27686918
2.5166492 -0.018225431 0.27937502
3.1483634 -0.0089117363 0.27326882
0.93629026 0.14612895 0.27374643
1.1335375 0.18247515 0.27086568
3.9890635 0.43515742 0.27252918
2.7990592 3.4489372 0.2716043
3.1023512 3.5125644 0.27201903
1.9564061 -0.02586408 0.28293383
1.702142 0.30324656 0.28086007
4.22647 1.5090972 0.2845149
4.2138681 1.5107462 0.2842713
-0.027091235 1.7044272 0.28110838
-0.028306752 2.1723564 0.28017658
4.9476004 3.8389225 0.2880941
0.72102547 -0.023508742 0.29209244
1.5434777 -0.016464997 0.29740399
3.985431 0.44456869 0.2905792
3.0866585 0.56193364 0.29856008
4.1088486 1.5002162 0.2997508
4.6017599 1.513177 0.29405969
0.85995972 3.1258307 0.29300481
2.2546177 3.3708725 0.29100734
5.91185 3.9180944 0.29122472
-0.014081508 1.4419268 0.30209059
-0.025707781 2.7812619 0.30055791
-0.037401527 2.7948117 0.30548811
0.40707082 3.0395956 0.30480188
0.3777433 3.0431051 0.30423582
5.6527672 3.2380345 0.30485094
0.15149051 -0.019285753 0.31061339
1.1723933 0.18880793 0.31592357
2.9570591 0.54590142 0.31006604
3.9931114 1.1530844 0.31586152
-0.019984722 2.1520791 0.31151766
1.8275592 3.2868452 0.3167327
1.9038503 3.3156981 0.31169069
2.5420487 3.4071031 0.31460774
3.381598 3.570894 0.31745839
0.21516418 -0.035777971 0.32059753
3.8953459 0.00087971985 0.32157564
-0.011447877 2.9224596 0.32216245
2.4567516 3.3994372 0.32546955
-0.011505276 -0.026756428 0.33591682
0.078963995 -0.025280729 0.33021677
0.63611746 -0.013209395 0.33139181
0.45475554 0.063916072 0.33025008
1.437192 0.25319901 0.3364476
-0.035485506 1.1855538 0.33512908
5.2425928 2.1576021 0.33119375
5.3072615 2.322294 0.33287662
1.3894968 3.2087755 0.33004546
2.2949009 3.3727336 0.33731085
3.3553839 3.5705709 0.3321954
4.4592295 3.7476995 0.33297187
0.70106137 -0.038583875 0.34193951
0.23498505 -0.016895086 0.34422636
3.4873505 -0.010870405 0.34023166
2.532732 0.007193841 0.34828585
3.6916325 0.6738773 0.34526873
3.7163398 0.71418059 0.34997755
-0.01292941 1.3984274 0.34875208
-0.011876523 1.9237304 0.34435487
-0.038532972 2.1939757 0.3490895
1.4472907 3.2224684 0.34045839
2.6913991 3.4513512 0.34627664
3.1469162 3.5433168 0.34358984
4.8614769 3.8099921 0.34025526
3.0000131 -0.019177966 0.35738897
3.9768131 0.93157387 0.35175604
-0.032565773 2.5512085 0.35860711
0.63677979 3.0618591 0.35340446
2.0768044 3.3433163 0.35154974
2.3304834 3.3806465 0.35752404
2.886503 3.484637 0.35685635
3.2936981 3.5532515 0.35094649
1.7509229 0.32358393 0.36624402
4.0036726 0.60790324 0.36248195
-0.0081101954 0.75769633 0.36003029
5.5715904 3.054822 0.36154783
1.3183055 3.1969943 0.36572045
1.3347994 3.1947157 0.36338103
2.7955155 3.4757886 0.36703879
3.5557797 3.6165352 0.36016113
4.0633249 3.6597245 0.3656283
2.9139366 -0.016519092 0.37176561
2.0157557 -0.0079877973 0.37799758
3.9891446 0.29920298 0.37190348
-0.0069966316 0.45887142 0.37874979
0.0033519268 1.011361 0.37095141
3.9893329 1.2741245 0.37414378
3.9737284 1.3406428 0.37724662
1.0761989 3.153224 0.37190175
5.4667435 3.9417508 0.37939906
5.5699863 3.9619009 0.37621999
1.9289815 -0.030514486 0.38111067
0.49817812 -0.017535202 0.38224065
5.1817646 2.0133519 0.38499147
-0.0081237853 2.5149412 0.38490707
1.2779127 3.1766071 0.38587815
2.2005103 3.3407147 0.38864869
5.7215204 3.400413 0.38440108
4.4772396 3.7530167 0.38593757
0.08366096 -0.031179301 0.39583933
0.54508984 -0.02681198 0.3908155
3.5253036 -0.0010044202 0.39264774
-0.024068356 2.2231448 0.39844596
2.29895 3.363662 0.39209741
5.2023783 3.8912671 0.39102268
0.55116665 -0.035222247 0.40388238
2.2565961 -0.014723256 0.40466994
2.1149631 0.39199036 0.40247786
3.3178689 0.6142475 0.40322065
0.88843369 3.1337495 0.4025709
3.2790942 3.5649533 0.40301424
0.65002108 -0.031394117 0.41965872
0.94286609 0.15734521 0.41260701
2.9436836 0.53290904 0.41116786
4.1267252 1.5089033 0.41969812
4.9266624 1.50604 0.41010118
5.0197411 1.6145334 0.41480404
5.2341566 2.1480455 0.41204351
3.7366107 0.0068018511 0.42385697
3.9964936 0.5167346 0.42004883
2.8748295 0.54701579 0.42077541
3.4625866 0.66765451 0.42622179
-0.0075295269 1.8020476 0.42256939
-0.021299601 1.9745584 0.42958003
-0.029551476 2.613894 0.42266947
1.0328389 3.1553357 0.42056501
0.41561937 -0.032865532 0.43405551
0.87165678 -0.027370758 0.43933988
2.3361874 -0.013564683 0.43716717
3.2824748 -0.0059567019 0.43388486
1.5949376 0.31005952 0.43099254
3.7986467 0.72417176 0.43124962
-0.026552796 0.7996797 0.43627793
5.6237965 3.1665301 0.43398452
1.561929 3.2487574 0.438694
3.0927429 3.5277505 0.43511188
5.8344097 3.7054887 0.4360702
4.5469046 3.7529387 0.43986964
4.7548456 3.8057563 0.43762904
3.9007471 0.74572939 0.44232196
-0.021289557 2.6405716 0.44103616
2.487078 3.4153669 0.44985884
2.9462965 3.4839494 0.44227266
5.7782383 3.5403333 0.44906491
3.5460198 3.590163 0.44336742
5.0084591 3.8304074 0.44787705
-0.015418947 0.45247322 0.45721817
-0.0030796528 0.95685077 0.45768946
-0.024392724 2.9385536 0.450432
0.61500716 3.0850275 0.45487356
5.8017502 3.6198437 0.45099115
4.0166264 3.6756594 0.45879757
0.36615914 -0.049443066 0.46922553
1.0587682 -0.040828034 0.46428794
0.29062223 -0.039659061 0.46051306
0.58792806 -0.037659191 0.46492732
3.1620901 -0.0083834305 0.46607399
0.61284721 0.099729612 0.46670949
3.0577226 0.5683322 0.46368355
-0.014299721 0.91060686 0.46536207
-0.012958795 1.8692536 0.4693085
5.2848301 2.2527876 0.46525985
3.718703 3.6055431 0.46832216
4.0660944 3.6835492 0.46590298
4.3924704 3.7360616 0.46429425
1.5473113 -0.025112852 0.47830337
1.5176687 0.25643972 0.47320151
5.8011866 3.6342945 0.47756821
1.2645041 -0.038961291 0.48763132
2.3883958 -0.003040202 0.48425585
1.6432998 0.28371942 0.48739386
1.9741457 0.3510102 0.48783529
2.0372257 0.3733851 0.48678428
3.6612265 0.67706817 0.48535204
-0.020586014 2.0301213 0.48250842
5.4529171 2.7266953 0.48914534
2.8452513 3.475425 0.48396558
5.9487457 3.9679878 0.48478103
1.7982347 -0.025913738 0.49143308
2.5058253 -0.019050345 0.49434239
2.5822363 0.0059588179 0.49498987
3.0186927 0.54600406 0.49425805
4.1848888 1.509598 0.49094254
1.6441617 3.2584755 0.49528444
3.6038187 3.5781574 0.49979925
3.8265774 3.6477239 0.49196404
5.4945889 3.9319432 0.49708897
0.013847172 -0.01182507 0.50689048
-0.01971662 0.37151316 0.50922364
-0.029473722 2.2927597 0.50480425
5.6206465 3.1387889 0.50609046
2.252404 3.3494837 0.50854504
3.9191058 3.679085 0.50571561
5.9555454 4.0006266 0.50941288
3.695442 0.0084110126 0.51086199
0.62862682 0.098040938 0.51422596
2.5459332 0.47988933 0.51549017
1.1985605 3.163873 0.51718575
3.4303553 3.5626845 0.51760054
4.2793007 3.7160149 0.51729864
0.66454983 -0.042794675 0.52774388
3.2593908 -0.0072218776 0.5282563
2.3975353 0.0011512861 0.52861339
1.16468 0.17622939 0.52745205
2.3019533 0.42201853 0.52100414
-0.048924834 2.3912456 0.52443117
4.4633875 3.7735448 0.52299851
0.83224714 -0.034897774 0.5304625
1.4713455 -0.031547226 0.53782874
0.97548091 0.15982828 0.53445101
2.172936 0.37858707 0.53612518
2.7891235 0.5199632 0.53374445
3.9930933 1.4515965 0.5390138
4.619976 1.5135944 0.53959632
3.5835817 3.5949409 0.53375095
0.70944762 -0.02390147 0.54497612
1.3285195 -0.015270062 0.54327309
3.7625296 -0.0071977526 0.54426789
-0.0033893585 0.033218011 0.54486138
-0.0013194084 0.17970458 0.54944247
3.9828837 0.83282161 0.54187739
5.1317005 3.8555548 0.54840535
2.583739 0.47295392 0.55436146
-0.020942628 0.94908249 0.55794191
-0.015476435 0.98601592 0.55407196
4.1206827 1.4764711 0.55289918
4.1594744 1.5026702 0.55977571
5.3927984 2.5587094 0.55581027
0.24939823 3.0241296 0.55981547
2.0203798 3.3291724 0.55192184
2.4732118 3.4152057 0.55209327
3.0371659 3.5135026 0.55031353
4.1990919 3.688288 0.55234474
5.9066601 3.9254811 0.55191493
5.6369019 3.9566128 0.55987304
5.737381 3.9914014 0.55981588
5.9463348 4.0174875 0.5534113
3.1906898 0.58518571 0.56796795
3.9742749 1.4459269 0.5676499
5.1813059 2.0126295 0.56437624
-0.034155369 2.3666532 0.5613789
3.9861267 1.4535416 0.5745939
4.0519524 1.4995954 0.57302797
4.9993343 1.5352544 0.57231319
5.0806875 1.8118116 0.57049412
1.9076619 3.3198502 0.57986426
5.7446165 3.4886765 0.57826692
4.7684917 3.8253131 0.57804626
0.13315427 -0.046542756 0.58181769
1.5047355 -0.021816507 0.58455712
1.7073729 0.29043645 0.58647257
4.292798 1.5055391 0.58595264
5.317687 2.4056399 0.5894857
2.5594652 3.4106922 0.58532
3.4983952 -0.011124201 0.59686261
0.8515054 0.12636693 0.59220421
4.0018644 0.87208581 0.59911817
4.8593578 1.5127095 0.59808326
4.1598558 3.7064807 0.59256136
4.639945 3.7845256 0.59042293
0.12150162 -0.02418559 0.60880464
2.7263665 -0.019034088 0.60950893
1.4672613 0.24758199 0.60926628
2.8943422 0.52731818 0.60897642
3.1261508 0.59142876 0.60727394
-0.033397108 1.7517078 0.60423219
4.106226 3.6932681 0.60035467
1.3368706 -0.032598622 0.6194526
1.1354355 -0.0091664195 0.61288935
2.2386081 -0.0088999495 0.61272585
0.63656712 0.077575073 0.61715877
0.0029115081 0.27728444 0.61704105
1.8928597 0.33369753 0.61972409
1.5236647 3.2407744 0.6134485
4.6495466 3.7713356 0.61476672
5.8248482 3.9957144 0.61949754
2.1979775 -0.00027580559 0.62564111
3.9255335 -0.0053891391 0.62695128
0.0064948201 0.13562024 0.62451762
1.2483537 0.20406741 0.62537926
1.9614921 0.34639108 0.62795556
3.9823697 1.1111244 0.62437278
4.0540934 1.4949936 0.62723917
-0.016374528 1.6654531 0.62943316
5.3409939 2.3751254 0.62944734
5.7230806 3.4262719 0.62157667
3.1176243 -0.0082168132 0.63138014
-0.0090493262 0.46832621 0.63519812
2.7611334 0.49849814 0.63630009
4.30091 1.5086256 0.63179427
4.9856024 1.5194583 0.6333549
4.9947319 1.5498627 0.63116974
5.0481033 1.6586586 0.63501167
5.3509121 2.4473071 0.63449425
0.89547181 3.1205208 0.63250685
3.4871814 3.5798857 0.63179839
4.2992954 3.7247181 0.63631445
3.8334019 -0.0065068007 0.64394021
2.1448064 0.38682896 0.64064008
2.993664 0.54503125 0.64232451
3.9420516 0.75700212 0.64249164
0.0011733174 0.83089948 0.64332283
3.9942281 1.4413283 0.64072943
4.0352278 1.5038496 0.64533919
2.0606718 0.0033462718 0.65505803
2.1450107 0.3855297 0.65933084
2.1845889 0.39184022 0.65533292
3.0394769 0.56319147 0.65185475
-0.01167053 2.2267733 0.65702301
2.5193343 3.3978574 0.65040284
5.4203491 3.9166591 0.65022618
5.9116287 3.9317882 0.65651095
1.4057022 -0.024216227 0.66554654
3.5665853 -0.0018642992 0.66763246
1.1097887 0.18120643 0.66191882
1.3079494 0.20366868 0.66615599
3.230094 0.60281819 0.66334295
4.1425896 1.5043924 0.66864371
5.4868603 3.9229391 0.66406715
2.5227411 -0.028875023 0.67345905
3.2424011 -0.0092218518 0.67269844
2.3646562 0.43181169 0.67346328
4.0046568 1.2976133 0.67247343
5.3367119 2.4041672 0.67476392
1.4684799 3.2346714 0.67696792
3.3958895 3.5600677 0.67054909
4.8904295 3.830085 0.67595673
0.57844985 0.082512051 0.6865561
4.0194521 1.5201178 0.68242979
-0.024684876 1.7092798 0.68715966
-0.043057352 2.5637243 0.68532366
0.024806857 2.9598866 0.68553251
5.6427469 3.2216699 0.68932724
2.2148712 3.331888 0.68486166
5.6896067 3.3338125 0.68320692
2.5695679 3.4183271 0.68940109
2.6764319 -0.023384236 0.69053632
4.7221384 1.4935955 0.69170624
5.0410099 1.6324158 0.69951439
-0.029970586 2.057678 0.69844526
5.5655079 3.0163364 0.69494641
3.4366078 3.5672965 0.69802606
3.6567204 3.6123087 0.69942278
5.8449736 3.6939464 0.69901782
5.6541576 3.9643004 0.6944055
-0.010936052 -0.037883058 0.70399547
2.0368543 -0.02510111 0.70194733
3.5182393 -0.0052652955 0.70816094
1.270456 0.18766102 0.70322657
2.1210783 0.38646829 0.70565951
3.9856784 0.4302963 0.7076993
5.4753351 2.7526166 0.70067018
5.6540852 3.2480719 0.70418894
1.8767684 3.2986724 0.70675069
3.9610221 3.6669605 0.70434195
5.8152523 3.6952453 0.70609468
4.2156668 3.7191985 0.70227063
4.6786108 3.7963622 0.70397103
1.5357423 -0.019307472 0.7163471
0.47428405 0.061736926 0.71009028
0.016813993 0.21518216 0.71702969
-0.023505569 0.58031714 0.71743947
3.7620304 0.68971765 0.71931225
5.032443 1.6811295 0.71906734
5.2867918 2.2871175 0.71748441
3.2842963 3.5397842 0.71340716
4.6997252 3.7872329 0.71788573
5.5076704 3.9434927 0.71628016
3.6149595 -0.026084825 0.72311759
3.1425855 0.56655198 0.72407389
4.4367981 1.5044791 0.72559649
-0.017802566 2.7769787 0.72652429
0.25497073 3.0223973 0.72283518
5.6125431 3.1176457 0.72589904
3.3152175 3.5352654 0.72999907
1.8426971 -0.019947276 0.73379982
3.8434107 0.70200044 0.73474258
-0.002215147 0.7453261 0.73051786
-0.0086724758 0.75501782 0.73671997
4.9679298 1.5078725 0.73949599
1.4283562 3.207562 0.73069876
4.4574776 3.7517776 0.73474151
5.9656239 4.0006275 0.73003304
0.68978703 -0.040401042 0.7455017
2.9849026 -0.01001168 0.7436313
2.2499914 0.41118771 0.74796832
3.983865 0.64177674 0.74565351
3.6239421 0.6569128 0.74241251
0.00061070919 0.68148571 0.74104601
-0.0054940879 1.0116807 0.74036288
5.2540245 2.2378826 0.74777919
-0.023014128 2.8847654 0.7415731
5.6498775 3.1887107 0.74569064
5.7038565 3.3696094 0.74512768
4.5398245 3.7831075 0.74787772
5.9142323 3.8881238 0.74947619
1.9196584 -0.045320779 0.75712836
0.15813041 -0.027195327 0.75593901
0.58903587 -0.018014163 0.75019574
3.4358039 -0.008893609 0.75399601
0.67388284 0.078144878 0.75814289
3.9813788 0.77161986 0.75029677
-0.022993118 1.4922072 0.75811183
-0.013365865 2.2378538 0.75766784
0.92481053 3.1337056 0.7594254
3.8936746 3.6450922 0.75060362
-0.0023846626 -0.036714964 0.76478827
0.61673129 -0.038437679 0.76925361
4.0143518 0.069800943 0.76987159
3.497926 0.62817907 0.76889384
4.5313168 1.501125 0.76929903
2.167125 3.3410285 0.76899755
2.757865 3.4610827 0.76625824
3.894592 3.6632698 0.76831746
4.2991447 3.7241163 0.76462257
3.1726677 -0.0050737411 0.77391577
1.7063978 0.3096005 0.77268529
5.1654415 1.9419277 0.77022231
-0.020809561 2.0918703 0.77190828
-0.03269875 2.1419468 0.77815485
1.6926451 0.2955921 0.78691912
3.9917552 0.97765481 0.78891492
1.7981133 3.2831991 0.78198028
4.3098793 3.726491 0.78633761
4.7453585 3.7881699 0.78951097
5.5760965 3.955045 0.78814387
0.45355463 -0.036772214 0.79590607
0.96899819 -0.020186126 0.79156685
4.6964102 1.4877232 0.7914995
1.4595594 3.2081661 0.79190409
5.7038107 3.3308258 0.79816008
5.7144699 3.3706379 0.79850733
2.7699082 3.4310682 0.79128027
4.3839235 3.7373331 0.79939044
1.1232338 -0.036434866 0.80717838
3.7351077 -0.011075988 0.8029058
5.1767693 1.9901729 0.80903018
1.2103038 -0.02662573 0.81817293
3.8144972 -0.011934005 0.81316626
2.3675897 -0.0071870461 0.81079316
0.0036572814 0.14914179 0.8103466
3.9799078 0.21223235 0.81871843
-0.00025182962 0.72768211 0.81777871
-0.014838189 1.1987007 0.81635475
5.6438723 3.1997447 0.81819427
1.4592956 3.2249122 0.81615019
1.9772766 3.2988794 0.81392527
2.4170868 0.44336689 0.82098031
3.3584251 0.63637352 0.82303095
-0.011443526 0.74805629 0.82813311
4.0041943 1.3309317 0.82457399
5.3780594 2.532325 0.82755077
5.4009352 2.5555182 0.82859838
5.4904385 2.7894082 0.82920849
5.5647955 2.9994626 0.82390559
4.274929 3.70191 0.82258487
4.741478 3.8031876 0.82754326
4.8463554 3.8267388 0.82642555
5.9514017 3.9172986 0.82832634
1.4820682 -0.031866767 0.83223701
3.8173425 -0.0094490647 0.83929658
0.0059660673 0.21341524 0.83932996
2.6742916 0.51076961 0.83156502
2.978951 0.54214895 0.83368254
3.1819324 0.57882321 0.83108008
-0.031031251 1.2654316 0.83953476
4.6343374 1.4882594 0.83845139
-0.022383571 2.1780684 0.83932102
5.6550741 3.2474113 0.83705723
2.6515462 3.4255085 0.83850718
0.63936996 -0.032953724 0.84378743
1.7040408 -0.028521463 0.84594917
3.5013149 -0.016431466 0.84289253
3.7109416 -0.00025634468 0.84427702
3.8173182 -0.0063415542 0.84899294
0.4310326 0.044107318 0.84834099
5.5985937 3.1135232 0.84930336
5.643013 3.1879499 0.84562647
4.4761467 3.7399414 0.8461225
3.0294023 -0.03210865 0.85176229
0.1230523 -0.021849804 0.85165846
3.4771144 0.63300222 0.85913277
5.3342991 2.4104185 0.85552692
-0.036676705 2.5004041 0.85931957
5.4366179 3.9133079 0.8569113
5.3720493 3.9313471 0.85220003
0.93551135 0.13274157 0.86375225
4.0010748 0.19503176 0.86544347
-0.014973164 2.0705931 0.86678779
-0.017425567 2.7540386 0.86197519
1.8666348 3.2905953 0.86963797
5.4744797 3.9347112 0.86107481
-0.015858084 -0.050581582 0.87465286
2.6524842 -0.020157404 0.87448537
3.1352794 -0.01442726 0.87889624
0.5016557 0.055863291 0.87571859
4.0032492 0.45363444 0.87146163
2.625623 0.47596282 0.87271369
-0.0057245493 1.8158 0.87553859
5.4791937 2.8212845 0.8775779
1.2665048 3.1935253 0.8766309
3.2361538 3.5340095 0.87537515
3.5339453 3.5744338 0.87252915
4.4160089 3.747798 0.87836444
2.6699378 0.46675122 0.88609505
3.6366079 0.69336271 0.88830626
4.3066893 1.4837115 0.88252592
5.3745403 2.5093114 0.88121474
0.077058494 2.9623199 0.88669181
0.39271277 -0.032922417 0.89431286
1.5537541 -0.026997939 0.8970418
0.16034305 -0.0076193511 0.89045382
3.5412657 0.64972454 0.89573991
4.9044857 1.5062164 0.89199042
-0.0091805458 1.8566132 0.89931142
0.5358876 3.0406795 0.89139259
0.67100549 3.0725565 0.89963746
4.1851673 1.5016285 0.90410292
5.0682344 1.7272046 0.90428233
5.6488504 3.2016897 0.90249813
2.1251199 3.3401952 0.90801072
2.7047849 3.4353313 0.90276361
5.7727633 3.5271125 0.90636206
5.8426428 3.7571228 0.90671325
1.4170594 -0.030281775 0.91736531
3.1873863 -0.017589077 0.91719162
3.4936461 -0.007844612 0.91441834
0.44256109 0.025047839 0.91239977
1.1405891 0.18032026 0.91111755
-0.02444452 0.26301408 0.91864538
2.354264 0.4258399 0.91687942
4.6715059 1.4894193 0.91669631
4.9372997 1.5025296 0.91365635
-0.042197764 2.7088315 0.9143008
0.7309624 3.0863633 0.91170537
5.7250185 3.9676602 0.9171356
2.1717422 -0.027810305 0.92621994
0.34682631 0.017586976 0.92722583
0.64841235 0.075570479 0.92789912
1.6878533 0.27857095 0.92373133
2.4286003 0.41429698 0.92366421
2.7010112 0.47864884 0.92390335
-0.010489166 1.2158037 0.92952859
-0.019523919 1.6807736 0.92349327
5.3326864 2.4414916 0.92860806
0.33482683 3.0191543 0.92864394
0.5527091 3.0563703 0.92885959
2.5589478 0.4533481 0.93847072
2.588001 0.45200944 0.93116355
3.0313292 0.55107969 0.9341253
-0.025223225 1.9771426 0.9367491
5.206851 2.0720854 0.93546426
5.5094519 2.8447101 0.93776023
5.3099642 3.8959148 0.93841565
0.20820308 -0.060779586 0.94795406
2.1954455 -0.032156356 0.94656658
1.6426437 0.27988744 0.94462347
2.0916402 0.35837311 0.9415977
3.9732497 0.98066652 0.94501626
-0.0063854158 1.7374209 0.94039118
5.3651237 2.4675014 0.94318449
5.3898802 2.5584145 0.94409823
-0.023377687 2.8623462 0.94990587
5.5649624 3.0042725 0.9483422
4.8078156 3.8061562 0.94609225
0.87035072 -0.0372006 0.95297301
0.95909357 -0.037056684 0.9507823
0.17520434 0.0032909662 0.95937049
2.7295952 0.49074626 0.95956194
5.3143997 2.334409 0.95595396
1.6115584 3.2477314 0.9530226
2.3580189 3.3703434 0.95833027
3.6717026 3.6133263 0.95638621
5.8910799 3.8389232 0.95663846
5.3143911 3.9120657 0.95089364
5.9496622 3.9604332 0.95062733
0.41928571 -0.038086712 0.96824205
0.46531934 -0.023449242 0.96871102
3.0738189 -0.027889714 0.96112967
1.7522759 -0.018248037 0.96496856
0.24663723 0.012966767 0.96468151
0.42042142 0.024565309 0.96655011
4.8573532 1.4947056 0.96343541
1.3907709 3.2216103 0.96038651
5.7149258 3.4106975 0.96855867
2.6656432 3.4484069 0.96449721
5.7709961 3.9804752 0.96778369
1.8854387 -0.020618148 0.97919905
2.5822732 -0.028790712 0.97239316
2.4260938 -0.011570655 0.97395313
3.4659386 -0.011058152 0.9735204
3.9892213 0.25505874 0.97506607
5.0063982 1.5189804 0.97430325
5.2235622 2.1059296 0.97432339
-0.02627334 2.4395857 0.97761369
1.4329462 3.1957433 0.97547114
1.7026348 3.2734783 0.9764899
2.5958345 3.421247 0.97539532
2.8575709 3.4484851 0.97064614
3.5779331 3.5915453 0.97478747
2.6942155 -0.013850667 0.98377287
1.0201172 0.18516934 0.98143661
-0.015429616 0.56453502 0.98768806
1.1224114 3.1655285 0.9802314
5.9192085 4.0097923 0.98263752
2.4014249 -0.031751007 0.999336
1.2182288 -0.024285287 0.99721825
3.8440831 -0.0034815371 0.99939537
3.8783591 0.72102082 0.9974401
0.36266708 3.0316739 0.99971855
3.4031603 3.5666435 0.99985659
5.8772335 3.8203237 0.99828756
0.53309965 -0.051771984 1.0011206
0.22332925 -0.031946823 1.0097574
1.4927478 -0.038062736 1.0072687
1.9326868 -0.005477421 1.0067265
3.867398 -0.0073192716 1.0055054
0.0033981204 0.080212906 1.0092937
-0.0087024868 0.35428813 1.0043302
2.9964931 0.54796755 1.0097889
4.7808533 1.5185577 1.0099536
-0.025864452 2.0391116 1.008146
4.7498837 3.8065615 1.0060054
2.0618234 0.36709774 1.0117452
3.4112449 0.63751835 1.0129372
-0.037276089 2.2642832 1.0128562
-0.03144747 2.9142346 1.0149952
5.320323 3.900367 1.0137843
0.59971571 -0.03912203 1.0207732
0.56811261 0.074858874 1.0273002
0.73166811 0.1080277 1.0230573
2.4694121 0.43788254 1.0276804
2.5942104 0.46790683 1.0241673
1.1680808 3.1613035 1.0287094
2.5897543 3.4268632 1.0208632
5.9348307 3.9410074 1.0229659
0.27584463 -0.023027577 1.033784
3.9675744 -0.0084132105 1.0315884
2.5740697 0.44718474 1.0389342
3.0105917 0.55842102 1.0315263
4.6148767 1.5011154 1.034397
-0.029992342 1.6823052 1.0345232
5.2957296 2.295398 1.0362744
5.7127523 3.394537 1.0384569
4.1600103 3.6963003 1.0339277
3.7228215 -0.011062801 1.0463861
0.14287239 0.0049183592 1.0483047
0.013179421 0.44851303 1.04856
-0.0036633015 0.61397833 1.0475059
3.98857 0.95358026 1.0466511
-0.0070313811 1.5814482 1.0409803
-0.0077987313 2.4111648 1.0438617
5.4137068 2.5888369 1.0494905
2.4628451 3.3979473 1.0475243
2.5302117 3.423979 1.0415729
2.9943624 3.4725788 1.0494367
5.7954264 3.5665359 1.0476463
0.3343429 -0.042873673 1.0540327
2.6920187 -0.035894834 1.0574495
0.50145674 -0.015850052 1.0543329
3.8755777 -0.0016793385 1.0533489
1.2981645 0.20719728 1.0584739
-0.025362551 1.2280632 1.0561627
0.23274422 2.9945135 1.0542531
1.2200379 3.1747892 1.0591842
1.5204885 3.2371461 1.0563538
1.8753986 3.2966027 1.0589684
2.5810144 3.4087548 1.0562929
3.1781814 3.5090706 1.0543718
5.4036016 3.9270456 1.0518777
2.8351614 -0.019942939 1.0675493
1.9922853 0.35741997 1.0634357
2.5231137 0.44821823 1.061357
4.0327539 1.4944572 1.0662626
3.1655645 3.5157006 1.0643861
0.76260138 -0.041624807 1.0767593
1.0192428 0.15999588 1.0707819
4.0027246 0.33835325 1.0796758
3.1846254 0.59284317 1.0722052
-0.036674142 1.1919137 1.0735109
5.1753149 1.9866965 1.0757955
5.7554426 3.4833972 1.0780187
5.7937326 3.5991857 1.0755223
3.9907701 0.3356829 1.0841082
2.5751462 0.4521569 1.0828437
-0.011811346 0.75367868 1.0875002
0.086960852 2.9973872 1.0895849
3.0000043 3.4878445 1.088178
3.7923234 3.6273663 1.0834612
5.854044 3.7219281 1.0801567
4.9448814 3.8268065 1.0848018
0.32885468 -0.031420872 1.0962847
1.4457787 0.23049647 1.0953983
3.8070972 0.69467169 1.0939531
5.4134064 2.6124742 1.0940241
-0.019083589 2.6498048 1.091881
0.09918052 -0.018199846 1.1063157
1.4170443 -0.010720223 1.1068788
3.6339872 0.67669493 1.1008832
-0.024634749 2.282527 1.1059445
5.6193686 3.1662626 1.1066457
1.0588678 -0.048567928 1.1118879
2.7860553 -0.022750221 1.1154523
2.6250231 0.45353615 1.110451
3.0132582 0.55360103 1.1165681
-0.027247459 1.0673816 1.1162732
4.1412554 1.4969137 1.1181734
-0.017667204 2.8695762 1.1164206
5.540596 2.876482 1.1175513
3.2936971 3.5343065 1.1176128
4.0150175 0.022128865 1.1236175
2.2509568 0.40473783 1.1213615
2.9526503 0.51972288 1.1225289
-0.020985842 1.4938059 1.1215646
-0.014558375 1.52485 1.1289389
5.3686447 2.5132184 1.124301
2.2348566 3.3432844 1.1260625
4.3624563 3.7406065 1.1234343
0.74416661 -0.065979011 1.138559
0.55537426 -0.058664463 1.1364189
4.0089388 0.43485302 1.1379615
3.8898404 0.71892458 1.1350787
3.9871585 0.74109542 1.1327775
-0.035171956 2.6871674 1.1308919
0.79814696 3.0771875 1.1326599
2.472729 3.397516 1.1354171
5.1804686 3.879463 1.1363004
2.6501091 -0.017730266 1.1460294
1.4833052 0.23050201 1.1417924
2.5467305 0.4622761 1.1417328
4.7318983 1.4977077 1.1469473
4.9673052 1.4972404 1.1444435
-0.015411317 1.8919163 1.1438968
5.6495295 3.167084 1.141274
5.7392025 3.962199 1.1423942
1.0411 0.15757775 1.1504117
3.9988301 1.0188551 1.1515957
5.6063919 3.1117454 1.1591039
4.5646849 3.7410817 1.1533712
4.7738314 3.7875056 1.1510668
3.5308874 -0.029688686 1.1648546
0.40720558 0.036414787 1.1676368
0.61633193 0.060576856 1.1625283
4.3240414 1.4951311 1.1675463
5.0993242 1.7810524 1.1657355
-0.037937939 2.584446 1.167169
0.90731657 3.1137125 1.1623917
0.12716025 -0.044096552 1.1704165
1.6406479 -0.0056505799 1.1790994
0.55479848 0.056955695 1.1720767
3.9876382 1.2521297 1.1759967
4.9875202 1.4939386 1.1762439
0.82798719 3.1188793 1.1766132
2.65694 3.4384115 1.1715353
4.8467474 3.8084381 1.1793101
5.8860369 3.8188121 1.1754402
3.4879026 -0.0064101368 1.182987
2.5381267 0.437558 1.1897643
0.011990905 0.79795086 1.1835454
-0.024239779 1.0921984 1.1862838
-0.010403305 1.3323183 1.1801088
-0.0045330226 1.6338975 1.1824763
-0.015064657 2.0757582 1.1815528
5.3101397 2.3554206 1.1803604
0.6517818 3.0719984 1.1846497
0.84000456 3.1157951 1.182151
1.1053424 3.1437805 1.1849253
3.2043803 3.538249 1.1839881
4.3532372 3.7216871 1.1821228
3.2512038 -0.023858212 1.1950308
0.25407916 -0.0012772605 1.1903431
0.77689016 0.10878803 1.1904736
-0.011353493 1.4788021 1.1932495
4.8421593 1.4984258 1.1909974
-0.025279313 2.2897062 1.1908627
-0.01787895 0.31146789 1.2030044
1.9057672 0.31691605 1.2062608
2.813122 0.5071854 1.2091339
-0.018556178 1.5612094 1.2098738
0.55803168 3.0750942 1.2085614
3.3625793 3.5443306 1.2010106
4.5865002 3.7816749 1.20163
0.20171672 -0.064510316 1.2182612
1.2590766 -0.050118029 1.2154514
0.42068034 -0.031412117 1.2102274
1.6180215 0.27555129 1.211054
1.7233994 0.29724103 1.2100495
1.8844159 0.31277138 1.2145356
4.0080872 0.39353818 1.2162443
3.9799197 0.91950142 1.2105075
4.7435341 1.492924 1.2145698
2.9712169 3.4752922 1.2189637
3.6914408 3.610708 1.2193862
5.8614588 3.7724645 1.2142597
4.630043 3.7895689 1.2145646
1.3984562 0.23060995 1.2243164
3.5385149 0.6493063 1.2208598
5.0224266 1.5334513 1.2263647
5.5689363 2.9885535 1.2272748
5.4314117 3.9128568 1.2225155
0.78205204 -0.05187133 1.2302582
3.9157927 -0.0015553087 1.2366617
1.7443485 0.29802474 1.2315989
2.3116946 0.40203267 1.2393162
4.0197821 0.70404476 1.2345712
-0.022563726 2.6089969 1.2305601
5.6176548 3.0778174 1.2384702
5.6880608 3.3205547 1.2374728
3.3698986 3.5444648 1.2343341
4.7756062 3.8027859 1.238367
5.6571026 3.9551938 1.2323163
5.8421936 4.0122299 1.2386183
1.6051989 -0.04287982 1.2471768
0.072100461 -0.036797337 1.2478867
2.314476 -0.023563087 1.2425059
3.994385 0.088711679 1.246832
3.9990928 0.33152917 1.246832
-0.0035988092 0.5971716 1.2439152
5.5310869 2.8881824 1.2480676
2.0665786 3.3196135 1.2411995
2.196713 3.3454726 1.241768
5.7311287 3.3849638 1.2470163
5.7672939 3.5664306 1.2417381
0.38979083 -0.039763682 1.2569706
1.5185251 -0.032837257 1.2526355
2.0144069 -0.03284815 1.25219
3.9710257 -0.030480094 1.2576177
0.47360122 0.044218823 1.2536855
3.6231148 0.66303325 1.2549661
3.815459 0.71777803 1.2549644
5.6439905 3.2700551 1.2582679
1.8605802 3.2813137 1.2586789
3.4174323 3.5709901 1.2576174
3.9869616 3.6548436 1.2590991
5.1930561 3.8733981 1.2596848
0.018774331 -0.035848275 1.2641289
3.2734475 -0.02431944 1.2652855
-0.0077797771 0.093189418 1.2690494
2.3036444 0.41920274 1.2689291
3.0893092 0.57165885 1.2604301
3.9825613 1.3939524 1.2654798
4.4697046 1.4773068 1.2689477
-0.024929881 1.668651 1.2658709
-0.027281106 2.4436648 1.2607976
-0.032791048 2.8509064 1.267855
5.6700869 3.275353 1.2682928
3.2526166 3.5330126 1.2675471
5.7650499 3.5375752 1.2686414
0.13601333 -0.040962309 1.2706743
1.4427545 -0.032075435 1.2740616
1.429327 0.22068876 1.2762125
4.6174917 1.4762642 1.2782393
5.0690765 1.7137436 1.2768214
-0.029866248 1.8880012 1.270462
0.31618589 0.01534912 1.2893418
1.1771526 0.17390212 1.281463
1.1769515 0.18864781 1.2881777
-0.012823641 0.49170095 1.2824961
2.8425188 0.51060861 1.2873389
0.0030149221 0.82985348 1.2806743
-0.0093036294 1.229256 1.2840966
4.8974857 3.8227346 1.2811743
5.0568638 3.8376422 1.2883523
0.57924104 -0.05113399 1.2929765
1.3954427 -0.037999339 1.2980399
1.9941592 0.33094707 1.2972087
-0.025084645 1.6090982 1.2937752
-0.019168884 2.274828 1.2953011
-0.023178339 2.8196154 1.2975515
0.74967659 3.0911486 1.2990825
-0.01048401 0.0090117157 1.3038762
1.9258137 0.3455936 1.3040249
-0.026088178 1.1004401 1.3097188
-0.021205664 1.3269677 1.3035821
4.2676058 1.5067369 1.3046899
5.0407982 1.6492195 1.3001213
5.3158436 2.4243641 1.3047273
0.021500587 2.9656408 1.3075601
5.6549749 3.1900902 1.3031344
1.4305415 3.2125764 1.3018246
3.3174212 3.5388155 1.3000673
3.9022424 3.6422334 1.3060675
5.3953419 3.9167936 1.3030444
0.34404022 -0.051899791 1.3152844
2.0193062 -0.030166768 1.3102545
0.6378051 0.078325346 1.3153751
5.2183466 2.1342721 1.3198986
0.27132708 2.9912562 1.3152062
2.0316362 3.2844567 1.3192474
2.130131 3.3365488 1.3185849
4.1017838 3.7068174 1.3149168
0.050109267 -0.058949798 1.3231522
1.0827191 -0.054825488 1.3257995
0.20458233 -0.040760368 1.3218999
2.4407158 0.42374456 1.3280152
2.8156803 0.50431633 1.3293227
3.1792953 0.58173406 1.3241802
-0.011787891 1.9814312 1.324877
3.4486744 3.5437965 1.3269806
1.8537476 -0.044059657 1.3353695
1.339874 0.19622806 1.3377993
3.774061 0.69227707 1.3390181
4.9999132 1.5675644 1.3373214
-0.019003719 2.3727343 1.334311
5.6286993 3.1180327 1.3307899
2.447638 -0.047530167 1.3427771
0.38600844 -0.033300415 1.3484554
3.5937669 0.66692567 1.3475239
3.986078 1.4941911 1.3409207
4.9120436 1.4951179 1.3419098
-0.0038987994 2.3701961 1.3479228
1.0406349 3.1320305 1.3437725
1.7164915 3.2612042 1.3490251
5.7118368 3.3887689 1.3478503
2.9217167 -0.038990319 1.3549025
3.6018503 -0.0099285766 1.3501061
-0.0047717094 0.22886854 1.3593863
4.2611475 1.4816306 1.3521527
-0.0086631477 1.8215578 1.3529902
5.2132454 2.0684135 1.350647
5.4143295 2.6289313 1.3555657
2.43115 -0.027351871 1.3684253
3.073874 -0.01239197 1.3600582
2.5210035 0.44020522 1.3619231
4.0661249 1.4812254 1.3634607
5.2037992 2.1098726 1.3652711
2.8393586 3.4552004 1.3650006
4.7681847 3.7996166 1.3663205
4.792469 3.7976751 1.3658715
1.5358789 -0.037278153 1.3721073
3.1109359 0.5606522 1.3770348
-0.02004534 1.0570068 1.3746136
5.5752382 2.9999321 1.3700014
5.7178879 3.3677876 1.3742435
3.2425303 3.5264373 1.37918
4.9869728 3.8132086 1.373853
0.16387844 -0.049214751 1.3801309
0.89464104 -0.049223341 1.386116
2.6172833 -0.024834841 1.3828915
3.0087667 -0.018565595 1.3863214
1.1541089 0.18361324 1.3823169
0.20259565 2.9927082 1.3850558
0.51770306 3.0401793 1.3805896
4.3174496 3.7205276 1.3829925
4.6214905 3.784807 1.3864381
5.083087 3.8477306 1.3850673
0.53517842 -0.046563037 1.3958122
1.7512133 -0.049308419 1.3927416
3.7343223 -0.025800548 1.394709
4.0127926 0.20705822 1.3956927
1.7042353 0.28420341 1.3902924
2.6203978 0.4792735 1.3951182
-0.033076614 2.2232907 1.3957772
-0.034190208 2.367738 1.3983516
-0.043734908 2.4494352 1.3952657
5.4586487 2.7285099 1.3922223
0.018802702 2.9561884 1.3936219
5.8492622 3.7276924 1.3974254
2.4494464 -0.026591524 1.4068748
2.9047821 -0.013319366 1.4070617
3.2739077 0.61260706 1.4082628
3.5854895 0.64628023 1.4044172
5.1138849 1.8064791 1.4023148
5.3567019 2.4670248 1.4057943
5.4911518 2.8185239 1.4036006
0.20739943 2.983953 1.4006071
2.2595148 3.3284452 1.4037566
0.81984675 -0.056476634 1.4136285
0.84990692 -0.044848144 1.4191352
1.0550679 -0.037854567 1.4145991
2.6790078 -0.022085741 1.410005
4.0007772 0.33200437 1.4163522
2.3325369 0.40416288 1.4117712
2.9696629 0.53813863 1.4159193
-0.013512999 2.3802257 1.4184734
0.26265419 -0.054158855 1.4227115
1.7042179 0.2561892 1.4229144
5.2454157 2.1415014 1.4227432
0.023848116 2.9594254 1.4292022
3.568434 3.5818233 1.4212054
4.4531174 3.7268145 1.4269004
0.068769872 -0.052287117 1.4346735
2.6710949 -0.016628169 1.4386507
0.43993735 0.026913568 1.4323124
0.90336359 0.13038187 1.4380938
-0.012657136 0.18712002 1.4306465
4.0066414 0.22915119 1.4390917
4.0022869 0.49604499 1.4398791
-0.025265336 0.85641634 1.4352978
5.0348978 1.6026044 1.437299
-0.030815601 2.4940872 1.4312017
0.2433036 2.9882929 1.435292
2.4612398 3.405009 1.4345773
3.7114332 3.61291 1.4350047
4.6060019 3.7741616 1.4325678
1.0456533 -0.052509286 1.4437461
0.73986781 -0.036807761 1.4404509
0.69683719 0.067079499 1.4478399
4.0023394 0.33882433 1.4448141
4.9881859 1.5458376 1.4454716
0.85924923 3.1107337 1.4435066
1.2534374 3.1951253 1.4435958
3.4719787 3.5721726 1.444257
5.3230743 3.9049351 1.4437015
1.9376228 -0.041447677 1.4512107
1.9268951 -0.038308889 1.4585679
0.65245342 0.064567626 1.4537402
3.3109121 0.61427158 1.4576451
3.9839699 0.93741488 1.4514704
5.0240488 1.6052175 1.4578741
-0.032447606 2.3400018 1.4536511
-0.032357901 2.4868159 1.4551278
-0.039629817 2.4975872 1.4559393
5.655117 3.200278 1.4536424
1.1248946 -0.040669844 1.4688104
1.9086692 -0.032675102 1.4645333
0.46798348 0.042284101 1.4618518
0.66147268 0.070893541 1.4667366
1.3858269 0.23104277 1.4655608
3.7033141 0.66592991 1.4657922
1.1688606 3.1698432 1.4634541
5.6332912 3.1709015 1.4636836
2.5105507 3.3788931 1.4696451
1.6364551 -0.059679981 1.4727583
0.62380934 0.085660353 1.4750291
0.68759668 0.080489233 1.4764005
1.6030397 0.26114532 1.4768399
2.723109 0.47914594 1.4728868
2.7465556 0.49078381 1.4786018
1.6177332 3.2286582 1.4700055
4.0892315 3.676723 1.4726021
0.34642053 -0.069949254 1.4879081
4.0164499 0.056504488 1.4863304
1.8634841 0.31530961 1.4842199
4.0204477 0.90093601 1.4804974
3.9880259 1.2308623 1.4888303
4.4931879 1.494586 1.4829351
4.5683403 1.4931946 1.4810095
-0.020168036 2.1277618 1.4857181
-0.025159508 2.8111477 1.4830334
5.7688046 3.5472701 1.480051
3.4712932 3.5615366 1.4898049
4.0626211 3.6557744 1.4825532
4.4964037 3.7452798 1.4810585
0.69643569 -0.026035137 1.4955167
2.2212684 -0.018740162 1.4908267
-0.016545713 1.0639975 1.4953084
3.9943879 1.4453775 1.4938741
4.5964537 1.4818318 1.4960386
-0.029911309 1.5188631 1.4956257
-0.01799801 2.0396681 1.4989898
-0.040832549 2.4602072 1.4911335
5.6083174 3.0836678 1.496644
2.2607152 3.3380218 1.4911896
3.2418308 3.5334496 1.495768
5.7886553 3.5598862 1.4934999
2.9477096 -0.023582213 1.5010945
3.9973557 0.51960784 1.5007763
5.4564037 2.6994162 1.5029166
3.0802691 3.4879205 1.5049492
0.77799201 -0.040076658 1.51808
3.9808009 0.64113075 1.5143911
-0.014183134 0.68885183 1.5156021
3.9949019 0.73433441 1.5168761
-0.011393875 1.1361365 1.5131729
0.78011203 3.0936399 1.5132606
5.2849531 3.8824883 1.513392
0.0060167313 -0.019528486 1.5226831
-0.030845702 0.43293655 1.5225829
3.9792268 0.66406971 1.52306
3.9980276 0.92487192 1.5243703
3.7360346 3.6043303 1.5287261
5.2163992 3.8466172 1.5252001
5.4640923 3.9147184 1.5239403
3.2477818 -0.030292936 1.5387173
0.084230185 -0.025163576 1.5303873
1.5407083 -0.025079161 1.5385363
2.7045224 0.48858708 1.5339319
3.2643378 0.5991388 1.5326945
3.9939229 0.6984446 1.5387236
0.62849498 -0.03706301 1.5494032
3.3199492 0.59864181 1.5498611
3.615587 0.66229355 1.5479532
-0.014362991 1.3650016 1.548617
4.4645205 1.4875261 1.5468997
5.2279606 2.0888808 1.5471511
-0.0087533593 2.3734064 1.5438787
1.9499125 3.3111739 1.5456481
2.0917611 3.3277886 1.5455002
2.477895 3.3969345 1.5425303
4.3856459 3.7209146 1.5496737
3.9884741 0.20835716 1.5577952
3.1069515 0.56607687 1.5546213
0.28187305 2.9969773 1.5559759
3.7236345 3.6141126 1.5577402
4.6928911 3.8035147 1.5501455
0.4910816 -0.050101936 1.5651221
3.3372698 -0.022631884 1.5624067
0.0091794133 -0.0068371147 1.5604867
4.7008886 3.774955 1.5632616
3.6112516 -0.021029443 1.5721562
2.446749 0.41737169 1.5776726
4.0069656 0.56629169 1.5737848
5.0634336 1.6828024 1.5730761
1.4940063 3.2046669 1.5720142
4.1163673 3.6739733 1.5799319
4.3824978 3.7131038 1.5775729
1.0939077 -0.032096662 1.5873066
-0.018741429 1.519689 1.5842443
2.9369366 3.4876628 1.5823963
3.6355155 3.6015797 1.5894178
2.2143457 -0.052006967 1.5995911
4.0027609 1.2148627 1.5901382
4.2786779 1.494295 1.5941138
4.9908142 1.5300264 1.5975367
5.6775131 3.2632768 1.5943704
3.0538602 3.5011399 1.5957538
3.7031682 3.6282904 1.5919359
5.019763 3.8461137 1.5964512
0.69528341 -0.047329545 1.6034741
1.1820555 -0.048281461 1.6009364
2.8181846 0.52562112 1.6095585
-0.01726535 2.8637543 1.6013956
5.6722002 3.3040347 1.6015762
2.4428418 3.3832264 1.6099926
3.2358029 3.5232811 1.6066437
4.7533379 3.7737927 1.6056633
5.9555674 3.9536655 1.6011348
5.8688946 3.9781735 1.602939
0.0045084357 0.10261683 1.6105704
3.9390347 0.72225678 1.619185
5.0643129 1.6703575 1.619561
4.7773495 3.7765136 1.615027
5.9441519 4.0041142 1.619197
0.060858309 -0.043626696 1.6204505
0.0051877499 0.16369918 1.6205817
2.1621974 0.38560414 1.625296
4.0009651 0.81663299 1.6246101
3.9850657 1.2699667 1.6251078
3.9729331 1.3965489 1.6244226
5.3346157 2.3767338 1.6253206
-0.040344924 2.9117289 1.62919
3.6830485 3.6098969 1.6284252
1.4084634 -0.037221462 1.6397852
2.9030826 -0.032087907 1.6324067
3.0791035 -0.023349851 1.6372012
5.7566376 3.4641805 1.6308092
5.2481375 3.8799584 1.6326728
5.5371294 3.9225323 1.6346512
0.34716851 -0.053383023 1.6454121
1.5525463 -0.037557393 1.6443137
1.1476064 0.19006804 1.6423732
1.8938015 3.277761 1.6424909
1.2066262 -0.035027564 1.65292
2.0248039 -0.015783675 1.6533858
1.4837224 0.24134144 1.659986
5.1491337 1.929184 1.6517892
5.5934639 3.0714333 1.6593109
2.0037646 3.3189723 1.6553041
2.1668448 3.313369 1.6565628
2.2151501 3.34302 1.6559207
2.180438 0.36433902 1.6625586
0.10741782 2.9666674 1.6693506
4.4922485 3.7372954 1.6644331
5.2512913 3.8684964 1.6605209
2.7996292 -0.033393659 1.6744218
0.014776349 -0.022680044 1.6723386
3.9850371 1.0563557 1.6761934
5.3117838 2.336503 1.6706822
3.2664526 3.5348639 1.6713959
5.858428 3.7288296 1.6726092
0.49143064 -0.04125426 1.688578
2.5150716 -0.042490177 1.6851169
0.23541176 4.1678548e-05 1.6893519
0.96419966 0.1434992 1.6845975
1.2639481 0.19038743 1.6833702
-0.0045034587 0.52530581 1.6838411
3.9947436 1.001196 1.6828926
-0.013349324 1.5938566 1.685313
-0.012057096 2.6456449 1.686921
2.3392391 -0.044416547 1.6934637
1.4492172 -0.035520539 1.6973338
2.0994856 -0.037877202 1.6970099
0.3132655 0.018760979 1.6940639
1.666755 0.27722231 1.6960429
4.1976748 1.4975566 1.6991323
-0.036620945 2.7087581 1.6907883
0.64580333 3.0533972 1.6933528
3.3219609 3.5331261 1.6925958
4.3182163 3.7126777 1.6944816
5.1903496 3.8696451 1.690593
5.9269257 3.9965742 1.6927242
1.5792196 -0.027313121 1.7078283
2.3563638 0.40701973 1.7022537
-0.011985809 0.42922854 1.7011011
5.0718241 1.7582692 1.7047395
5.4911528 2.8647957 1.7095832
0.85148394 3.1038628 1.7097343
1.1850001 3.1426463 1.7058151
2.7723353 3.4406271 1.705413
5.7389479 3.4437194 1.7086118
3.3481169 3.5433896 1.700726
5.792057 3.579088 1.7005023
5.8424349 3.6467826 1.7005262
5.8480282 3.7329345 1.7048115
5.6385145 3.9621613 1.7064496
2.9107223 -0.035483658 1.7144195
2.1877382 0.38478476 1.7181011
2.2082264 3.3294446 1.7139611
5.2017384 3.8543148 1.714815
0.2252661 -0.017065458 1.7258866
3.902827 0.71448743 1.7257167
4.7914858 1.5030384 1.7246209
-0.01109767 1.5779426 1.7256992
5.0875282 1.7312971 1.7251465
3.9386117 3.6280978 1.7246101
4.0525436 3.6531389 1.7230924
4.8047009 3.8022559 1.7217547
1.0451044 -0.04330644 1.739934
3.9068911 -0.014570698 1.7353512
4.9442835 1.49814 1.7358823
4.1333027 3.6737957 1.739265
0.76690221 -0.058170721 1.7459736
2.5719121 0.46867299 1.7418883
-0.0028494 0.90597737 1.7499831
4.008667 1.4778302 1.7449791
5.8180828 3.958061 1.7427288
2.4831195 -0.029581532 1.7543505
3.0151947 -0.017106026 1.7572763
1.7005289 0.29202968 1.7564801
3.3193517 0.59645504 1.7576934
-0.0011299253 0.61219043 1.7593555
4.7240295 1.4788704 1.7545236
-0.015458852 2.4364209 1.7538198
-0.014537126 2.629725 1.7510532
2.1435692 -0.050393984 1.7652367
0.95382369 -0.037082359 1.7682143
2.6293869 -0.037664793 1.7623008
3.9873745 1.2696409 1.7631065
-0.0084554851 1.2856169 1.7687706
-0.022868603 2.6771975 1.7675546
1.2397813 3.1622181 1.7662984
2.1348436 3.3397653 1.762061
5.3194342 3.8790076 1.7664796
6.5803528e-05 -0.075778671 1.775462
2.2645941 -0.040045127 1.7722977
3.984225 0.94909477 1.7765955
0.29349458 2.9961679 1.7782584
0.52248681 3.034126 1.7732464
0.85365009 3.0861228 1.7754682
1.3008679 3.1785131 1.7743648
1.6383274 3.2330267 1.771469
1.9955935 3.2966022 1.7766141
2.9724138 3.4856884 1.7748314
2.264822 -0.039178178 1.7853194
3.9958899 -0.024995208 1.7842702
0.40197909 0.010111824 1.7899622
2.4468446 0.42802882 1.7855998
0.0026664734 0.59354925 1.7854997
3.9909556 0.65277064 1.7893819
3.7910898 0.68115449 1.7807993
5.194416 2.0667932 1.7882539
0.19910181 2.9700658 1.7881418
0.74655259 3.0862164 1.7866963
5.6827612 3.2928872 1.7880911
2.7075238 3.4189084 1.7869593
5.430419 3.9150064 1.7881478
5.7490606 3.9607232 1.7861096
2.6861074 0.46208942 1.797259
-0.020847887 0.83609033 1.7919689
-0.013298541 0.86231464 1.7996606
4.7887821 1.4897568 1.7999104
-0.031300336 2.7388563 1.7977344
5.4785576 2.7955654 1.7903692
-0.024547398 2.9450815 1.7968074
2.4164674 3.383745 1.7951044
1.4766724 0.24230084 1.8009981
1.8638911 0.30890554 1.8071097
3.5235708 0.63662994 1.8081385
3.8965337 0.71974111 1.8083366
4.4242706 1.4819695 1.8015817
1.6788917 3.2477674 1.809992
3.4027925 3.5557342 1.8049041
4.8751717 3.8165894 1.8082227
4.8929825 3.8196194 1.8030094
5.70152 3.9521267 1.8015591
2.4849994 -0.033979326 1.8117019
2.8955424 -0.02857253 1.8168379
0.7248441 0.079229802 1.8119003
1.3492118 0.20795935 1.8145925
5.1080647 1.8012164 1.8118421
-0.011476547 2.3703823 1.8108443
5.3645172 2.4374824 1.8171331
5.6076097 3.0841906 1.8189148
2.3014042 3.3599679 1.8189572
4.5630283 3.7638016 1.8134385
0.13215506 -0.03763631 1.8296953
3.0404632 -0.028760433 1.8278078
0.45348495 0.022861898 1.8200117
3.986429 0.21229088 1.8215545
-0.025646597 2.8454838 1.8240298
3.996989 0.60223055 1.8360397
4.8673515 1.4840277 1.8364114
5.2244682 2.1082611 1.8357228
1.9223974 3.2842317 1.8368877
-0.0018544197 -0.021960467 1.8420602
1.7940652 -0.024350964 1.8482262
0.62919366 0.072035402 1.8421806
4.0061941 0.13550633 1.8472193
3.9959476 0.27537739 1.8495604
-0.020593405 1.3590932 1.84874
5.5624447 2.9953125 1.8436946
0.8628881 3.1021581 1.8498961
3.615905 3.5765729 1.8448581
0.45840448 0.02119866 1.8534127
2.3328459 0.38702273 1.8565675
2.7147768 0.46894968 1.8536264
-0.025021017 1.698663 1.8560401
5.1881695 2.0275912 1.8521885
3.0604892 3.4915483 1.8535653
5.4215403 3.9060543 1.8573741
3.6190188 -0.028804362 1.8654348
2.5184891 -0.017983936 1.8693343
4.6413212 1.484067 1.8624476
2.205384 3.3265579 1.866598
5.7171736 3.3367491 1.8686935
2.7139158 3.4183679 1.865728
0.68083203 -0.057906605 1.8748609
3.9962928 0.30415013 1.8716956
2.3726938 0.41173273 1.8740522
3.2814229 0.60255706 1.8712393
3.9952486 0.65459001 1.8790396
-0.02031666 0.87426966 1.8762511
-0.012200952 1.2301489 1.8715461
5.3744411 2.4809182 1.8750647
-0.027914286 2.6939149 1.8799871
5.578227 2.9730554 1.8792907
2.291889 3.3553324 1.8734053
2.4220283 3.3776605 1.8760408
0.05351007 -0.055502079 1.885425
3.5444133 -0.024759009 1.880098
3.9949272 0.012836128 1.8876754
0.99293435 0.13299708 1.8854841
2.9540708 0.53496999 1.8803502
-0.0023215413 0.56863272 1.8843089
3.5733912 0.66645259 1.8825389
0.2160188 2.9917958 1.8803364
0.29629976 3.0037096 1.8805186
0.50820363 3.0352523 1.8850309
0.93763626 3.1090081 1.8863989
3.2887676 3.5172906 1.8805555
3.5965273 3.5771229 1.8830415
4.2918682 3.6991198 1.8842245
4.6115456 3.7683806 1.88635
4.8383646 3.7947528 1.888167
5.2823944 3.8849747 1.8819381
0.97092402 -0.05838573 1.890431
0.13164341 -0.044378221 1.8916994
2.4980829 -0.038928062 1.8903283
3.9936163 1.0438685 1.8920676
5.2369251 2.1095119 1.8948005
1.1293373 3.1391351 1.8993512
2.3901985 3.3665426 1.8921243
1.4874167 -0.045490988 1.9087549
4.0080786 0.97599959 1.9017233
3.9844787 1.4166664 1.9062768
4.9810143 1.4615585 1.9061097
4.4756794 1.4937093 1.9006249
5.0888596 1.7588247 1.9082652
-0.0035763383 2.4328017 1.9092067
5.448844 2.6715884 1.9050232
5.5175591 2.8191557 1.900803
4.1039667 3.657599 1.9009353
