# .PCD v0.7 - Point Cloud Data file format
VERSION 0.7
FIELDS x y z
SIZE 4 4 4
TYPE F F F
COUNT 1 1 1
WIDTH 1463
HEIGHT 1
VIEWPOINT 0 0 0 1 0 0 0
POINTS 1463
DATA ascii
16.383457 2.1407542 4.4703074
19.545891 2.5119629 1.0651841
19.814285 2.415921 3.8843007
20.637283 2.4216831 1.1030953
2.983217 0.60407197 -0.076136708
21.042343 2.3895302 1.117213
23.186199 2.521661 1.1965029
23.228642 2.5124485 2.0128613
6.2959509 0.89826047 -0.09357357
1.5013975 0.43335792 -0.081804246
23.134367 2.2389531 2.8162498
3.9935749 0.63778257 -0.076403975
1.5022697 0.42325464 -0.081916869
23.123461 2.1913068 1.189471
23.174366 2.1313801 0.38068584
1.7096957 0.43429321 -0.079192758
3.0220397 0.5251143 -0.081431389
3.0227959 0.51475465 -0.081544638
17.18301 1.4792812 3.3929908
1.7032293 0.41640195 -0.077463567
4.0067043 0.57022923 -0.077971488
17.206779 1.420978 3.3958569
23.876715 1.8049164 2.8868761
23.889708 1.7397467 2.0470042
23.871412 1.5720856 2.0432212
2.4156718 0.43097657 -0.081751317
2.3846219 0.42108467 -0.076342344
2.4168785 0.4062455 -0.082012057
16.396082 0.94497234 4.4366903
23.847225 1.2383915 2.0368662
2.4172232 0.39799875 -0.082098067
19.134237 1.0007312 4.4216466
14.124229 0.80104637 -0.1374194
1.5102242 0.35304025 -0.083765298
4.1169782 0.43633968 -0.090115309
16.41382 0.78062177 4.4379077
23.810036 0.97968829 2.8669732
23.800566 0.96252632 3.7077103
2.0014305 0.35546845 -0.079895824
28.346516 0.74994296 1.3611882
2.009696 0.33522496 -0.081752896
23.794119 0.63162005 3.702394
19.111374 0.54238385 4.409441
22.836271 0.52681851 4.3806901
14.547857 0.46689969 -0.15474662
23.744907 0.3174893 2.8522933
1.7032187 0.3016991 -0.077682793
28.302284 0.26158395 1.3546202
16.379425 0.21506527 4.4215512
16.39081 0.15824544 4.4239202
22.7936 0.055658385 4.3683805
19.093096 0.082074359 4.4007425
1.7107031 0.27280331 -0.079884976
22.925566 -0.35401541 0.35498095
22.935757 -0.54481369 1.9540818
19.03895 -0.51511633 4.386785
15.247517 -0.32082516 -0.18610126
4.1271563 0.12450211 -0.09436807
3.0309515 0.1627015 -0.085598916
23.673532 -0.92924726 3.674391
4.1337547 0.095678806 -0.095452756
22.725634 -0.89510143 4.35256
16.319115 -0.57660019 4.404439
2.4349215 0.16714637 -0.087764502
3.053077 0.13072546 -0.089191765
1.5078411 0.20643878 -0.085157722
28.294577 -1.6074609 1.3394351
22.651497 -1.2778352 4.3400917
1.7010674 0.1871472 -0.079216182
6.7060857 -0.17488053 -0.13157263
18.969688 -1.1655797 4.3743496
1.5028918 0.19125882 -0.084190935
2.411247 0.11060777 -0.08480674
23.599594 -1.7337396 2.8272958
3.0589287 0.046072662 -0.091574579
23.613859 -1.7461298 3.6667516
2.010144 0.13035414 -0.08528617
2.428755 0.08457233 -0.088471323
4.1849947 -0.079349846 -0.10356289
18.910788 -1.4912198 4.3649182
23.585585 -1.9763269 2.8261282
28.082466 -2.4919519 2.3128448
22.552893 -1.980551 4.3271837
3.0461526 -0.0049925447 -0.090892583
5.121974 -0.240089 -0.024267077
7.1920218 -0.48639584 0.83407766
6.1956983 -0.39121848 1.6442177
2.0201402 0.074374199 -0.089046538
2.4149213 0.027947932 -0.087550014
4.9919362 -0.28080618 0.15777075
6.3301606 -0.46468091 1.2191144
4.20438 -0.19759694 -0.1078178
2.0107675 0.061945975 -0.087490559
4.8174672 -0.29414189 0.83467603
5.1111135 -0.33396822 1.0462718
1.5110145 0.11924724 -0.089165986
1.7093841 0.093543053 -0.084313124
4.7511907 -0.29952919 0.66136527
4.7857914 -0.3069135 0.83140355
5.1529937 -0.35955232 1.2361879
1.4982554 0.11058514 -0.085939199
4.7552295 -0.33623636 0.16501191
4.6971688 -0.35352397 0.33024144
6.8266268 -0.66900367 1.2911317
4.6808534 -0.37257338 0.65655196
4.7989297 -0.40675658 -0.0050008893
4.8004966 -0.42308098 -0.0053947866
1.7097374 0.041040808 -0.08663106
6.5492544 -0.7581811 -0.13013953
6.6697369 -0.79543018 1.9997189
2.033802 -0.024790108 -0.095577359
4.6623378 -0.46913087 0.1664639
4.5878735 -0.50123209 0.48961693
4.5994172 -0.52428025 0.81374848
5.3277731 -0.65965402 1.0812321
4.5965323 -0.54008764 0.81364059
5.2681165 -0.6665954 1.0730476
6.5176644 -0.91467512 -0.13094997
1.7293376 -0.015939116 -0.094251722
4.5634003 -0.56562918 0.81051064
5.2924147 -0.70883167 1.077252
4.1480069 -0.48146141 -0.10863644
1.7205906 -0.020315737 -0.092354
1.5004299 0.017737061 -0.0915398
4.6517558 -0.61306858 0.65571839
4.1482801 -0.51118016 -0.10945392
6.4967256 -0.98073077 -0.13083953
1.489997 0.01456973 -0.088814527
2.0318003 -0.1098305 -0.099046946
2.4113524 -0.19004494 -0.094626933
11.302998 -2.0890014 3.191462
4.5332694 -0.6734789 0.80896699
4.5389128 -0.68659842 0.48796624
4.6514049 -0.71864867 0.98856884
6.882102 -1.2201917 1.8122942
4.5466266 -0.74122608 0.81150424
4.6581097 -0.76978493 0.99077845
1.504618 -0.035781413 -0.096271247
4.6159263 -0.78368282 0.3273485
4.992094 -0.87795329 0.68166316
4.6268449 -0.79791379 1.1552457
6.8512836 -1.3364744 1.8107543
3.081193 -0.43070757 -0.1087743
1.493515 -0.049132556 -0.094152242
1.6943494 -0.11111301 -0.091468632
4.1043096 -0.73970175 -0.11167517
4.5276051 -0.85362434 0.16578351
1.4810077 -0.067269951 -0.092057407
4.6381516 -0.90042639 0.9917016
4.9349475 -0.99077582 0.6790393
6.1209097 -1.3210413 1.8895049
4.6212878 -0.93177247 1.1593721
4.6563554 -0.96423495 0.32640332
2.3872242 -0.33978415 -0.097578198
4.5261712 -0.93522418 0.81335247
3.0623655 -0.52699608 -0.11014286
6.36799 -1.4668455 -0.13288754
1.4710814 -0.096545905 -0.091665953
2.3750961 -0.35391402 -0.096269608
2.35764 -0.3576771 -0.093522489
7.2261195 -1.7693384 1.6391358
4.5421872 -1.024085 0.81710362
6.9698396 -1.7475309 1.5946095
5.1601653 -1.2057883 -0.046239644
1.6793587 -0.18024144 -0.092802435
6.8577304 -1.7464933 2.0935521
4.5286069 -1.0464762 0.3259072
3.8859303 -0.85592079 -0.093610644
5.0237498 -1.2023624 -0.037105381
6.5552082 -1.7234073 1.5232596
1.9708008 -0.30392921 -0.098052889
5.0679531 -1.2956839 1.0635521
3.7137218 -0.860605 -0.076594085
5.120575 -1.3199785 1.6493077
5.0512152 -1.3497527 1.2514422
4.7249684 -1.2943965 0.15279575
2.3460982 -0.48587132 -0.098969132
2.9876094 -0.70791614 -0.10851362
3.5922778 -0.91727042 -0.06665355
1.9507782 -0.36382574 -0.098315805
5.525671 -1.6369575 1.5559766
5.4418459 -1.6253933 1.3314099
1.6498288 -0.27019441 -0.093205959
4.7114563 -1.3810217 0.1518881
5.3003926 -1.6217334 1.714921
4.7500715 -1.4497976 0.14954931
4.983644 -1.5555525 0.14029671
2.3204765 -0.55667394 -0.099248558
4.994411 -1.5787495 1.0657263
5.0207152 -1.593122 1.4520202
4.948441 -1.578135 0.87416118
4.8922181 -1.559742 0.14319067
4.7656326 -1.548861 0.14745981
3.4661448 -1.0622824 -0.060115039
1.4215794 -0.2474488 -0.092861205
4.6564364 -1.55694 0.6704911
4.5963655 -1.5510896 0.66645718
4.5901227 -1.5587078 1.5441868
4.4778705 -1.536442 0.4910174
4.4804158 -1.5482386 1.3418922
4.4248233 -1.5368505 0.82154202
4.3652005 -1.5128469 -0.0025469065
4.3740482 -1.527308 0.32401159
2.906482 -0.90801871 -0.10867575
4.3658218 -1.5333323 1.1488264
4.3864775 -1.5444014 1.3231894
2.9024491 -0.9174701 -0.1087032
4.302928 -1.5216367 0.0011942387
1.4060501 -0.27969211 -0.092408687
4.2629385 -1.523301 1.1314926
4.2804604 -1.5299313 0.16339764
4.2713089 -1.5304774 1.4682999
4.2403374 -1.5307982 1.1283473
4.2691212 -1.5447289 1.3003223
4.2665792 -1.5690019 0.32389966
1.9127518 -0.52297097 -0.10383829
4.2712679 -1.6167736 1.3067844
4.2653131 -1.6205107 0.32376641
4.2678361 -1.6272706 0.81001711
4.2630248 -1.6809604 1.1425482
4.2655625 -1.6911242 0.32359695
1.8638767 -0.55441779 -0.097253174
4.2557688 -1.6962979 1.1425152
4.2510219 -1.7030697 0.3235743
4.2716131 -1.7141521 0.48652419
4.2523293 -1.76666 0.16024755
2.8298576 -1.0745506 -0.10907012
2.2252967 -0.78341162 -0.10055825
4.2427883 -1.7993038 0.15997751
1.8598447 -0.60717297 -0.10152006
4.2572021 -1.8239951 0.15908608
4.251328 -1.8241129 1.4942303
4.2410755 -1.8504388 1.151934
2.8164351 -1.1272818 -0.1108318
2.2170634 -0.82547152 -0.10271397
2.7940528 -1.1528907 -0.10974705
4.1047425 -1.8831458 0.64461362
2.2010915 -0.85555756 -0.10275105
4.1056285 -1.8867059 0.96935153
4.1013136 -1.8883619 1.2996643
4.0518875 -1.8887196 0.48227805
4.2460794 -2.0034297 0.1562219
4.0619497 -1.904217 1.4618027
1.8273244 -0.67708725 -0.1024434
4.0406446 -1.9094903 1.2905331
4.0194464 -1.9167914 1.4540789
4.0243587 -1.9298124 0.64126515
4.0206089 -1.9316819 1.1245294
4.2512898 -2.0617785 -0.013402581
4.0209746 -1.944185 0.48223329
2.7631919 -1.233741 -0.11150309
4.0102534 -1.9592674 0.80140722
4.0254364 -1.9843922 0.64315605
4.0178728 -1.9819524 0.80325735
2.7482998 -1.2754176 -0.11264572
4.1856694 -2.1364717 0.82635772
4.1213121 -2.100419 0.98578936
1.316788 -0.44630241 -0.091565371
4.1665087 -2.1474535 1.1655006
2.7316194 -1.303542 -0.11265224
4.2147636 -2.2274115 0.32284492
4.2102017 -2.2474742 0.6632489
4.183414 -2.2479341 0.32286891
4.2210836 -2.3024616 0.15143594
1.7567676 -0.76591051 -0.099123359
4.1132774 -2.2505236 0.99571878
4.1184468 -2.276355 1.3442006
4.212153 -2.34741 0.49469966
2.0876698 -0.99412096 -0.09790048
4.1945992 -2.3419542 1.187579
4.2014256 -2.3683789 -0.021665782
4.2015882 -2.3706107 1.5507879
4.1964874 -2.4043498 1.1938102
1.7407306 -0.80533433 -0.10077721
4.1938934 -2.4261556 0.14989749
4.1980472 -2.4408922 0.66975069
4.2043262 -2.4538465 0.14904076
4.198946 -2.4702792 -0.025447041
4.2062707 -2.4748292 1.3827012
1.281391 -0.52718347 -0.095410228
4.1341605 -2.4659011 1.1907754
3.5932045 -2.1172266 -0.12614876
4.1754928 -2.5167973 1.3823361
4.1502895 -2.5003648 1.5581117
4.2000012 -2.5536897 1.3910317
1.4513931 -0.66409117 -0.094762504
3.5827532 -2.1464117 -0.12696308
4.187366 -2.5896165 -0.029461682
4.1855025 -2.6086814 1.3952281
4.0024128 -2.4958565 0.83091342
4.1733127 -2.6233842 1.5803571
2.0283041 -1.1167601 -0.10127294
4.1696262 -2.6591918 1.2154191
4.1877222 -2.672977 1.4035645
4.1858001 -2.6923306 1.4056563
1.667793 -0.88280451 -0.097308218
2.594348 -1.5667225 -0.11691618
4.164547 -2.7435169 1.0407779
4.1786819 -2.758558 -0.035786688
2.5812306 -1.5844103 -0.11687806
1.415844 -0.72642887 -0.096599728
2.0100603 -1.1877071 -0.10605317
4.1581187 -2.8700602 1.0509114
3.4727838 -2.3628478 -0.13079566
4.1620836 -2.9165981 0.68747872
3.466583 -2.3772233 -0.13118505
1.4017745 -0.76049805 -0.098956138
4.1621709 -2.9380286 0.50554687
4.1418805 -2.9261742 1.0540668
4.1446481 -2.9456031 0.32314152
1.2203156 -0.62952387 -0.098534316
1.2138977 -0.6313771 -0.097413838
1.6279804 -0.96652055 -0.1013025
4.1556602 -3.0047805 0.69107985
4.146152 -2.9976914 0.87490124
4.1418662 -2.9959817 1.0602701
4.1499276 -3.0059714 1.4405203
4.1547499 -3.0104196 1.6353815
4.1546817 -3.0351291 1.6392832
4.1540103 -3.0502656 0.50793272
4.1570964 -3.0591216 1.4488859
1.6176134 -0.98542035 -0.10208383
4.1408939 -3.0639098 0.69300646
4.1538534 -3.0763373 0.88083595
4.1508207 -3.0818903 -0.047812045
1.3553705 -0.78378332 -0.093488187
1.9031067 -1.2763119 -0.10081896
4.135272 -3.2032104 0.51113808
4.1458793 -3.2183352 1.4691114
4.1374345 -3.2127209 1.6647489
4.1290746 -3.2226315 0.51146686
4.142487 -3.2401989 1.4716525
1.1729876 -0.67121685 -0.09559229
1.3396264 -0.81717169 -0.095811039
4.1081738 -3.2331004 1.0785244
4.1253343 -3.273488 1.2776939
4.1360831 -3.3097906 1.4805257
4.1249075 -3.3218985 1.0886543
4.1375384 -3.3553667 0.70660412
4.1110983 -3.3333187 0.89559191
4.1275196 -3.3516943 1.4852045
1.8702489 -1.3375717 -0.10339242
4.1193361 -3.3904016 0.70742631
2.3936014 -1.8418896 -0.11881474
1.5494627 -1.0754683 -0.1033946
3.2138758 -2.6359994 -0.12755907
4.111207 -3.5137489 0.51843965
1.5178686 -1.0749457 -0.098301798
4.0995092 -3.5852902 1.1118386
4.1019931 -3.6150448 1.3163393
1.1144543 -0.72908914 -0.094181389
4.0936193 -3.634043 1.1161513
4.1034122 -3.6534033 -0.070844084
1.7918209 -1.4035859 -0.10089928
4.1014614 -3.6724136 1.7369468
4.090755 -3.6849854 1.1210198
4.0875001 -3.6832948 1.323158
2.2884803 -1.9232032 -0.11548188
4.0892901 -3.7216573 -0.073272467
4.0851417 -3.7634153 1.1284807
4.0832095 -3.8152122 0.32503283
4.0774021 -3.8153839 1.3388252
1.659786 -1.3515677 -0.077617735
1.6601293 -1.3525184 0.0045194328
4.0814834 -3.8975949 0.32526898
4.0805531 -3.9348049 1.7808001
3.0263083 -2.852917 -0.12840649
3.020704 -2.8690858 -0.12917161
4.0713344 -4.011632 0.94446182
1.6135582 -1.3856648 0.0059191585
4.0641708 -4.0771656 -0.088901281
4.079814 -4.0827131 1.5895319
4.0587225 -4.0726581 0.11899871
4.0622721 -4.1059017 -0.0901981
4.0606809 -4.1664662 -0.093066812
1.5812309 -1.4096318 0.0066920817
1.5726238 -1.4119767 0.0072950423
4.0382004 -4.2359447 0.11584963
1.556017 -1.4160259 0.008497417
1.3824041 -1.2267038 -0.10066032
4.0346875 -4.2946758 0.11459976
4.0513344 -4.3280802 0.54013944
4.046031 -4.3232927 0.75354582
1.9261444 -1.8872149 0.026134253
4.0362267 -4.3747668 0.32699475
4.0267286 -4.399025 0.97333312
1.757543 -1.7172556 0.051422238
4.0343208 -4.458395 -0.10617074
4.0293016 -4.4668531 0.32735938
4.0220871 -4.4616857 1.1977808
4.0318966 -4.5048628 0.76333308
4.0478716 -4.5274992 1.6581514
4.0326347 -4.5102272 1.8826063
4.0179367 -4.5229535 0.32762286
1.6419737 -1.6348401 0.066112578
4.0306454 -4.5419807 1.8885412
4.0208788 -4.5593009 0.32774454
4.0234022 -4.5644841 0.98713011
1.4790382 -1.4726932 0.0099122524
4.0130749 -4.6578937 1.2191672
4.0105314 -4.6902418 1.2226474
4.0034208 -4.7163992 1.4533598
1.4310693 -1.4744831 -0.06606856
1.4268556 -1.4958975 0.012230515
3.9977305 -4.8552222 1.4727075
3.8782961 -4.7927675 0.10718888
4.0035753 -4.9771476 1.7296216
3.9823825 -4.9844451 0.32966
3.8791783 -4.8668752 0.10540414
1.386068 -1.5059901 -0.065340281
3.980732 -5.0204554 1.4950325
3.9835594 -5.0629845 0.56200844
3.9807725 -5.0593624 1.0278411
3.9999969 -5.0876274 1.9939849
3.9838998 -5.1019812 0.79698068
3.9813738 -5.1392965 1.5125649
3.9760771 -5.1719913 0.56546181
3.8087201 -4.9602838 -0.12105465
3.7972381 -4.9831305 -0.12172133
3.7776177 -4.9945297 -0.12141272
3.9667373 -5.2814202 0.56894088
3.9703658 -5.2855263 0.80778515
3.9636538 -5.2769122 1.0464706
1.3372837 -1.5456957 -0.065569967
3.9727919 -5.3330021 2.0412116
3.9575284 -5.3730989 0.091210693
2.1101389 -2.737818 1.1096177
1.005028 -1.1168805 -0.094261199
1.4054642 -1.7327015 -0.099156737
0.87551361 -0.95075572 -0.097683787
1.986959 -2.6427138 0.70071512
0.98300004 -1.1267571 -0.093103766
1.9870552 -2.6649594 0.95461565
1.1430472 -1.3867505 -0.09532392
1.9745847 -2.6683185 0.95401984
1.1371416 -1.3905408 -0.095266044
1.3676113 -1.75265 -0.09811753
1.2708691 -1.6006974 0.17318532
1.1395845 -1.4075419 -0.09852469
1.3522551 -1.7763259 -0.09997946
1.9205801 -2.6751578 1.2065136
1.2434309 -1.6156511 0.25236583
1.1115048 -1.4158551 -0.09662801
1.9026848 -2.6924291 0.57759428
3.8085253 -5.8166332 -0.16688791
1.8630728 -2.6498258 1.066747
1.9192841 -2.7420146 1.2208961
1.9998025 -2.9403036 -0.064303219
1.8625404 -2.7190969 0.95227057
1.8454264 -2.7151914 0.82483804
1.2841183 -1.7945318 -0.095933408
1.8404727 -2.729831 0.95213854
1.9565539 -2.9453115 0.20161162
1.9303927 -2.9258378 -0.058862865
1.8111182 -2.7534418 0.8275193
1.9023399 -2.9393518 0.4633162
1.8058888 -2.7679319 0.95537573
1.5949777 -2.458137 -0.11053762
1.8669084 -2.9273682 1.255652
1.903555 -3.021713 0.33364594
1.7920288 -2.8433027 0.96631342
1.8480552 -2.9741504 0.46405798
1.8476377 -2.9711757 1.2632999
1.777234 -2.8696716 0.84038502
1.8229933 -2.9800451 1.2625737
3.8341944 -6.7874665 0.62012869
3.8414173 -6.8585386 1.4780121
3.8227394 -7.0099902 0.62819141
3.825304 -7.0119672 1.4971137
3.8308976 -7.0196271 1.7932014
2.0455232 -3.645988 -0.1280627
3.3453655 -6.2300215 -0.17060137
0.96065164 -1.5218335 -0.099055946
3.8023965 -7.2231045 1.5235841
3.8152604 -7.2446961 2.4444466
1.1379669 -1.9000134 -0.098370254
1.4558173 -2.5489845 -0.11113912
3.8147273 -7.3098226 2.4593511
1.1199462 -1.882514 -0.094154924
3.7955387 -7.342566 1.2374456
2.0006194 -3.6948848 -0.12991071
3.2590585 -6.2861166 -0.17039055
3.8129339 -7.3732939 2.4737749
3.7884054 -7.3997755 0.34366149
3.7977464 -7.4753423 2.4958029
0.69678861 -1.0468034 -0.09471482
3.7729616 -7.6167316 0.039777398
0.91117024 -1.532634 -0.096076429
1.0870014 -1.9113228 -0.095784426
1.392946 -2.5702934 -0.10936204
3.7807071 -7.6519632 2.211977
0.75332695 -1.2498651 -0.090165913
3.7234664 -7.8221297 2.2413845
3.6083026 -7.6512256 0.65081781
0.87373245 -1.5339221 0.19319788
0.8709631 -1.5465935 -0.094803423
1.1932141 -2.2590954 0.82857788
0.88648456 -1.5997941 -0.03131932
0.85450101 -1.524996 0.1244655
0.85931492 -1.5359067 0.19361947
0.84913301 -1.5311707 0.053589284
0.85053146 -1.5331919 0.19410114
1.2117126 -2.379956 0.33562636
1.1579953 -2.2526758 0.72586393
0.83278298 -1.5273983 0.055107653
1.1849079 -2.3674519 0.33579493
1.1383885 -2.3042948 0.63208115
0.80917001 -1.5226128 0.12696034
1.1137395 -2.2423804 0.92076665
1.1320801 -2.2862012 1.0340041
1.1575035 -2.3788357 0.43719956
1.0880287 -2.2053261 0.81323463
1.1472883 -2.3808386 0.33623368
1.1357012 -2.3515861 0.5362308
1.1175334 -2.3330946 0.53461099
1.0649785 -2.1997669 0.81098735
0.77888119 -1.5236382 -0.082031399
1.1178305 -2.3882792 0.43743062
1.0660046 -2.2540016 0.72200882
1.097895 -2.3644266 0.53653848
1.0545954 -2.2775364 0.72477877
0.75770801 -1.5236028 0.19798896
1.1009045 -2.4291594 0.33699593
0.74237579 -1.5033159 -0.0052194595
0.74658948 -1.51222 0.26683712
0.58205467 -1.0956538 -0.093348563
0.73563051 -1.5206 0.26686156
1.0166225 -2.2877586 0.33690193
0.99978215 -2.2357028 1.0112532
1.0050769 -2.2856073 0.33700365
0.71173096 -1.4979054 -0.0021710098
0.96585923 -2.1743622 0.80137694
0.96615267 -2.2027018 0.71097064
0.70129031 -1.508944 -0.072626263
0.96605337 -2.2889361 0.33742344
0.93286556 -2.1876476 0.89765728
0.95701444 -2.292079 0.33753797
0.91312104 -2.1887383 0.80132037
0.66211689 -1.4976778 -0.067306817
0.90318567 -2.1879416 0.80072433
0.66709119 -1.5095295 0.20188507
0.92092538 -2.3063831 0.33801299
0.90116853 -2.2730618 0.62254465
0.88879186 -2.2313242 0.90423876
0.5165953 -1.1307693 -0.09574613
0.88057572 -2.2360258 0.90477484
0.62566423 -1.4900751 0.071963072
0.61935115 -1.4930837 -0.063139886
0.86746192 -2.2545319 0.90795469
0.87158048 -2.3033195 0.62516242
0.61241108 -1.4899333 0.13898259
0.86601049 -2.3175187 0.62657607
0.59645885 -1.4823272 0.14035912
0.59510595 -1.4988524 0.20482063
0.82273686 -2.3018119 0.81731784
1.063517 -3.1762424 0.46882522
0.56564885 -1.4724511 -0.055205554
2.3333621 -7.7873693 0.3605634
2.3464954 -7.8192296 1.2475376
0.87074834 -2.6169107 0.76635182
2.3195121 -7.821135 2.1541507
0.5432198 -1.4854541 0.07674545
0.85796505 -2.6101491 0.76505852
0.53022909 -1.4868889 0.077183872
2.222369 -7.8081021 1.8426428
0.43099022 -1.1556046 -0.094613403
0.51626182 -1.4843893 0.078164011
2.1669872 -7.8171763 2.1467402
0.95588869 -3.213691 0.4706074
2.1353185 -7.8111186 2.1441576
0.50041807 -1.4700173 0.27319318
2.0703962 -7.7960582 1.8356595
0.49757245 -1.4860601 0.20850128
0.40598413 -1.1618361 -0.094272554
2.0021865 -7.7888751 0.3644371
0.48206383 -1.4803081 -0.051267803
0.77101558 -2.6507251 0.7688756
1.9788705 -7.7876763 1.831486
0.47688782 -1.4798133 0.27340573
0.39720738 -1.1718222 -0.096299946
0.87734222 -3.208113 0.47066724
1.949791 -7.7904029 1.8311632
1.9129615 -7.7802453 0.94532621
1.9156793 -7.7809424 1.2372792
0.73791969 -2.6482792 0.76786643
0.8598817 -3.2449031 0.47226369
1.8861833 -7.7814994 1.2370163
0.45595503 -1.4785191 0.081627816
0.67664117 -2.4172835 1.0369341
0.45414239 -1.495223 0.27344617
1.7960455 -7.7795224 0.94494492
1.5521795 -6.7791948 0.36259747
1.7620934 -7.7581754 0.94325781
0.44497892 -1.5797265 0.20424439
1.7024645 -7.7475171 1.2315229
0.43802157 -1.5791055 0.20446689
0.43338045 -1.5946878 0.067448735
0.63562304 -2.5619698 0.85824317
0.42938808 -1.6096125 0.065660715
0.43076035 -1.6134605 0.13406996
1.6164287 -7.761003 0.94330364
1.6282907 -7.7817006 2.4241157
0.4210541 -1.6740345 0.12857881
0.36206448 -1.3936219 -0.090233743
0.41660255 -1.6926708 0.055304259
0.59137213 -2.7240474 0.77667826
1.4497117 -7.7487845 2.4102206
0.39990005 -1.8049352 0.11665756
1.3524162 -7.7324901 0.94137204
0.63515091 -3.3608792 0.47851065
0.36915678 -1.712044 -0.091792613
1.2753532 -7.7459979 2.1050594
1.2766892 -7.7447448 2.4047556
0.5905062 -3.3191171 0.47712278
0.55978107 -3.4664826 0.7504617
1.1263415 -7.7110839 1.8016524
1.1328779 -7.7381721 2.1011245
0.53483504 -3.3811989 0.48023781
1.1000781 -7.7164435 1.8024037
0.30830073 -1.7364097 -0.094106346
0.62652659 -4.3224721 1.0114796
0.95648444 -7.2461257 -0.15722001
0.23056442 -1.1931247 -0.091760099
0.25815338 -1.4327039 -0.094345778
0.29458928 -1.7459602 -0.095506072
0.90376133 -7.2522473 -0.15643287
0.5736385 -4.2946825 1.0072806
0.87824267 -7.2631073 -0.1565477
0.27210897 -1.7386243 -0.093164921
0.49170256 -3.6999173 0.63505852
0.53154159 -4.2100081 -0.11935955
0.45511717 -3.4970293 0.48593652
0.22745492 -1.4321308 -0.092947125
0.25916785 -1.7537444 -0.095776439
0.46379778 -3.7027926 0.63547873
0.29885122 -2.1597352 -0.09055531
0.51623213 -4.2071533 0.99434948
0.33661488 -2.886126 -0.099376768
0.46630564 -4.1720796 0.98923528
0.223958 -1.7569506 -0.095242143
0.42260888 -4.1932702 1.1541467
0.38531253 -3.9184866 0.20911442
0.33486483 -3.486671 0.35427159
0.18019086 -1.7561657 -0.09376806
0.32805607 -4.2428823 -0.11780646
0.2369566 -2.9053037 -0.099425763
0.31262615 -4.2517619 -0.11834267
0.30950481 -4.1554365 0.98753548
0.33891147 -4.6447287 1.4173472
0.4845258 -7.672658 2.3783185
0.17083913 -2.1770031 -0.089919239
0.40780956 -7.3796172 -0.15431568
0.29632968 -4.889287 0.18424252
0.26139003 -4.1442299 0.82835716
0.12427288 -1.423788 -0.087608427
0.22604653 -3.6874177 0.63665831
0.18201888 -2.9218519 -0.10041124
0.40133035 -7.6782475 2.3801181
0.21123457 -3.6640406 0.63503224
0.25296354 -4.6309266 1.4148126
0.15956283 -2.924649 -0.10032165
0.15352324 -2.7331591 0.35123703
0.10700091 -1.4438514 -0.092026561
0.20636341 -4.2560077 1.1669319
0.088548928 -1.4345896 -0.08938992
0.094342738 -1.7459106 -0.089617193
0.11511803 -2.9297619 -0.10014516
0.18320169 -6.7358661 -0.11029625
0.093625501 -2.2031002 -0.092688709
0.14308551 -4.269208 1.1701095
0.20584261 -7.656467 2.0826144
0.13384329 -4.8741894 0.18734902
0.12694106 -4.253685 1.1674669
0.082510799 -2.8247662 0.68174863
0.069909021 -2.9065084 -0.096266657
0.12262688 -7.6455364 2.081358
0.052149132 -1.4349281 -0.088808507
0.062607087 -4.7157216 1.0736524
0.040576667 -1.4387646 -0.089560032
0.029910281 -1.7735953 -0.094195992
0.019667253 -3.6046221 0.63328469
0.024400327 -3.55562 1.1805882
-0.066209778 -7.6399584 2.3766117
0.016257383 -1.4384049 -0.089165866
-0.016489141 -3.5724256 1.0443561
-0.10986248 -6.763104 -0.10732025
0.00074716657 -1.7789314 -0.094924688
-0.010803886 -2.1986237 -0.090341717
-0.01623033 -2.5105855 0.25409114
-0.12157144 -7.6425209 2.3785117
-0.056768708 -3.5653853 1.0439267
-0.035778329 -2.5079889 0.2544654
-0.06927374 -3.564981 1.1847017
-0.051680371 -2.59236 0.35346356
-0.072227031 -2.5994925 0.35386366
-0.095036507 -2.8818288 0.46769539
-0.20507011 -4.8399839 0.19361562
-0.081751242 -2.2234294 -0.093825102
-0.073489353 -1.789448 -0.096506625
-0.40337011 -7.5825906 1.7923634
-0.16442597 -3.554383 1.1849835
-0.45406467 -7.5989938 1.7968342
-0.057475537 -1.2070711 -0.08934027
-0.19501495 -3.0161891 -0.10770845
-0.30824041 -4.2886581 -0.11256516
-0.25094101 -3.4179823 0.4935478
-0.61994523 -7.5730152 1.5136011
-0.61390597 -7.5923958 2.3812141
-0.13566336 -1.7670159 -0.091853797
-0.67516565 -7.571877 1.515125
-0.70728397 -7.5764394 0.95680267
-0.098519713 -1.1957246 -0.086499333
-0.28541306 -3.1049306 0.36143231
-0.72961247 -7.562479 1.5154655
-0.30165935 -3.139437 0.36198494
-0.33617917 -3.5359137 1.1870227
-0.31262526 -3.1342375 0.362142
-0.22257423 -2.2198451 -0.092779756
-0.30260193 -2.9385412 -0.096933901
-0.70832121 -6.3692026 0.86364686
-0.33133349 -2.9871707 -0.10328525
-0.40724605 -3.5327365 0.77314961
-0.78688419 -6.4332323 -0.078569144
-0.40312809 -3.5300992 1.1886048
-0.58028704 -4.8028946 0.20007457
-0.13509476 -1.1915458 -0.085871041
-0.43698859 -3.5607822 0.91552055
-0.22602323 -1.7824507 -0.095514894
-0.5669623 -4.2890167 -0.11085358
-0.29511157 -2.2267659 -0.094185531
-0.58575553 -4.3065391 -0.11246613
-0.59820324 -4.2846856 -0.11030948
-0.47234523 -3.4087086 0.49803227
-0.59178537 -4.0173583 0.37392712
-0.2056261 -1.4114623 -0.08353886
-0.26742771 -1.7645674 -0.092385203
-0.27527288 -1.767303 -0.093049228
-0.53422099 -3.4716861 0.63598251
-0.54135174 -3.5277712 0.77705872
-0.54629701 -3.5773706 1.0631237
-0.55026299 -3.5226521 1.1941907
-1.2255781 -7.5334682 1.5296609
-0.5604046 -3.390605 0.6305694
-0.30242172 -1.7548428 -0.090964794
-0.21464652 -1.1910603 -0.087694824
-0.59640282 -3.360219 0.49903259
-0.59312749 -3.2790136 0.11419767
-0.59349042 -3.2863607 0.24123502
-0.60454011 -3.2761974 0.24165134
-1.389778 -7.5082998 1.53317
-0.63391751 -3.3491824 0.49953353
-1.4443499 -7.5181322 1.8230729
-0.66077524 -3.3599527 0.63143474
-1.4669405 -7.5138855 2.4075906
-0.68867522 -3.3665106 0.63286495
-1.5541595 -7.5078588 1.8272271
-0.31203517 -1.4197824 -0.088210553
-1.6071539 -7.4965234 1.8281889
-0.71642441 -3.2544019 0.11641841
-0.71827674 -3.2675228 0.24331859
-0.74016333 -3.363692 0.63441688
-0.67138976 -2.9821055 -0.10411179
-0.75859749 -3.3190117 0.50162137
-0.69430602 -2.9769628 -0.10369349
-1.6928428 -7.4975557 1.8333721
-0.78791618 -3.3306918 0.50292051
-1.7461263 -7.5024242 2.4251301
-1.0575957 -4.2916675 1.0504107
-0.86356735 -3.3141623 0.50440174
-0.78830206 -2.9213021 -0.097739905
-0.91270405 -3.4676781 0.92407072
-0.90234303 -3.317615 0.24418053
-0.92091662 -3.3776011 0.50868207
-0.95581615 -3.4625225 0.64981782
-0.97208881 -3.4704676 0.65104771
-0.97132218 -3.4879827 1.2143422
-2.1134343 -7.4412107 1.5614083
-2.1159146 -7.4642506 1.8546154
-0.65119761 -2.1534877 -0.088063419
-2.1454217 -7.4744515 2.1527584
-1.0120114 -3.3603053 0.51073289
-2.238982 -7.4452124 0.71409082
-2.2403803 -7.4630842 0.9987492
-1.2993677 -4.2245026 -0.10647899
-2.156143 -7.0892935 0.15817903
-2.2262111 -7.4638786 2.4565158
-0.38698268 -1.1616344 -0.087745786
-1.3282063 -4.2032862 -0.10476264
-2.3116755 -7.453948 2.4621274
-0.70461625 -2.1168385 -0.083718419
-0.94903445 -2.8916168 -0.096818566
-1.3644341 -4.2087202 -0.10562843
-2.2639043 -7.0729179 0.15979056
-0.58457559 -1.687507 -0.086157024
-2.398948 -7.4360108 1.8701246
-2.4320962 -7.4180031 1.0034891
-2.4683824 -7.4257183 0.72058326
-0.60402852 -1.6997515 -0.089399189
-2.3665903 -7.044003 0.16165239
-1.0122139 -2.8961971 -0.098773807
-2.4511225 -7.1253905 0.1604006
-2.5738082 -7.4390817 2.4846039
-2.6060405 -7.4089947 1.298184
-1.0509613 -2.8662183 -0.095908552
-2.6453676 -7.4161758 0.7260319
-0.6481123 -1.6930454 -0.090152413
-2.6303375 -7.4118686 1.8840008
-2.6314256 -7.4312191 2.4887123
-2.6702619 -7.4010124 0.72626567
-2.6207545 -7.0903754 0.43755323
-2.6520343 -7.0959849 0.43828022
-0.55859327 -1.3648555 -0.087313831
-1.1088629 -2.8538945 -0.095833361
-2.9039321 -7.3918519 1.0230044
-1.6528909 -4.0948787 -0.098837852
-2.9545393 -7.3957071 2.209722
-2.8859363 -7.0963597 0.44350004
-0.90967089 -2.1087568 -0.090046406
-2.9117255 -7.0860243 0.44401515
-1.7461383 -4.0618534 -0.097366422
-0.75419384 -1.622741 -0.08241868
-3.0390625 -6.9783239 0.17002322
-3.2089179 -7.3639054 0.74376023
-1.2714051 -2.7891777 -0.092590839
-3.1552174 -7.0975437 -0.11401117
-3.1858456 -7.0972705 -0.11414468
-3.1324327 -6.981566 0.17079319
-1.3026389 -2.7712653 -0.09142673
-3.2092969 -7.0175357 0.17055969
-3.3629816 -7.3487263 0.74889576
-3.3534007 -7.349937 1.6360397
-3.3885016 -7.3439608 1.0438081
-3.2921596 -7.0679274 0.17000251
-0.83039808 -1.6321886 -0.088920504
-0.58549035 -1.0737098 -0.080592662
-3.5089262 -7.3165011 0.45921385
-3.5537837 -7.3487062 0.7561484
-1.3937277 -2.7470198 -0.091677189
-3.5385478 -7.3383574 1.649766
-3.5621033 -7.3290954 1.9543569
-3.5706558 -7.3536782 2.268177
-3.6529822 -7.2979188 0.16723508
-3.548857 -7.014431 -0.11158806
-0.63413566 -1.0759933 -0.086046308
-3.7619808 -7.3398137 2.2880349
-0.75272769 -1.2844616 -0.0843108
-3.827132 -7.2940249 0.46663922
-0.90973026 -1.5762997 -0.084047258
-1.1301433 -2.0040603 -0.084857315
-3.8650131 -7.3082056 0.76688218
-0.91537613 -1.5711837 -0.083524972
-3.925947 -7.2989507 0.76899821
-3.9477158 -7.2872348 0.16990919
-0.66373748 -1.0520838 -0.083266556
-3.9636354 -7.3061509 0.77078962
-3.9521904 -7.3050241 1.6814568
-2.1889989 -3.914978 -0.093700826
-3.9976625 -7.3061309 0.77217388
-4.0222363 -7.279562 0.47127593
-2.2445223 -3.9122319 -0.094874263
-3.9182041 -6.9780846 -0.11252412
-0.9461019 -1.5164652 0.65669775
-0.9443922 -1.4972128 0.58077657
-3.9671321 -6.8322101 -0.10487065
-0.95099127 -1.4929743 0.50821781
-0.94275212 -1.4859564 0.87685168
-0.94870627 -1.4724418 0.43517482
-1.6145085 -2.6137896 -0.084880292
-0.91487396 -1.4011673 0.49999082
-0.84152251 -1.2406206 -0.083356589
-0.86780655 -1.2878884 0.037454993
-0.89387274 -1.3385127 0.56152368
-0.85010678 -1.2694886 0.81483078
-0.86440611 -1.2482044 0.17134036
-0.85037905 -1.2264634 0.48462027
-0.83861059 -1.2089311 0.6072787
-0.84993452 -1.2109879 0.36004233
-0.85186136 -1.2179785 0.54666692
-0.86767817 -1.2304181 0.23554365
-0.85000563 -1.1992543 0.35998344
-0.84610802 -1.1766958 -0.070509613
-0.84582305 -1.1960993 0.54410183
-0.83971483 -1.1887828 0.66747665
-0.85731858 -1.1994747 0.36016858
-0.85072887 -1.1777018 0.35989121
-0.85922241 -1.1640453 -0.069275498
-0.86000168 -1.1428486 -0.065006286
-0.86394185 -1.1431497 0.18020356
-0.8480283 -1.1349905 0.66011977
-0.85724324 -1.1384091 0.66176116
-0.86728531 -1.1404103 0.54060203
-0.86044174 -1.1328855 0.7234658
-0.85674441 -1.1136587 0.59723449
-0.85478067 -1.1143008 0.78173244
-0.86490583 -1.1153905 0.59828746
-0.85957175 -1.1087805 0.65750754
-0.86570477 -1.1084472 0.71973896
-0.88092899 -1.1055757 0.47879407
-0.88252968 -1.1018349 0.72097373
-0.881392 -1.0876756 0.59663224
-0.89876503 -1.101169 0.30146754
-0.89711428 -1.0850798 0.12451053
-0.89789754 -1.0871382 0.1837364
-0.88561922 -1.0771817 0.77896595
-0.90218163 -1.0761275 0.53764558
-0.91390932 -1.0612698 0.30251914
-0.84944743 -0.95509541 -0.083478779
-0.91674638 -1.0657624 0.53798068
-0.90507567 -1.0527576 0.71551514
-0.92265868 -1.0639402 0.53833723
-0.93520975 -1.0580592 0.12538616
-0.93893611 -1.0654076 0.24342847
-0.92837709 -1.0425248 0.53693163
-0.94441366 -1.0512561 0.36172238
-0.93896371 -1.047019 0.53827673
-0.86370885 -0.92065489 -0.077736288
-0.9311493 -1.0276768 0.59488785
-0.94989562 -1.039867 0.18573035
-0.94049203 -1.032333 0.65649998
-0.95343518 -1.0243855 0.36185026
-0.96203709 -1.0294875 0.53881848
-0.96741283 -1.0263867 0.30364919
-0.97044837 -1.019106 0.18661179
-0.96352017 -1.0145652 0.65704322
-0.97274113 -1.0155423 0.59817773
-0.98914015 -1.0246971 0.24473689
-1.009786 -1.026438 0.72735357
-1.0144336 -1.0196658 0.30405113
-0.9936682 -1.0078609 0.78396672
-1.0117056 -1.0198371 0.72654879
-1.0253381 -1.013409 0.24469568
-1.0285476 -1.0156254 0.36384049
-1.0247692 -1.0005378 0.065936983
-0.93107265 -0.87719166 -0.078300953
-1.0389692 -1.0196178 0.4241887
-1.0357896 -1.003616 0.003338784
-0.93518645 -0.87374544 -0.078201264
-1.0486995 -1.0218827 0.42474169
-1.0304884 -1.0022688 0.54286522
-1.0490471 -0.99334431 0.1254085
-1.06827 -1.0085487 0.24417645
-1.0804653 -1.0138485 0.24369247
-1.0832281 -1.0032282 -0.065007806
-1.0735805 -0.99597991 0.1843099
-1.0583067 -0.99208212 0.66718233
-1.0981934 -1.0168494 0.30451638
-1.0950845 -1.0040548 0.54924858
-1.1199737 -1.0086801 -0.0068089366
-1.1174334 -1.0066942 0.057038903
-1.1036881 -1.0058259 0.61258006
-1.1169164 -1.0081835 0.18157442
-1.1243651 -1.0227581 0.81180722
-1.1314132 -1.0021267 -0.071422726
-1.141889 -1.0329118 0.81716692
-1.1536361 -1.0200944 0.1158573
-1.1707604 -1.0394002 0.43145186
-6.7970233 -7.0742488 2.326751
-6.8603234 -7.1003432 2.710026
-6.8894463 -7.0631795 1.6131706
-3.3533614 -3.2857642 -0.083850384
-5.8460941 -5.9068909 -0.085340023
-3.378953 -3.2612925 -0.083200485
-7.0281453 -7.0472827 1.265214
-3.3796363 -3.2384589 -0.081571907
-6.1814995 -6.1947098 2.7830174
-7.0909209 -7.0840559 2.7480876
-3.4216855 -3.2308261 -0.082914084
-5.9349895 -5.7820244 -0.081227809
-7.1300783 -7.0701981 2.7529016
-7.1601238 -7.0376554 2.0056493
-7.1688261 -7.0510492 2.3798971
-1.8093843 -1.5679978 -0.077201098
-7.2204399 -7.043005 1.6452568
-7.2277341 -7.0666013 2.769805
-7.3369064 -7.0783329 2.7912431
-6.3745861 -6.1228456 2.8096006
-7.3586421 -7.0212212 0.92358255
-7.4172015 -7.0549054 2.8022115
-2.386879 -2.0638547 -0.071982324
-6.4412179 -6.054698 2.8113358
-1.8261077 -1.5087117 -0.071660042
-1.4941449 -1.179373 -0.076893002
-6.1113853 -5.5858874 -0.075852066
-6.5269175 -6.0490441 2.8282995
-7.6102362 -7.0366883 2.8347385
-7.7009058 -7.0156612 2.4582558
-7.7333708 -6.9905858 2.0753982
-1.5226765 -1.1547847 -0.07695815
-3.5942569 -3.0641434 -0.079212725
-7.8171787 -7.0291181 2.8718851
-1.0927168 -0.74392617 -0.078545749
-3.6259458 -3.0472729 -0.079585135
-6.7236209 -5.8544126 0.53821236
-3.6287341 -3.0263996 -0.078290552
-7.9723516 -7.0178909 2.8992362
-8.025177 -7.014473 2.908668
-6.5072517 -5.586266 0.22346903
-8.047039 -6.9714613 2.1153579
-8.1745548 -6.9895825 2.5310054
-6.8339095 -5.8106928 2.8531594
-1.1085465 -0.71460783 -0.07593441
-8.3257751 -6.9680853 2.5531104
-1.312904 -0.85937762 -0.074313998
-1.9524717 -1.4014571 -0.072025687
-6.8577919 -5.5492716 0.54159993
-8.5385742 -6.9428158 2.1795466
-6.5812397 -5.2460485 -0.071479023
-1.6088654 -1.0525349 -0.074194103
-8.7786503 -6.943161 2.6251326
-8.116251 -6.4045105 2.8404868
-8.8250904 -6.9294605 2.6313562
-6.6638374 -5.0820994 -0.066458464
-8.1626701 -6.3469906 2.8417938
-1.367595 -0.82351053 -0.07758528
-9.1133327 -6.897049 2.2555656
-3.8848546 -2.7451863 -0.072826773
-9.2571373 -6.9068594 2.7018766
-9.2831383 -6.8707309 2.2773254
-6.8133779 -4.9296956 -0.063825279
-7.7928262 -5.740253 3.0566685
-7.9313426 -5.7166028 3.0850108
-6.7773676 -4.7966766 1.4377327
-2.073303 -1.24129 -0.06789583
-9.7343655 -6.845891 2.3398907
-8.1386814 -5.6948619 3.1299717
-4.0016966 -2.5947649 -0.069830656
-4.0318165 -2.5521374 -0.068930805
-10.155691 -6.8393669 2.8505585
-10.219116 -6.830339 2.8608265
-1.4446176 -0.7083832 -0.073874563
-10.510807 -6.8158159 2.9110737
-10.556231 -6.7858458 2.4553788
-8.9091187 -5.6506367 2.9055779
-10.763874 -6.7642126 2.484585
-9.132822 -5.6633821 2.9540451
-9.103693 -5.6481237 3.3530209
-2.844527 -1.5490236 -0.064482361
-10.92396 -6.7596984 2.5081668
-2.1892438 -1.1198176 -0.069228917
-9.3083897 -5.6421728 3.4019272
-2.1820755 -1.0940769 -0.065963626
-11.223717 -6.7313962 2.5511215
-9.4409771 -5.6334524 3.433135
-10.573946 -6.2813845 2.8715014
-10.689745 -6.2495313 2.8897033
-1.7998257 -0.81151557 -0.072209686
-2.9326313 -1.4897952 -0.067852348
-7.3918314 -4.1614475 -0.049548626
-9.6808281 -5.5917902 3.0625424
-11.642591 -6.7142639 2.613405
-9.7402363 -5.5833325 3.074379
-3.0658774 -1.5319418 1.06745
-11.982994 -6.6912889 2.6638453
-7.4955549 -4.0480852 -0.048451245
-10.076561 -5.5938783 3.1480756
-1.2926972 -0.46993101 -0.072659463
-1.8396654 -0.78250086 -0.075103492
-4.3140168 -2.1960702 -0.065107077
-1.5221491 -0.58670115 -0.071891606
-10.251408 -5.5540028 3.1818719
-1.5311356 -0.56246901 -0.070610821
-4.3688951 -2.1059525 -0.063694805
-12.663221 -6.693656 4.3665962
-12.78372 -6.6311498 2.7836888
-4.3535309 -2.0588806 -0.06034407
-12.844627 -6.562829 4.397191
-1.3350079 -0.42503273 -0.075683475
-4.3921671 -2.0199659 -0.060738415
-1.5631115 -0.52283835 -0.07196033
-11.159889 -5.4601884 2.9103019
-1.5450377 -0.50667453 -0.066693157
-2.3094721 -0.89221263 -0.063824803
-13.435789 -6.5583076 2.3407521
-6.3975224 -2.9538226 0.022479594
-3.0427606 -1.2481414 -0.061287165
-1.5610214 -0.50095564 -0.069080472
-11.418087 -5.4438791 2.9581208
-2.3323143 -0.87303269 -0.065148234
-2.3292851 -0.86123836 -0.063830078
-6.3793416 -2.8276665 0.52730954
-1.88901 -0.63855165 -0.068325758
-13.947659 -6.5161195 2.4035053
-14.091455 -6.5287242 2.9834356
-1.3581986 -0.3700105 -0.073738545
-3.0850837 -1.1885902 -0.061488837
-6.3770776 -2.7501535 0.02979213
-11.99297 -5.4159093 3.0661032
-6.3546 -2.713701 0.27928361
-4.4889688 -1.8150017 -0.056834489
-6.7955713 -2.8830965 0.54043674
-4.4963331 -1.7991314 -0.056561291
-14.62339 -6.4678679 2.4874778
-3.0839014 -1.1347197 -0.058056712
-13.796787 -6.0933318 2.9112918
-6.3852859 -2.6474984 0.2804226
-2.3642781 -0.79628432 -0.063259929
-1.5813935 -0.42086655 -0.064371794
-2.3829033 -0.77408183 -0.063995779
-15.227634 -6.4281654 2.5633924
-15.485182 -6.4121823 2.5959642
-1.367191 -0.30299693 -0.067762792
-15.603212 -6.398283 2.6106725
-7.9707646 -3.1028059 -0.031802118
-15.872448 -6.3820481 2.644897
-18.724752 -7.496913 2.3366358
-2.4230256 -0.71008444 -0.064604253
-17.323587 -6.8636322 4.8918276
-2.4077263 -0.67392814 -0.060116261
-3.1805041 -0.97928846 -0.058401048
-4.5799561 -1.5332253 -0.050182253
-1.9627168 -0.48990643 -0.067217916
-11.400524 -4.2242303 1.5486732
-16.600821 -6.2945414 4.6814795
-6.5953722 -2.2701521 0.53580165
-4.6349773 -1.4796495 -0.051565111
-18.499817 -6.7353816 3.0000815
-8.0571365 -2.7469599 -0.024220049
-12.132925 -4.3352604 3.9871011
-6.8288732 -2.2803924 0.800744
-18.51112 -6.5915656 2.9967906
-18.484972 -6.3614578 2.9859397
-6.9488244 -2.1937432 0.28775874
-3.2271385 -0.85474575 -0.056436539
-4.6692195 -1.3266586 -0.047778547
-8.1612988 -2.5285289 -0.021671474
-19.356087 -6.3842216 4.5780044
-8.1181526 -2.481822 -0.018977344
-1.649338 -0.27333266 -0.064090461
-7.1124587 -2.0768275 0.55336058
-2.4779408 -0.51355743 -0.05930084
-4.7286277 -1.2367425 -0.048387557
-13.784264 -4.2050686 4.4228687
-2.0236263 -0.35972786 -0.067640871
-13.761267 -4.1441212 4.4122214
-11.18754 -3.2553248 0.68136442
-8.168026 -2.2779896 -0.015349448
-2.4776003 -0.47510183 -0.057053477
-8.1701107 -2.2172923 -0.013886094
-8.1745968 -2.188848 -0.013327122
-17.952028 -5.2176614 4.9278851
-18.370136 -5.2623415 2.9392395
-11.158527 -2.993577 0.68163741
-11.189234 -3.0042565 1.0928884
-13.82748 -3.7450576 4.4032016
-3.308161 -0.65250391 -0.055111587
-4.8022323 -1.0762504 -0.047731102
-4.8262272 -1.0646521 -0.048975885
-4.8084774 -1.0240787 -0.04642427
-4.8092256 -1.0060657 -0.045887768
-26.687811 -6.7621818 4.093308
-21.472849 -5.3151903 4.9583216
-4.8386273 -0.94097269 -0.045826286
-21.507322 -5.2436414 4.9626269
-18.245569 -4.4081507 4.9557996
-11.175367 -2.5383191 1.0900939
-21.506453 -5.1670427 4.9595442
-8.2428799 -1.7438262 -0.0051653087
-11.144453 -2.447381 1.0877627
-15.896111 -3.6311877 4.9676962
-11.233238 -2.4287484 1.50214
-8.2534199 -1.6834749 -0.0041976571
-18.308863 -4.151104 4.9593248
-11.121099 -2.3687041 0.2822718
-1.4618764 -0.050869167 -0.066887677
-2.0564942 -0.18860266 -0.062771112
-2.5217469 -0.29615307 -0.053972095
-1.4631029 -0.045574635 -0.06681633
-11.237793 -2.3047893 1.5013309
-2.5489469 -0.28378403 -0.057169557
-11.345949 -2.2095525 1.9249547
-15.538322 -3.14253 4.8434982
-19.914339 -4.0257516 4.5924306
-1.4585667 -0.011918098 -0.06345433
-18.44371 -3.5810025 4.9688544
-11.127132 -1.9955127 1.0858223
-8.3206882 -1.3975122 -0.00053572655
-19.894028 -3.737021 4.5796542
-11.186087 -1.7660403 1.4918106
-8.374115 -1.2253053 0.00095623732
-11.086952 -1.7035749 0.6866883
-2.061058 -0.067772567 -0.057701737
-2.5587392 -0.15413427 -0.053243607
-11.126583 -1.6311017 1.0858102
-2.5408792 -0.14124858 -0.050275475
-4.949852 -0.55098832 -0.042674541
-18.62418 -2.9370611 4.9915376
-2.5502257 -0.13348165 -0.051301241
-3.4011533 -0.27546334 -0.050913393
-8.2187996 -1.0459867 2.0847507
-11.207327 -1.4823948 0.69221175
-2.0800951 -0.024788201 -0.059266537
-8.1337681 -0.97115219 1.7653782
-8.1529217 -0.97795403 2.6854258
-8.1724796 -0.91693079 1.1790177
-3.416445 -0.20354176 -0.050453424
-8.2030354 -0.89320755 1.7763262
-8.2004452 -0.83268058 1.1816838
-2.5755293 -0.044769406 -0.051906586
-8.0791817 -0.78909969 1.4599683
-8.0784035 -0.75845933 0.59312379
-8.0443573 -0.72527003 0.59223747
-4.9355941 -0.31986654 -0.036463797
-8.0608082 -0.70814776 0.30713195
-3.4078939 -0.11743921 -0.047312677
-7.9932752 -0.69569522 2.0314922
-8.0232925 -0.66575968 0.87693566
-2.0901048 0.048778117 -0.058387816
-4.963727 -0.25143749 -0.03708753
-8.0143547 -0.61351687 2.6370544
-2.5713794 0.020379692 -0.049459875
-8.0381355 -0.55252552 0.59336954
-8.0414085 -0.55511326 1.1651013
-8.052227 -0.5275926 1.1662409
-2.5732884 0.038717717 -0.049250245
-8.0468273 -0.52790749 1.7457767
-8.0753956 -0.50832784 0.023883611
-3.4012949 -0.031213194 -0.044626951
-8.1005821 -0.47530115 1.4616678
-4.9804997 -0.16539061 -0.036675721
-7.3393655 -0.37628376 0.83150482
-2.092447 0.10909976 -0.056998134
-27.129667 -2.0046978 5.0773292
-14.309837 -0.87262392 4.4291449
-27.125116 -1.8127916 5.0759993
-7.365767 -0.24938065 0.83400488
-2.0915229 0.14612469 -0.055888295
-3.4242089 0.050973848 -0.045407027
-7.527678 -0.24354774 0.31315663
-7.3892908 -0.19880509 0.83592325
-18.99967 -0.98447967 4.3486357
-15.328159 -0.73789561 4.1410875
-2.5814395 0.13886219 -0.048141986
-14.265089 -0.56614786 4.4138145
-3.4042482 0.11300212 -0.042196929
-15.416376 -0.57992542 3.5927231
-7.4769797 -0.1077013 0.051053643
-3.4128029 0.12407148 -0.042926639
-4.9637241 0.045696795 -0.032095671
-7.4523473 -0.081406415 0.052275598
-2.579926 0.1846005 -0.047094107
-7.2760749 -0.021294355 0.31589234
-7.3243775 -0.014478117 0.57402867
-2.5803235 0.19379622 -0.046997994
-15.279184 -0.35633206 3.0079896
-7.3314118 0.011077195 0.57449579
-2.5806885 0.20299381 -0.046902359
-15.163721 -0.30153298 4.0995069
-3.3962586 0.20935255 -0.039922297
-15.126097 -0.14022994 4.0905771
-15.161375 -0.087540388 3.5399959
-1.7770569 0.26471055 -0.064437777
-2.1164763 0.25789592 -0.058213532
-1.5218091 0.27506199 -0.06792146
-15.282019 0.02008459 0.84110177
-14.214554 0.081009075 4.3996449
-2.120765 0.28021705 -0.058690161
-2.6101649 0.27544042 -0.05010283
-15.34392 0.12118468 2.470962
-1.7578914 0.29638931 -0.059936643
-29.762957 0.1733014 2.3720028
-19.090939 0.21172202 4.3716989
-29.759005 0.24061343 0.28726608
-1.4948956 0.30765453 -0.060787499
-29.64163 0.3764261 3.4103332
-19.12603 0.34594354 4.3804431
-23.226902 0.44150272 4.4039001
-1.4793078 0.31827959 -0.056792349
-23.275423 0.84619045 4.4173913
0.70391881 4.0043778 0.67364466
0.50192499 2.8722811 0.018115491
0.7389257 3.9981146 1.0758816
0.74594694 3.9810019 0.93754089
0.75917411 4.0307889 0.14485122
0.76562345 3.9880066 1.2118642
0.78526169 3.9970336 0.80644125
0.55449831 2.8586159 0.017862856
0.47117934 2.3950367 -0.0026371181
0.79710954 3.9732633 0.93717349
0.80375254 3.9991159 0.4089874
0.82506073 4.0220895 0.54230082
0.8400327 3.974462 1.0737137
0.83956826 4.0148573 0.27646551
0.85035074 3.9924188 1.3561004
0.86332184 3.9696517 0.93790364
0.87893271 3.9939046 0.80722523
0.91564047 3.9795613 0.8059426
0.92853618 3.9630752 0.9383117
0.94782996 4.0253754 0.14072932
0.95085806 3.9724698 1.2148904
0.86160117 3.6229973 0.040521562
0.98461366 3.9963613 0.67451811
0.98000836 3.9547153 0.93824887
0.38522291 1.604259 -0.029340059
0.88897663 3.5874925 0.042372644
1.0005238 3.9458075 1.3508257
1.0243223 3.9903998 0.67433906
0.7122432 2.8167658 0.016367316
0.59255993 2.3306408 0.0010501146
0.72681338 2.8026595 0.017306805
1.0543566 3.9678173 1.0794456
1.050226 3.9872308 0.27331087
1.0703346 3.9514189 1.356226
1.0812531 3.9869142 0.80982375
1.089853 3.9891977 0.54040164
1.0989406 3.9721446 0.53943527
1.1129365 3.9888763 0.94751024
1.2303337 4.3475246 1.0084193
1.2382594 4.3518591 1.3157971
1.2411323 4.3798237 0.41465771
1.2623851 4.3546829 1.0105828
1.2627425 4.3433299 1.1608939
1.2623733 4.380424 0.26593763
0.65481544 2.3111691 0.00046291947
1.2878783 4.3657618 1.3215905
1.2992547 4.3521876 1.3191043
1.3085835 4.3887925 0.1155934
1.3227932 4.3714714 0.71265876
1.3196841 4.3374305 1.0097591
1.3397669 4.3425212 1.1641459
1.0843184 3.5402527 0.038950682
1.355094 4.3418097 1.164717
0.52073652 1.7499897 -0.02104339
1.3994341 4.3753276 0.56347495
1.1169552 3.5255475 0.038795114
1.4007902 4.3826237 0.11327176
0.89023155 2.8076496 0.0090095997
0.48710677 1.5845554 -0.033314109
1.4291478 4.3495436 0.86327386
0.63116598 1.9921831 -0.016548812
0.90136439 2.7829666 0.01113385
1.4491822 4.3306694 1.3229684
1.4592406 4.3760591 0.41304982
1.4588515 4.3638549 0.56308573
1.4613259 4.3631082 0.26261604
1.1850321 3.5066371 0.037479341
1.5223007 4.3704176 0.11023487
1.5312215 4.3318715 1.4879336
1.5326657 4.3463483 0.26148486
1.5512353 4.3608017 0.56340134
1.2250334 3.4795732 0.037842304
1.5670784 4.3518147 0.71476471
1.584478 4.3634181 0.56374705
1.5852242 4.3364606 1.0199647
1.6120521 4.3324323 0.86652422
1.6170784 4.3271532 1.1755342
1.6145326 4.3499355 0.2599526
1.2899189 3.450738 0.037191421
1.6599365 4.3204255 1.0208147
1.6756601 4.328918 0.86816001
1.6843197 4.3226666 1.3371379
1.6865768 4.3427911 0.41087276
0.72816718 1.9519236 -0.01725927
1.0443685 2.7254405 0.0094617903
1.7073395 4.336895 0.25834173
1.0588377 2.7366881 0.0074158907
1.722718 4.3063469 1.1779114
1.7423344 4.3409114 0.71725345
1.7686888 4.3058357 1.0237625
1.0958656 2.7297921 0.0059391558
1.8081827 4.3129344 1.1845485
1.8206524 4.3293176 0.71795714
1.8182985 4.3146477 0.87143481
1.8177519 4.3041153 1.0259672
1.823246 4.345427 0.10177481
0.60442108 1.5370693 -0.034570187
1.8438765 4.3242149 0.40958664
1.8521155 4.3263907 0.7184236
1.8799585 4.3159313 1.3508989
1.9083781 4.3393273 0.25447339
0.94522893 2.229341 -0.0077388883
1.9190669 4.3085117 1.0319585
0.70816112 1.7041478 -0.029510617
1.9297302 4.2948794 1.0304787
1.9506874 4.2961369 1.191084
1.9598054 4.3196259 0.40890622
0.71974051 1.6900947 -0.027953267
0.82634282 1.912958 -0.019501418
1.5197273 3.3598151 0.033034593
1.9881923 4.2851315 1.5177387
0.6461041 1.5263739 -0.037226796
2.0143671 4.303102 0.87773335
2.0313711 4.3110189 0.72152865
2.0571785 4.3080187 0.40819243
2.0615733 4.2931614 0.87854815
2.0857913 4.2827115 1.3616453
2.1004245 4.3158011 0.56568927
2.1002665 4.3163519 0.093368113
2.1152289 4.3168387 0.40814051
2.11444 4.3086743 0.56546688
2.1127601 4.2970457 0.72252643
2.124342 4.2893491 1.3666216
2.1332288 4.3125052 0.56589317
0.87427747 1.8848188 -0.019525677
2.1418417 4.3031416 0.40771711
0.69631803 1.5097351 -0.040030241
0.77802753 1.663013 -0.029309541
2.1758645 4.2674427 1.0407311
2.1856415 4.2775636 1.2052565
2.2409627 4.3168755 0.088199541
2.2520254 4.2707863 1.2093587
2.2797451 4.2717657 1.5466974
2.2832961 4.2698054 1.0478847
2.2981639 4.3196092 0.085950539
2.2938318 4.3054957 0.24701059
0.93262756 1.8623827 -0.021926016
2.3284216 4.3094954 0.085194364
1.1134984 2.1381299 -0.0098233521
2.3740377 4.281796 0.72898912
2.3782158 4.2828016 0.89191484
2.3766224 4.2501721 1.5531245
2.4011574 4.2901316 0.89388132
2.387099 4.2583809 1.0531061
2.4039466 4.255373 1.0538174
2.4155216 4.2724743 0.40600526
0.97823024 1.8542424 -0.025594562
2.4350915 4.2622747 1.3918796
0.76024175 1.4692545 -0.040066391
2.4749112 4.2656884 1.3968173
2.466408 4.2816434 0.24358007
2.4694607 4.2681437 0.40573448
2.50353 4.2852492 0.56944591
1.168198 2.1148896 -0.011909872
2.5116827 4.2539101 0.89544034
2.537648 4.2783074 0.56960756
1.0159223 1.831295 -0.026219726
0.889072 1.619047 -0.035030961
2.628844 4.2702265 0.57063431
2.6311696 4.2457824 1.2381357
2.6370072 4.2836289 0.074017614
1.9461871 3.1741986 0.022309333
2.6775014 4.2834492 0.07237044
1.0645293 1.8139505 -0.029227853
2.6973581 4.2409916 0.90404975
2.7018483 4.2346072 1.2429172
2.711611 4.2776351 0.07117942
0.9188695 1.5857412 -0.032934546
2.7254908 4.2400527 1.2461026
2.7288167 4.2733288 0.070624322
2.7407777 4.23879 1.0758693
2.7572072 4.2854986 0.069004297
0.8285175 1.4347595 -0.043218791
2.7528238 4.2413144 0.73871696
2.7563248 4.2263012 1.2467722
2.771883 4.2416787 1.4254152
1.5421499 2.4619689 0.0010023415
2.7900987 4.2386537 1.4269707
2.805855 4.2426724 0.40427172
2.8213644 4.2521973 0.74214226
2.9103427 4.2400661 0.57399428
2.9370217 4.2478762 0.57487619
2.9437697 4.2351899 0.4038257
2.9489741 4.2102766 1.2633877
2.9534879 4.2022071 1.6197664
2.9718218 4.2181549 1.0913612
2.9819734 4.2465 0.23252945
2.9854953 4.2342529 0.4037284
2.9949348 4.240026 0.57557821
3.0076053 4.2352376 0.40370989
3.0146842 4.2128844 1.2706189
3.0131848 4.2378736 0.059779018
1.1520206 1.7519708 -0.030741692
3.0412402 4.2396283 0.23123281
3.1288226 4.2231431 0.40325999
