# .PCD v0.7 - Point Cloud Data file format
VERSION 0.7
FIELDS x y z
SIZE 4 4 4
TYPE F F F
COUNT 1 1 1
WIDTH 2117
HEIGHT 1
VIEWPOINT 0 0 0 1 0 0 0
POINTS 2117
DATA ascii
4 0.32104269 1.9207712
5 1.7529798 0.033764102
0.77156389 0.60354549 2
5 2.6365263 0.92243481
1.1459521 1.7615153 0
3.4336674 1.9734638 2
1.2305927 3 1.126999
2.0718582 3 1.7263205
0 1.0491068 1.5483271
5 2.338402 1.5495719
2.0710218 3 0.25771719
2.3087666 3 0.61167622
4.8725848 2.433285 0
3.6379507 2.0532312 0
3.235935 0.67172444 2
1.4996246 2.0752177 2
2.4741218 0.9991011 2
0.84888858 3 1.4967927
4.8150659 2.3548505 2
4.3187532 3 1.6128479
1.589319 3 0.34120286
0.25273761 1.5367062 0
4.785533 3 0.15366259
0.98521334 3 1.0912822
0.52625555 0.11120425 0
0.8983739 0.64906573 2
1.0843378 0 0.58282506
1.0601236 3 0.07218276
3.3961942 0 1.2938795
4.7996674 1.937018 0
5 2.4325743 1.0443356
5 2.0801098 0.22378442
5 2.0378788 0.0036248295
3.2325423 1.5949091 0
0.95790857 2.0977659 0
2.8188488 3 1.4274101
1.141539 1.9735161 2
0.073663279 0 1.283075
3.0436399 0.81947571 0
0.57230103 0.72086751 2
2.9858003 1.5375817 2
0.31768379 0 1.767198
4.342865 1.5 0.19251081
1.9282287 3 0.92850029
4 1.2383434 0.73706365
4.660893 1.8265291 0
0.63977516 2.7631865 0
0.11667734 1.4842839 0
0 1.2373483 1.9559002
2.8594544 0 0.43016756
3.1381838 0.21348065 0
2.666718 3 0.35724711
3.9670455 2.5536089 0
1.3945605 2.8111715 0
2.52163 2.5467784 0
3.1116271 3 1.3991061
3.5001345 1.0043187 0
0 1.6352859 1.1572295
0 1.9572159 0.85714793
4.1638956 2.721149 0
4.4480529 2.0899429 2
1.631532 1.2900898 2
1.7637181 1.2175264 0
0 2.8690095 0.51835638
1.6750587 3 1.5601931
1.2982568 3 1.64851
1.557296 0 0.50118244
3.7477672 2.9875665 2
0 1.3226901 1.2188269
3.9608696 0.30574667 2
0.67743635 1.2585516 0
0.69938993 0 0.79290879
4.3835859 2.7009587 0
4.8019638 3 1.0487349
0.46063387 3 0.85145229
0.89917368 3 0.25392511
0 0.73867857 1.4477295
0.57596076 0.32692403 2
2.0816152 1.1436976 2
1.211993 2.8106165 0
2.131603 2.9014297 2
0 1.9342874 1.291008
4.630331 1.5763624 0
1.0932646 1.2434708 2
3.6326878 0 0.81701249
2.6459594 0.60829651 0
4 0.79489928 0.93049425
0.69874239 0 1.6032404
3.2623403 3 1.7591747
0 1.9039378 1.3013759
0.30860659 0.33978045 2
0 2.7099524 0.33269674
2.6208231 0.6517567 2
0 1.6197414 1.2014903
4 0.88718921 0.07053005
1.6982563 1.098277 2
4.2069545 2.8515313 2
3.3059015 1.706732 2
4.1231236 2.9518311 0
0.18860102 0 1.610988
5 2.2523563 1.6788738
1.0442159 0.11257862 2
2.8156364 1.2247697 0
1.5091679 3 0.23589365
0 2.693784 0.8170473
4 0.54325408 0.57714486
1.4735571 2.9438493 2
1.8440077 0.04523379 2
0.50730222 0.94798559 2
2.976356 3 0.27508011
4.7930017 2.6533136 2
4 0.1907766 0.089715526
0.57581663 0.30906159 2
3.4930472 0.71803099 0
4.3245749 1.5513966 2
1.4216636 2.0578368 0
1.2401848 1.0931846 0
0.96416175 0 0.64547968
4.4917803 1.5 1.3824387
2.627069 2.3840449 0
2.3623817 0 0.59054613
3.3684461 0.61596328 2
1.4737691 0 1.355553
3.8604393 1.8945118 0
0.019836193 0.86312199 2
2.4667323 0.14013661 2
4.7030969 1.5 0.058190957
1.7496186 0 1.0317264
3.5369329 0 1.6857419
0.91465294 0 0.5371595
2.6845343 0.076504424 0
2.9525032 3 1.6846987
5 2.7693214 0.55561078
1.9192382 2.4079103 2
1.9614601 0 1.7418925
0.60014015 0 1.2158531
3.1013453 1.1403004 0
2.1420877 2.4154692 2
1.3509483 3 0.28837499
0.66225064 3 1.6125267
3.9187479 0.70372689 2
3.3094926 0 1.1062675
1.959294 3 1.5764045
2.9788759 1.1187633 0
0 2.0035431 0.47099343
2.1951005 0 0.64890438
2.9889998 3 1.0004478
0.41894528 0.058610942 0
0.67192179 0.53148896 0
5 2.6456795 1.6989872
1.0048161 3 1.2447579
0.52833527 3 0.65520275
3.20625 0 0.39791852
4.6250105 1.5 1.2352855
0.053093281 2.0424902 2
3.5929596 3 1.5772035
4.7819381 1.5 1.1849607
1.3343177 2.5927076 0
3.1225696 1.2564213 0
1.1087722 0 0.80345643
0.80461663 0 1.8447254
5 1.5785381 0.92198676
2.4228086 0 0.74042004
1.1460617 0.85594517 0
4.7104697 2.6376505 0
0 2.7650464 1.4146659
2.823307 2.1659594 2
0.35526121 1.0797827 2
3.5321646 2.2231512 2
3.2458987 3 0.68103397
4 1.2038279 1.3825463
3.1073885 0.59053856 2
4.4141712 1.5 1.0734438
4.8258805 2.0666602 2
4.5331063 3 1.7771131
1.0213861 3 0.5419023
0 0.46511307 0.27559242
2.2882352 1.5827621 0
4 0.18153623 1.8264273
2.4213457 1.7956383 2
0 0.58714283 1.4055868
0 0.51059097 1.8858035
4.4197092 1.5 1.7788502
4.1565533 2.1375062 2
2.4668171 0.15046178 0
1.1379973 0 1.3210515
0.74313754 0 1.9226018
0.94723964 2.251581 0
1.0601897 3 1.9735603
3.5927095 3 0.64911133
1.3567843 0 1.542964
5 2.4260852 1.5324732
0 1.4565197 1.4413795
1.9941459 2.8840141 0
4 1.1582516 0.12915649
3.2304921 0 0.28631848
3.1399934 0 1.8472737
3.3661146 0.42447767 2
0.61590981 0.38263646 2
0 2.5844092 0.83482647
1.6726499 0 0.69572091
1.0208943 3 0.057239078
4.9233532 2.550734 2
3.8998053 1.8630233 2
0.35669354 3 1.8255585
0.096506469 2.0108767 0
2.4779196 1.2365848 0
2.1809993 0 1.9769932
1.4939625 0 1.1985245
2.0817745 0 1.815135
3.3282297 0.57205254 0
3.1788414 1.4147434 0
2.7278011 0 0.61578786
4.4502745 3 1.5846983
1.531225 2.4940999 2
4.4800487 2.0669897 2
0.42093214 0 0.45943922
3.1052907 0.1604871 2
2.500952 2.999182 2
1.2167512 2.9451599 0
2.4073298 3 1.2528338
3.7973585 2.5788853 2
4 0.53567255 0.62102121
4.6055889 2.5695317 2
1.5687957 2.3794675 2
3.5810947 0.31731781 0
3.4940519 2.5425165 0
3.0826042 3 1.5772045
4 0.77978897 0.11951227
1.4230282 0.82878369 0
4.6618662 3 1.3362159
2.4072053 3 1.7712724
3.0733697 3 0.14489812
4.6443439 2.4824433 2
4.8985209 1.6771736 0
0 0.90798807 1.4284062
4.8687854 1.9617147 0
3.6913815 0.89894092 0
0.12334733 0 1.3799019
3.0937216 3 1.0635939
2.1604159 1.4380223 2
5 2.05896 1.2451441
2.6173675 1.8532611 2
4 0.34924465 1.4041749
5 2.1137116 1.3766214
4 1.1947632 0.86923712
3.2233939 0.62986517 0
5 2.2048161 0.75004256
1.7567108 1.4505461 2
0 1.4190931 1.7619458
1.4359393 1.7992724 0
5 2.4480014 1.7077434
2.6222441 2.527405 0
0.64673382 2.182451 0
1.301142 1.8659027 2
2.9916229 1.5640659 0
0.32740948 2.3351536 0
3.6126556 0 1.2357057
0.5278585 3 0.45544669
0.81146812 3 1.9963025
1.6421937 2.8188305 2
2.5930181 0.84434021 2
3.930496 0.89098996 2
2.1982825 1.9959027 2
3.7668366 3 0.68692625
2.8538249 0.31314367 2
2.4538217 1.6995945 0
2.7164631 0.56857306 2
4.4653072 1.5 0.72079092
0 0.76017398 1.7453096
3.3231528 0.52682126 2
2.2837219 3 1.4820455
4.7779646 1.5 0.27729282
4.4784565 3 0.96312481
4.5332847 1.5 0.5269897
0 1.2973262 0.14485009
4.7574964 1.5 0.83193952
3.4712288 0 0.26330999
4.7725873 3 0.29367095
1.4298198 0 0.46765423
2.8412182 0.97079641 0
1.5236845 2.3049865 0
2.8540931 2.0215437 2
4.1806912 3 0.51539868
2.9344566 0 0.11185527
0.2117559 0.9690218 2
0.81979537 3 0.79495257
4 0.17184535 0.98489261
0.56266797 3 1.6495689
1.9843715 2.4169774 2
0.8903392 1.8397783 2
2.2083712 0 1.1697843
0 0.27176535 0.9151693
0.93858343 2.0801508 0
3.2731345 3 1.5265675
3.6223512 3 0.38916442
1.7678075 0 1.2600724
1.5983208 1.1615394 0
3.3289647 1.3013904 2
0.70328093 3 1.1303607
2.7064893 1.7855872 0
0 0.5106408 1.3293716
0.2141474 0.57421911 0
0.1519047 0.18104082 2
4.9048553 1.5 1.9600158
1.1640767 1.4005166 0
3.119524 2.3296227 0
3.7513711 2.4455271 0
3.9727268 0 0.64601701
2.2811327 2.0072186 0
0.8866154 2.316689 0
0.022426307 0.59502578 0
1.875746 3 1.6912955
0.87056673 2.9858968 2
0 0.25982669 1.1206849
1.9682318 0.33049265 2
1.90285 0.11429258 2
5 2.974396 1.359118
0 2.1657879 1.9116349
4 0.28883782 0.82461226
0.67845494 0 0.040545046
1.0685929 0.19991022 2
4.1998954 1.8014164 2
0.95057923 2.3824596 0
1.3985562 2.514442 2
2.20734 0.832748 2
5 2.4152229 0.86990255
1.8722348 1.9426463 2
3.9117875 0 0.080756746
1.3991289 2.2255471 0
0.96991271 2.3611386 0
2.1968985 0 0.92919147
0.90479314 3 0.076313913
0 0.051672798 1.5171126
3.4495406 2.5092564 2
4.7037234 1.5 1.7470067
0.20602039 1.8243703 0
4.992137 1.5 1.5483578
3.3290975 1.8053198 0
0 0.41652977 0.45641649
4.7340388 3 1.3151863
2.6460214 3 1.6607124
2.7247055 0.00095425104 0
3.4986153 0 0.57557267
0.81913602 0.21731818 2
1.0324857 3 1.6876571
0 0.5357129 1.0086925
1.1443388 2.4554193 2
2.6500132 0.41812527 2
0.18248756 3 1.5490999
0 2.0625856 0.89731616
3.7343223 3 0.16471016
3.7690349 1.9270878 2
0.64163345 1.3055614 0
1.6220658 0 0.60811049
2.6081161 0.65592432 2
4.5391159 3 0.99033189
0.31806293 0 1.848277
4.0757813 1.5 0.40587571
0 0.51363546 1.4793704
4.335959 1.5 1.8339225
0 1.5196762 0.50841999
0.28425267 3 1.1048266
0 0.7237289 1.1182396
4 0.82370913 1.0989703
2.2507551 0.44648856 2
0 0.590505 1.8864915
4.3622503 1.8961009 2
1.7406677 3 1.832755
5 1.6765301 0.39411348
1.5912699 0 0.52347672
3.0918288 2.3386009 2
2.7743416 0.56429243 2
3.0107114 3 1.1175582
0 1.016471 0.33226639
1.7324448 3 0.93815285
1.3990779 0.77436072 0
5 1.7208196 0.23926605
3.4994137 1.436686 2
0 1.8240111 0.086623974
0.19710617 2.4322233 2
3.0413964 0 1.4378475
3.3241768 3 0.54561132
2.1789796 1.1967328 0
4.040307 2.674547 0
3.3788333 0.10722706 2
0.71536076 2.5109375 2
2.1077642 0.19709006 2
1.0693247 0 1.519031
0 2.2785037 0.30419281
1.5016801 1.8332155 0
0.41152558 0 0.92076856
4 0.050827451 0.71198231
1.4596627 0 0.8383711
1.2186263 2.5704961 0
0 2.5199666 0.70457852
2.0733438 1.6451086 2
2.0413249 1.0207502 0
2.7119985 3 0.95101339
4 0.80850136 0.26214635
5 2.3629918 0.97389013
0.33825165 2.7606945 0
1.6143566 3 1.0577368
0 2.2546999 1.8991169
0.21384469 2.39097 0
0 0.82411653 0.5740034
4.85537 1.5323915 0
3.1752455 2.2756791 2
1.9868122 2.0309498 2
0.17566144 2.9533668 0
4 1.0997287 0.18245743
3.2324176 1.6271973 0
5 1.9170809 0.27666792
0.70443279 0 1.8929007
0.30470872 3 1.3793347
1.7074962 1.2892448 2
1.2121549 0.8550151 0
2.7997863 3 0.65074283
0.47135973 0.24981099 0
3.3186963 0.52322936 0
2.243751 0.009832209 0
0.56356788 0 1.4778678
3.7671444 1.5120823 2
3.9144385 2.9148202 2
3.6287601 0 0.3943795
3.2984612 0 0.44790798
3.8371971 0.48798949 0
3.3844886 2.4117734 0
3.2831624 1.4265262 2
0 2.6153383 0.3956641
3.845659 0 0.75175548
4.5934644 3 1.915985
3.0901792 2.5550051 2
2.3599057 0.34482846 0
0 2.6244662 0.52933675
4.3072877 1.5 1.5063739
2.0059273 2.5898051 2
0 0.59647584 1.9087708
1.8275518 0.40263474 2
1.5089297 1.194572 0
2.6028848 2.3818269 0
4.5440779 1.5 1.4718249
0.98947746 2.6762371 2
4.2782159 1.5 0.50282538
0 2.1315084 1.3935264
1.8253208 0.28260311 0
0.066477075 3 1.611511
0 1.8141081 0.29867503
2.7391729 0 1.4289957
0 2.2447891 1.7110268
2.7498503 1.5125933 0
4.7152276 3 0.31490597
5 2.963402 0.79013443
1.7489367 0.6558277 2
5 2.8856926 0.97301495
1.3849517 3 1.6483095
1.4598333 1.2512997 2
0.16405384 3 0.36495826
2.7841766 3 1.8607022
1.8899256 3 1.2403078
3.4802639 0 0.92046225
2.0100048 2.1078804 0
4.0411258 1.7211775 0
3.2424378 2.4968293 2
1.4122214 1.8382001 0
0.070531227 0 1.3648926
4.932478 2.7040622 2
3.2133152 0 0.59733683
0.40825599 2.569448 2
5 1.6699109 0.40000501
1.6027646 2.7828867 2
2.8317163 0 0.2108942
1.1164881 2.1203992 0
1.2005738 1.730703 0
0.60820186 0 0.65944058
4 0.43015912 0.66627723
3.1392395 1.2189957 2
2.7232122 2.8128545 0
2.9114773 0 0.6793468
0.087267444 2.1088099 2
1.1331074 2.9894392 2
0.80890954 2.3417952 2
2.7267644 0 0.21297903
0.34661382 1.7972022 2
0.38350517 0.26345927 0
4.0063386 1.5 1.4373524
4.2880325 1.5 1.7901132
0.93040723 0 1.5102775
1.2475367 3 0.59979755
0 1.7865224 1.4486995
2.5344529 0 1.1130955
0.0070866141 2.4217978 2
1.2838478 0 1.3594238
4.7188854 1.5 1.1075705
5 2.8285351 0.86715758
0 1.7934191 0.0018917425
4.4924407 3 0.6501227
0.73206228 3 0.45284355
4.8529592 2.7622466 0
3.7466722 0 0.53342307
1.7005956 2.0098193 0
5 1.8530203 0.13865547
0 1.5725858 1.3996236
2.9140811 0 0.59586859
4.293787 3 0.051849924
3.6645164 3 0.1806162
5 2.0454872 0.40428054
1.7297761 0.67303294 2
2.8867102 0.63766342 0
0 0.68182957 1.6246506
3.5510306 2.1063941 0
0 1.9339154 0.12212875
3.2064581 0 0.030650174
4.2259955 3 1.1102087
4.1081228 3 0.68878216
0 2.4620278 0.11265942
4 0.67146063 1.1836263
3.7610312 1.7642138 2
0.16082373 0 1.9207506
2.0670166 0.48243025 2
4 1.0002093 0.46939686
3.9599626 0.19046679 2
2.3970985 1.5828227 2
3.2423768 2.5807843 0
0.41702545 0.69762635 0
2.7973919 0.063171864 0
2.7620203 0.10603774 2
0 1.5693023 1.3843008
4.4773788 2.8877819 0
0.1519939 1.8246317 2
2.4416974 1.7445214 2
0.50862783 0 1.4779238
0 2.5481935 0.91848618
5 2.0878241 1.1475439
1.5702245 0 1.4318016
1.433216 3 1.8900766
0.50234246 0.8154543 0
2.0023518 3 0.44048268
3.2959821 1.6184514 2
5 1.571429 1.7416387
0.57415146 3 0.51663536
0.19915056 0.096332997 2
4.0752316 1.5 0.018518709
3.5900488 2.3891907 2
1.3433176 3 1.5915182
0.22524419 0 0.083883293
4 0.9263953 0.85550743
0.91415489 0 1.2275487
2.8288617 1.5832418 0
1.9268064 1.5805956 0
2.4489918 0.1995478 0
0.0059848242 0 0.30621189
3.4172475 3 0.50417644
2.5158994 3 1.9012485
5 1.7041199 0.35504574
2.3732312 3 1.352706
4.710999 1.8611394 2
3.6531544 3 1.5916605
3.9440415 0.55759299 2
0.94384348 0 0.53388929
3.667043 0 1.126984
3.0443993 1.2443008 0
2.7552271 0 1.0846183
2.1006715 2.7363341 2
2.3996072 1.0832101 2
1.6918429 2.7366965 2
0.58048737 1.39554 2
3.8912296 0.96785426 0
4.7214251 1.9402214 0
0 1.4046661 1.8314539
0 2.4507003 1.2260044
4.9155097 3 1.6336821
4 0.85184276 0.38116646
2.7747478 0 1.5418878
1.9338844 1.8928549 0
2.4455588 0 0.0032086726
2.3843846 0 1.8168511
3.3616581 2.8789644 0
2.3026354 0.37843719 0
3.1290746 2.2529907 2
3.0629988 0.88549048 2
1.2236623 1.9551667 0
0.14173993 2.4613214 2
2.5533857 2.6199737 2
2.6013756 1.7499672 0
3.8441298 1.6400858 0
1.2786574 0 1.5907645
1.2397511 0 1.9778047
4.0570846 1.6146299 2
4.7095828 3 0.032813571
2.3221567 1.2430346 2
1.7684848 0.029877378 2
0.14033863 2.3542681 2
1.233053 0 1.2028747
3.9416237 0 1.4431621
4.818294 2.5687473 0
1.3797523 0 1.4224409
4.528626 2.1075838 0
1.3163186 0 1.1868116
4 1.278054 1.0041317
2.5381262 1.6433787 0
4.2606244 1.5 1.5985897
3.2019 2.8542037 0
5 2.7495811 1.21419
0 2.6431544 0.50182289
4 0.98265499 0.43973252
3.2810066 3 0.37065071
0 2.1873021 0.54246956
5 1.8586631 1.4666395
2.119802 2.4479172 2
0.28069973 1.8313316 0
2.6813993 0.35250521 2
2.6274753 0.53473735 2
5 1.5134752 0.21059722
2.8084116 1.478027 0
0 1.697914 0.8081128
5 1.8233575 0.018960513
1.5683054 3 1.2046583
5 2.6139214 1.6626319
4.384737 1.5 1.0993116
4.2188311 1.5 0.52268314
1.5822636 2.6871817 2
4.3564281 1.5 0.99098527
3.2497239 3 0.22814026
3.3187392 0 0.28619626
2.1950009 3 0.96001267
2.9580288 2.0205538 2
0 2.1135108 0.89085388
0.13665262 3 1.7880802
1.1361312 0.94597244 2
2.6144526 3 1.2350413
4 0.54988587 1.1096299
4.9108696 2.8175716 2
1.6524693 2.9827251 0
3.8162382 1.507153 0
2.3451197 0.21843083 2
2.4991961 0 0.52968657
1.975279 0 1.6051208
4.7956562 1.8531767 0
3.5596242 0.070284277 0
0 1.7798246 0.04629495
0.28844985 0 0.72794253
5 2.1864727 1.3751576
4.5339756 2.8370798 0
0.81534934 1.6067314 0
0 2.2062757 1.9966488
1.7786466 0 1.8687828
5 2.6523621 1.5863612
3.2631731 0 1.3937194
1.4848512 1.7032474 2
1.000129 3 0.68441564
0.38194218 3 1.9491843
1.247752 0 0.47724119
0 1.4144005 0.12069378
2.6182525 0.39639792 0
1.8859874 1.2677207 2
2.4161162 2.115819 2
4 0.47379103 0.91535068
2.8342173 0.95380259 2
0.14760397 2.938401 2
0 0.28428087 0.083188109
2.7005754 3 0.61717749
0 0.044344049 1.4852526
0 2.5435271 1.0713055
0.062791474 0.2873055 0
1.2975163 1.6667712 2
1.6103923 3 0.83318359
0 0.51812285 1.2904131
1.3082345 0.21561842 0
0 1.1409836 1.197165
0.52725244 0 1.7347147
5 2.0650156 0.99829692
0 0.52445036 1.5652906
1.1568871 1.7756544 0
2.9217143 0 0.55524111
2.6476545 0.230863 0
0 1.3735222 0.26850677
3.2283275 2.5248535 2
0.20542656 0.13844864 0
5 1.9992323 0.28728968
3.6842465 2.3297284 0
0.84682399 1.2308111 2
1.830958 0 0.57559764
2.9887202 3 1.9874082
2.7245185 0 1.7548766
0 0.55448079 0.01299997
3.4950345 0 1.2434714
0.01981701 0.70505196 0
4.3466458 1.5 1.6108328
0.59910244 0 0.65393245
4 1.4411712 0.36997631
1.1123253 1.3872447 0
3.5149016 3 0.8465355
1.2175398 1.5879955 0
0.48810434 3 1.291339
2.1459274 1.5747468 2
3.5300789 0.89039963 2
0.61888671 0.53074473 2
2.913815 2.7161002 2
3.9021163 3 1.7880232
3.7963784 3 0.68287045
0 0.72261494 1.5917379
2.1564093 1.107229 0
0.39722425 1.1309329 0
1.006367 0.3883301 2
2.555275 2.4442818 0
0.20746639 3 1.1632837
0 0.59503943 0.63377672
0.78517354 3 1.3371416
0 0.67724448 0.68966573
3.301991 2.356317 0
2.8826995 3 1.292237
4 0.81686091 0.43225017
4.1437478 2.2490501 0
1.0728865 0 0.61521119
4.2374158 2.4311144 0
1.1065617 0 0.087472558
3.774457 0 0.30282167
2.8914793 0.76841426 2
2.401634 1.9948213 2
3.3616645 2.7761817 0
5 2.8267798 0.85782677
0.94194031 0 0.55535746
2.5407288 1.0385602 2
3.188992 3 0.6411137
4 0.70388454 1.4932762
1.9113781 1.5854504 0
2.9756091 1.135339 2
2.6781652 2.3664942 2
0.40284064 3 1.9865923
5 2.4528201 0.079024747
4 0.15311804 0.91304386
0 2.5260029 1.2139785
0 1.3466105 1.2822403
3.6499193 1.567104 2
0 1.2474005 1.3076679
0.94039196 2.3419404 2
2.5159867 2.2634571 2
3.9680321 0 1.5112098
2.7062719 0.94783092 0
2.90464 0 1.4451514
2.4661674 1.2894992 2
3.7345507 3 1.3210505
4.9214659 1.5 0.83396262
0 2.7671571 1.5421934
1.5451285 3 1.7534246
0 0.83294147 0.083170652
5 2.7606542 1.9700733
5 1.7255955 0.70403707
4 0.76285678 0.80975223
3.8794012 0 0.58187306
4.6425457 3 1.1497295
4.5027575 1.5 1.5395817
5 2.5749669 1.9786644
0.28351808 2.4546249 0
2.2867017 0 0.28575817
5 1.8269032 0.60221845
2.2721579 1.109705 2
3.4714911 3 0.9994911
0 0.24276718 0.01344513
5 2.2636395 1.923913
0.81775385 1.8058316 0
4.774796 2.7770264 2
0.96987313 0 0.52245748
1.6827224 0 0.57226354
2.7697339 0.27763894 2
0.72594362 1.974014 0
2.3043993 2.5119879 2
2.5613518 2.4734824 2
4.624958 3 1.8529228
2.7488613 0 0.30770552
1.0718319 0 1.2209373
2.2715728 0 1.5711702
4.2510595 1.5773234 2
5 1.6700782 1.4765037
3.4989729 0 0.22258742
3.7958415 2.5933995 2
0 2.5676098 1.5859201
4.5289383 1.5 0.58190048
1.6407608 0 1.6000522
3.3138664 3 0.50302941
2.194473 3 0.89890558
5 2.3075142 0.0077503771
2.4556577 0 1.9499253
2.0717156 2.2385089 0
0 1.1525196 0.90963483
3.5346603 1.2301899 2
1.3885813 0.15701333 2
0 2.6666517 0.93756527
3.2551715 3 0.88307357
0.018752532 0.74750632 0
3.9151642 3 1.8022313
2.7680368 0 1.79725
2.2341158 0 0.64597964
2.4943731 2.1464288 0
0.17368552 0.29020351 2
0.33701184 0.03514928 0
0.69891727 0 1.5272484
2.46966 2.5716875 2
4.4943252 2.6262345 2
4.7418303 3 1.4044068
2.6080644 0 0.80523133
4.8615446 2.1702631 2
1.9157809 1.9183639 2
4 1.1246699 0.01915893
5 1.9484648 0.97800684
3.7422693 0 1.346997
4 1.3588053 1.6062686
0.95295316 0.34621936 2
0.045856491 2.2352996 2
4.3896518 1.5 0.95376408
0 0.094439484 0.25879064
0 2.2464459 1.881423
3.1764767 0 1.1024826
3.9554219 2.8837824 2
4.7001257 2.6259789 2
3.4463406 3 1.5543324
0 2.0495491 0.39362061
2.3191347 0.63769817 2
4.1154828 3 1.6774848
2.887861 0.25678998 0
4.8675642 1.5 0.089596435
0.82936931 0.45548868 0
4.6452017 1.5 0.42385155
2.5361669 2.7462652 2
4.5604415 2.3398502 0
3.0750279 1.1073304 0
1.4572561 1.9665506 0
1.9885737 0.79469925 2
3.8088405 0 0.4282383
5 1.8457426 1.4556088
0 0.21892279 0.92276031
0.99143219 1.4157956 2
3.7913043 1.6787285 2
2.8610528 0 1.5512819
1.9105226 0 0.1030259
0 0.39043787 1.0150511
3.0590441 0 1.5349419
4.6526303 1.9135714 2
4.7875943 3 0.85423428
1.0392497 1.0035104 2
0 0.10026044 0.9563809
2.6832609 2.4739375 0
3.2986782 0.69897246 2
4.3716254 3 0.33662045
0.94887793 2.2219956 2
0.2268699 0 1.0432525
0.29340944 2.833359 2
4.5766096 2.3794544 2
0.49713671 1.6735057 0
4.3000231 2.9994447 0
0.59119779 3 0.52700657
2.5942621 0 0.47445202
4 1.0951015 0.8961007
0.40232274 1.7391404 0
2.6224155 1.4648521 2
2.6108449 1.2377067 0
0.55581999 1.8567573 0
5 2.8761063 0.36911792
4.7850895 3 0.17167348
1.7922713 1.1136687 0
4.7572403 1.5 0.39405936
4.3778996 3 1.4131891
0 2.5921247 0.77642441
0.6410206 2.4793694 2
1.7763896 3 1.285521
0.13728797 1.50342 2
1.8464677 0 1.4303411
4.9931302 1.5 1.9192539
2.4806862 3 0.48411724
0.58939791 0 0.60527784
0.23043223 0.27898401 2
3.996155 3 1.182518
0 0.67282474 0.38374931
1.1897255 0 0.9571687
0.17858893 3 1.025319
2.6388528 0 1.1453756
0 2.257117 1.5959474
0.39349845 1.531477 2
3.1891549 0 1.777884
1.0439962 0.65120918 2
3.5711546 0 0.97042632
0.7035144 2.8658378 2
3.1281834 1.4337314 0
5 1.717307 1.5318999
0.98605144 1.8891065 2
2.2839749 0.032145493 0
5 2.0377326 1.7411027
0.48762491 3 1.5857724
2.3943112 1.6614951 2
2.8392377 0.0057948302 2
0 1.1810963 1.0964549
1.2361077 1.9319503 0
4.9055095 3 1.5739332
0.74107957 3 1.5222967
1.4429646 3 1.4294543
2.7358987 0 1.0148761
0.15400326 3 0.087405115
2.191524 0.40737903 0
2.7267838 3 1.0175933
0.55363631 0 0.86473131
1.8563561 3 1.5844483
2.7620106 0 0.66486555
1.5553436 0 1.4502308
3.9579928 0 0.32961509
3.3804321 1.4952953 0
1.265938 1.6129756 0
5 1.7495015 0.33691087
4.6122422 1.5 1.7191375
0 0.35990426 1.0144762
1.1425542 0.36187196 2
4.8963728 1.8213419 0
0 0.95608371 0.68921596
0.41041532 0.50020373 2
5 1.5884776 1.468153
1.4166986 3 1.0696746
4.297873 1.5 1.8656785
3.9706843 2.0614662 0
3.0921257 0.54290724 2
0.95192331 1.5660034 0
1.6728029 2.2463813 0
2.3038766 0.040641032 0
5 2.4683254 0.27557331
4.2953267 1.7127693 0
3.0078804 0 0.89931011
0 1.9226986 1.8309209
2.6743836 2.6405609 2
0 0.78673577 1.9399812
1.5018578 0 1.1147968
4.8883348 2.9103653 2
0 2.126209 1.3674471
4 0.11103241 0.5120306
5 1.6254106 0.12532063
2.4811876 1.4823954 0
4.6910186 2.3632383 0
1.4591954 3 1.2368995
3.3020413 0.92193192 2
2.4938414 0.89642751 2
3.73558 0 0.91934794
0.35894528 3 0.4805232
5 2.9146001 1.9441285
2.4895475 0.68302894 2
2.2325249 0 0.53094912
0.79711926 2.7353227 0
0.32905537 1.3726749 0
0.85713094 2.1468992 2
3.230953 3 1.9680164
4.587666 2.9936745 2
2.1321239 3 0.15715575
0.08978729 3 1.2177022
4.3968148 1.5 1.9497982
3.7427855 0 1.8589401
0 0.46082446 0.12213972
4.3246298 3 0.28980112
1.3557968 3 0.51363128
0 1.9688976 1.5887595
3.0084469 0.79420465 2
0 1.4019493 1.7489401
1.4104717 0 0.33199936
1.6344807 0 1.8176025
2.5036426 0 1.2369277
2.9014962 0.58537906 0
2.6338141 0 1.1429662
3.7719712 2.818774 0
4.6834059 1.5 1.1965065
4.0363193 3 1.3291517
3.4703023 0.14781269 2
1.433966 0.63079858 2
2.1363919 3 1.1839752
0.54502553 1.5340893 2
2.8329353 0 1.4768026
3.628917 1.4612951 2
0.71891201 0.26763657 0
3.8172147 1.3409082 2
2.101819 0.14322874 2
4 0.82283419 0.93961847
0 1.4494112 0.92835331
0.82677114 0 0.95729852
1.8653189 0.35385406 2
4 1.260394 0.94019628
0 1.6952846 0.15232688
0.7549184 2.4990599 0
4 0.28054029 0.23725207
3.6500309 0 1.4509676
4.0106072 3 1.1330712
3.1582031 0 0.0026626885
0.60504663 1.7146895 2
0.27572373 3 0.83472842
3.2255654 1.7742577 0
3.7811172 1.9824424 0
3.8626745 0 1.013377
4 0.54652834 1.0413283
0.60633993 1.7966893 2
0.030646246 3 1.3079197
1.2416719 2.7545829 2
1.27116 3 1.4500751
0.5051403 0 1.713801
2.6877403 1.4254133 2
4 0.35544807 1.0624909
4.0370927 2.1554182 0
0.60447872 2.8879693 2
1.5305248 3 1.5081868
0 0.83397925 1.2394626
4.2569895 3 1.3154039
3.0426567 0 1.3969712
4.2221637 1.6123893 0
3.4661872 0.60084128 2
2.9090216 3 1.6859568
3.318109 3 0.13848187
4.6224995 2.2518704 0
1.4862313 3 1.7854658
1.9250871 2.8391619 2
0.1478854 2.0187516 0
4.904603 3 0.60837865
1.7236388 2.2306826 0
4 1.0034134 0.18867159
0 0.44778815 0.80675536
5 2.7122223 0.8182283
2.2126849 2.6925893 2
0 2.5349913 0.32612377
2.7694123 0.96197587 2
4 0.16939104 0.63299036
0 2.937305 0.69790983
3.5042086 3 0.77480334
2.8075402 2.4377203 0
3.7166834 2.2091162 2
0.91493577 1.8048435 0
1.4939767 0.84814626 2
4 1.3314531 0.26761633
3.8223331 2.0509844 2
1.6068577 0.047953758 2
5 2.2126472 0.9324438
2.3515096 2.565722 0
1.7747922 3 0.39724618
4.925005 1.687798 2
5 2.2435155 1.2106514
0 2.4183242 1.9361453
3.8176463 1.7219832 0
1.578508 2.0815504 0
2.4802611 0.27668017 2
5 1.9181905 1.2262678
3.7596748 0 0.3367103
3.2762287 1.6559695 0
0 1.0721846 0.54072767
3.7810943 0.85929328 2
4.9323769 1.5 0.34450486
2.928874 2.3632762 0
1.5965663 2.2769558 2
3.8747447 0.6385026 0
2.4316428 0 0.76149678
1.1214992 0 0.40519056
0.54820997 2.913877 0
1.7854496 0.14274383 0
3.3665509 3 0.54590267
4.9700541 2.4995763 2
1.4763114 3 1.2577409
0 2.7098145 0.053287104
0 0.71361399 1.5320364
0.3821741 3 1.6600356
1.8034741 1.654675 2
4 0.59690887 0.22779733
3.3781571 0.099576756 0
3.6230898 3 1.9375261
3.3926947 1.0395759 0
0 1.4778647 0.053373992
3.317234 3 0.95928377
0 1.6448702 1.6697586
3.7642283 2.3270082 2
0 0.10482366 1.4329087
4 0.87611753 0.82246429
0.39143056 0 1.3001089
3.0596113 0.89513624 2
3.2670391 3 1.551535
1.4855862 2.5571895 2
0.22512065 1.7436754 0
3.4863884 1.7229451 0
3.9690003 0 1.0027896
0.42889866 0.12974146 0
4.0660343 2.0123148 0
4.1919475 1.5 1.5944642
4 0.50958496 0.59694892
2.9088812 3 1.737195
1.6843412 0 1.8653548
3.4403548 2.1173644 2
0.66037601 3 0.82517296
4 0.41823623 0.6936636
1.9505098 1.0109262 0
2.2806008 0.025851211 2
0.44417557 0 0.56107473
2.3068576 0.41670933 0
0 2.6076193 0.075897403
4.109621 2.9483292 0
2.4938309 2.4502876 2
3.9335299 1.0450625 2
1.3351754 0 1.1755491
0 1.761319 1.3518752
4.1041565 1.8582214 0
1.2971991 0 1.9188471
3.6029088 0 0.71555161
0 2.8707192 0.24610399
5 1.9675177 1.7355162
0 2.9016769 1.6823614
3.3683937 0.03854185 0
1.4766253 1.2625494 0
0.220434 2.3041313 0
3.421731 0.30662426 0
4.6162777 2.0796373 0
1.3813813 2.0217936 0
2.7425754 3 1.7394482
5 1.9531705 1.5549548
1.6500226 0.77779418 0
2.1178756 1.0853553 2
4 0.93902832 0.75451285
2.0622852 0.23078287 0
3.4939966 3 1.8622278
0 2.418257 1.6940089
2.7041125 1.3599886 0
4.1449561 1.9565876 0
4.3648677 1.5 1.6457447
0 2.176029 1.2250801
4.5482969 1.5 0.54667538
3.7946479 1.9437522 2
1.1622052 0.47148308 0
3.374156 2.7211945 2
0.6612649 0.75517356 0
3.4664292 3 1.805984
1.9943067 0 1.4369582
0 2.4343469 1.4574811
0.47760639 0 0.1128545
0.63202435 1.7139689 0
4.7598763 1.8612026 2
3.9189115 0 0.22078766
3.4602287 0.8996731 2
1.4380552 0 0.77907443
1.4396718 3 1.5296091
4 1.3470597 0.37442496
0.53078926 1.7657082 2
1.6846646 0.93212873 2
1.7564187 3 1.8748994
2.0234926 3 0.96608382
1.907409 3 0.81502283
3.5638344 2.1597123 2
0.92805123 0 1.9856213
4.8500299 3 1.2770007
0.67123055 1.9489425 2
2.9212296 0 0.72294295
0.5681597 2.5755615 2
4.7147832 1.5959154 2
2.338145 2.3337829 2
2.0754132 1.5895987 0
1.1030563 0.29607797 0
0.71939397 1.3536721 2
0.68906903 1.146222 2
3.7871125 0.6280548 2
0 0.82572061 0.056198303
2.1900427 0 1.0932719
4.2816744 1.8285669 2
4 1.1625408 0.86251265
0 2.5907063 0.2625092
1.4407456 2.0824416 2
4 1.3199985 1.3109777
4 0.76062679 0.19035581
0.24849525 2.5948107 2
1.355445 0.20087662 2
4.0054421 3 1.8022745
0 2.6782415 1.0893611
1.3662974 1.5849903 2
0.54710954 3 1.8572669
1.899489 0 0.28669012
1.2112068 0.42901871 0
4.4122581 2.4542208 0
1.4785676 0.77163476 0
0 2.7019761 0.74767059
4.9294348 3 1.3001678
0 1.6726112 0.43180621
4 1.2417502 0.1868338
4.6010194 1.5 1.1001569
0.16864075 2.6945004 0
1.7893834 1.3069097 2
4.41784 3 0.61354691
0.96260965 0.31615108 2
3.2315972 0.97523814 0
4 0.076076292 0.097612783
0 1.5397476 0.82472378
0.72267491 2.2164061 0
0.89410859 0 1.5817488
3.9768705 0.94960606 2
0.44970375 0 0.87392932
2.7163777 0.98253441 2
1.4191936 2.3828368 2
1.7281219 3 1.4033505
4 1.4343071 0.98820281
0.72733539 0.090933912 0
2.5810061 0.97863364 0
0 1.3240358 1.7831049
2.4271586 0.68880618 2
0.31076595 2.6431208 0
3.3470423 2.2884278 2
0.26668808 0 1.0164557
0.30490637 0 1.5440196
3.3552747 3 1.5769428
4.4750466 1.5 1.6073415
3.2476892 3 1.0255488
0.3705892 0.79369241 2
3.419492 0 0.46250606
3.2334361 3 0.66103691
2.2900929 1.5220532 0
2.2684824 1.0063725 2
0.92084503 3 1.2730812
1.6307632 2.0631635 2
4 0.4664391 1.3892545
3.6561418 0 0.46549281
0.13908474 0 0.90475488
4.5806675 3 0.53144431
4 1.2174903 0.00078847632
0 2.2021754 0.27205309
1.7871158 0.42703632 0
3.9830706 1.8842133 2
3.987639 0 0.086812213
4 0.97509789 0.23870546
3.1739638 3 1.4465427
1.1853814 3 1.3557107
1.2035812 0.74029225 0
0 0.56056559 1.6332185
3.1155689 0 0.48993948
4 1.0041025 1.54896
3.3313262 0.45213273 2
2.4796557 2.2974977 2
0.31534466 0.61312687 0
1.0480884 0 1.6277013
2.0492158 2.2742267 0
0.037213586 0.19352536 0
3.8324153 3 0.48916727
0.02741557 2.9756238 2
3.3803065 0 0.0035181232
1.4916002 0 0.83139813
3.2572966 0.71089846 2
5 1.6830552 0.72587448
1.6264555 1.7954752 0
3.0902963 0.42658898 0
2.5642231 2.0964448 0
0 1.4903344 0.87514663
4.8729773 1.9847344 0
1.4047199 2.1337364 0
1.1880846 0 1.5975406
3.2975845 0 1.3163193
2.2478342 0 0.49897981
1.5640485 0.079919703 0
3.9160144 3 0.73473543
4.9567585 3 1.1376691
3.4054708 0 0.13299009
5 2.799119 0.58083653
1.7833924 0 1.8039348
0.56730676 3 1.3141056
2.6160455 0 1.0109029
4 0.87320352 1.0331098
3.9577959 1.7084508 2
1.7810494 2.4853718 0
3.6773393 0.34423098 0
4.2857599 1.9789807 2
3.046685 2.5171032 0
0.49948499 1.5225501 2
2.7036288 3 1.3538848
0 1.444937 1.8333896
2.4076169 1.4826094 0
0.81461233 0 1.5716535
2.1016788 1.0312475 2
4.604229 3 0.63375199
4 1.0969512 1.8307878
3.8792744 3 0.49142158
3.4659545 2.7861588 2
1.2144512 3 0.94564879
1.3687139 2.6973965 2
4.4159827 3 1.4339641
1.3626256 1.0715392 0
3.4293923 1.5059737 0
5 2.6338773 1.6313902
1.9744753 1.2024344 2
4.6824546 2.3891888 0
0.92642277 0 1.9555496
5 1.9543188 0.9677273
3.8939161 0.35026038 2
3.442189 0 0.69604391
0.5779835 2.5892267 0
1.8715996 0.6099571 0
4 1.1995147 0.95086598
0 0.75139976 1.5265104
0 1.8319879 0.65663922
1.368173 3 0.34823936
0.21316916 0.80914056 0
4 1.1156989 1.7511858
1.062832 0.85535485 0
0.67675883 1.0613763 2
2.4818404 0 1.8281997
4 1.2235949 0.29960117
1.710271 2.1390433 2
0.71477568 3 1.1318793
5 1.8667903 1.5282035
4.3352442 3 0.10703783
0 1.6718581 0.77654809
4.5590267 1.5 1.5494598
3.9595366 1.7970604 0
3.7542374 0.10247336 0
0 1.7963449 1.2978162
1.7124835 2.1450169 2
1.6637927 2.7726803 0
4 0.90803498 0.82749057
2.7766535 0 0.81838655
1.294724 0 0.84391505
0.59410471 2.8887756 2
4.5420518 1.8627855 0
3.539753 2.6181631 0
0 2.5897057 1.6268574
0.47620943 0 0.21567467
4.9086757 1.5 1.1200365
2.3786564 2.1696243 2
3.7233136 3 0.1533186
4 0.88400435 0.53180921
0.47465628 3 0.59833032
2.0173132 1.0413636 0
4.4894829 1.5 1.0901376
2.3307793 0.64240545 2
1.7411543 0.19596866 0
4 0.033602387 0.4552246
1.9491005 2.4094694 2
5 1.9521427 1.6790293
2.395092 3 1.2380309
0 2.928745 1.4419649
0.5243631 0.86144578 0
1.2856091 3 0.36735255
3.1338871 0.97080696 0
3.7419636 0.7259503 0
0.98154843 0 1.8844293
1.9738759 0.25000662 2
3.4982312 0 0.75488603
1.9068902 2.1530514 0
0.13830498 1.9548794 2
4.6474652 1.5 0.64743751
2.0577455 0 0.56780916
0.77738708 0.007919712 2
0 1.4127674 0.12438446
3.5380628 1.9440923 0
0.52841705 2.3279145 2
1.7520754 0 0.93524635
2.96772 3 1.3712964
1.5436691 0 0.57801235
5 2.5751624 1.8278524
3.9677389 3 0.9839046
4.3954387 1.5 1.9043736
3.978338 2.0787201 2
1.3431121 1.6498764 0
0 1.7664272 0.0043948554
0 1.8599277 0.9580639
0.74910885 3 1.4413215
0 1.7412368 0.21987756
0.24628545 1.7186327 0
4 1.0623467 0.36001366
5 1.6647352 1.8006464
4 0.53925282 0.9184317
4 1.3836472 0.96109486
0 2.6816745 0.61681402
2.775799 0 0.89197284
1.7047914 0.144776 0
4 0.13524877 1.2203271
0 1.2425172 1.949464
4.6417255 1.5 0.66225368
0 0.52789843 0.048307419
0.39367637 2.5857418 0
2.5421519 2.3559747 2
0.81918263 1.9518962 0
0 1.0606936 0.78191513
0.15357894 3 1.3940989
0.23470078 0.08568532 2
0.072933927 0.34580719 0
0.043029226 0 0.52119237
1.6310937 1.5186905 0
2.9535408 0 1.823886
0.51112455 2.4475105 2
4.0677032 2.5871875 0
0.90474612 1.0049696 0
4.8609543 2.3024242 2
4.0886312 2.7753012 2
0.73983306 0.32140505 0
1.2242377 3 1.5945071
2.0342228 0.043162782 2
5 2.0093434 1.5043912
3.3865521 0.35501707 2
0.62595576 1.4819338 0
4.9809537 3 0.92535383
3.4946554 1.2216154 0
4.9253383 1.5 0.27343956
0.63180256 0 1.4209771
2.7692492 1.6057765 0
0.61207807 0 1.7758611
1.1998833 0.8284443 0
4.6376362 1.6223446 0
4.2512774 1.5 0.31248596
0.61956626 3 1.8415561
0.44983175 1.3438488 2
4 0.68156403 1.4669896
5 2.9366901 0.19628105
0.99644512 0.22396742 2
4 0.91294956 1.5900061
3.0506022 1.465739 2
0 2.8692136 0.67663956
3.8449984 0 0.9117676
0.74072093 2.7868309 0
1.8986181 0 1.6501621
4.3916492 2.1387701 0
4 0.70361477 1.4532957
2.4407494 0.90191406 0
2.8673658 2.4701626 0
0 1.9171685 1.5945003
5 2.7025666 1.122269
1.7070162 1.0962057 2
0 2.8780742 1.525745
3.8084264 0 1.417581
5 1.7956599 1.1582094
5 2.6789649 0.78751057
0.8579253 1.2972504 2
3.3413014 0 1.166532
2.0496371 0 0.53201079
2.3820028 0 0.73748428
3.1195333 1.4086204 0
0.93880773 3 0.80747867
4.4451513 2.1724839 0
2.5775504 0 0.82801086
3.5635316 1.0980715 0
3.9885957 0.11700451 2
0 0.76688248 1.1307918
1.8672843 1.7944074 2
2.7200425 0 1.2961632
1.3865788 0 0.76502705
2.2818084 3 0.94710612
4.4870691 3 0.81046981
0 0.24659981 0.65542078
3.2193441 2.1609781 0
1.2452559 0 0.79800433
4.9969411 3 1.7136121
4.1046996 1.6398164 2
2.1674051 0.20683767 2
2.3165243 2.5272799 0
4.3958707 3 0.020067275
3.8475182 0 0.65435821
3.8718858 0.049847528 0
1.1803399 0.34343907 0
2.5176451 3 1.1631767
5 2.2664683 1.3224046
3.4513276 0 0.31307566
2.5999274 0.39535728 2
4 0.42069358 1.4498712
1.6156898 0.61887705 0
0.78971797 3 1.5537394
3.0504179 0.12272545 0
4 1.169337 1.3710343
2.1417615 1.8579375 2
1.7557074 3 0.23169391
0 0.95265484 0.68654597
4 1.0608802 1.3368185
4 0.43014893 0.061090156
1.6824927 3 0.11273996
0.2251194 3 1.8647122
0 0.62948114 1.4474884
0.86842102 1.1189755 0
3.8837404 1.1312695 0
4 0.22969842 0.41918999
0 2.0630183 0.29526886
3.9037352 1.870532 0
2.9391577 2.1943207 0
4 0.93039799 1.0550282
2.4793987 0 1.5127118
3.0767083 3 1.7559524
1.3128321 3 1.3157951
3.3689222 2.0507991 0
4.827889 3 1.4979094
0.38131586 0 1.4196315
4 1.0929532 0.37148398
1.1267779 3 0.016385039
3.4503031 1.8315144 2
2.5246193 3 0.31507111
3.0811586 0.49768627 0
5 2.0903888 0.25826275
0 2.9049892 1.9218333
0.40546754 0.53224653 2
3.2623932 0.57143515 2
0.31726301 0 1.8001277
1.7345829 0.56431085 2
0 0.23310719 1.0767678
3.3665314 0.096673593 0
2.6054912 0.29599693 0
1.2730168 2.8361778 0
2.9595647 0.3202579 0
1.9558479 0 0.18847255
1.9741774 1.1970733 0
3.3011904 1.6152962 2
0.82711399 2.5194085 0
1.4388102 0.034514762 0
1.793008 1.8217368 2
2.4585726 1.3396313 2
1.9791125 3 0.70675379
4.6289234 2.3018048 0
3.6334505 1.041338 0
4.7354732 1.5 1.8464164
2.5710781 1.1239852 2
3.8248699 0 1.2194003
1.9836912 0.94111949 0
0.92608094 1.9340273 2
1.2093626 2.2349548 2
3.2177846 1.2361125 2
1.9869999 2.1647015 0
1.2246531 3 0.44956237
0.73237848 1.2045852 2
5 1.8239763 1.4302939
2.9900837 3 1.0065293
1.6727782 3 0.66117626
2.3503406 1.2243656 2
3.096453 0.83631843 2
3.3158033 3 1.7355146
3.5016332 2.4047811 2
2.0010395 2.0198891 2
1.3691374 0 1.8552585
5 2.6510763 1.4555063
2.9156635 1.0331715 0
0.1581863 2.8699949 0
1.2589319 0 0.34190795
1.6694739 2.7034686 2
3.6170819 2.1718125 2
4 0.43759164 1.7792449
1.84945 3 0.48071077
1.561896 1.0843111 0
1.2079744 1.854386 2
4 0.94754744 0.45870259
3.7964935 0 0.051523466
1.972271 1.660553 0
0.25945267 1.0501462 0
2.0603404 0 1.204987
1.1576763 0.24977824 0
2.65275 1.2822791 2
4.581697 2.2539051 2
4 0.88709176 1.8463038
4.430388 2.5687878 0
5 2.6505404 1.5110525
5 1.8391496 0.25405076
4.0514021 1.6365867 0
4 0.63544554 0.15369447
4.9858851 3 1.0697125
4.9072528 2.4051549 2
0.46576512 3 1.1830261
0 0.40359229 0.036804821
1.8913027 3 0.87848866
1.4436128 0 1.1288471
5 2.5722363 1.5616727
4 0.25775576 0.93009675
1.2600383 1.0388498 0
3.0389507 2.6153581 0
3.979141 0 0.86964583
0.73189741 0.28465593 0
4.6217184 3 1.3334994
4.9828629 2.2872024 0
4.5672998 1.5 0.59261507
0 1.8603069 0.35591218
4.412972 2.2603471 2
1.9611478 2.9790726 0
4.0806956 2.0942311 2
4.7964587 1.5 0.70384896
1.1282765 1.2291656 2
4.31078 2.9605587 0
3.7447832 3 0.11139165
1.4786444 3 0.90308446
1.1221073 3 0.55077255
0.48962128 0 1.6084148
0.038090222 1.3885376 0
4.3878121 2.7348158 0
0.91077864 0.88886523 0
2.4260256 0 1.8207674
4 1.369609 1.2172142
0.24174005 0 1.3884926
0.1776605 2.5408888 2
2.0800285 1.3995864 2
1.6186836 3 0.77964813
2.8906574 1.749377 0
0.058401365 3 0.56639796
4 0.24760263 1.5676372
4 0.45594728 0.21193573
0 2.6637747 0.57147187
4.9088092 1.5 1.6208361
4 1.490895 1.3226823
4.5011058 2.7580569 2
0 0.012561165 1.3916217
1.0257032 3 0.034664325
1.9039277 3 1.6807121
4 0.33112052 1.6355523
0 1.6828117 0.28909931
4 1.1758205 0.67272359
4.7777901 2.7251041 2
0.81038392 3 1.1553551
2.4602671 2.763911 0
4.346312 3 0.016527427
0.60139906 0 0.058220267
1.7488902 3 0.82642961
4.5810404 1.5 0.53520358
0.57842851 3 0.75837207
2.121805 0.19103569 0
0 0.40069589 0.19912186
0.67787158 2.9926991 0
1.0125593 1.9124831 0
4 0.07213027 0.7513746
3.5146303 1.2965677 2
1.0440066 1.9461486 2
3.5533905 0.074932553 2
1.4753753 1.0751148 0
0 0.46765038 0.065901257
4 1.4445715 1.7259803
4.8691459 3 1.1665999
2.7449374 0 0.85762441
0 2.7837558 0.96327907
0.30455458 1.7829924 0
0 2.7355828 1.4592004
2.1704006 0.099204771 2
4.5512552 1.5 0.20322599
2.3849447 3 1.1939559
2.9998703 1.5689508 2
4.8813229 2.2812862 2
0 0.98189968 0.59384525
3.0055768 3 0.26536924
0.74966556 0.74114543 2
2.6587377 2.2193587 0
4.8450561 3 0.045694716
4.0462298 2.3672805 2
0.62908757 1.8423898 0
3.8474977 0.53014004 0
0.11359563 1.274763 0
2.2068033 3 0.24488455
2.2859049 3 0.15427206
0.42453486 2.7221844 2
0.7665171 3 0.78607559
0.47593483 0.41620696 0
2.5296376 0 0.64532632
4.9095368 1.5 1.6194752
0.70637834 1.1181195 2
3.9813504 1.3081722 0
4.487669 2.8151617 2
1.6469646 2.8310883 0
0.099505872 1.885141 2
0.92232555 0.12499368 2
5 1.8368449 0.098141544
4.0883327 3 0.43757737
3.7822676 0.1636242 0
0.4056423 1.1334255 2
3.8065526 0.22776824 0
0 1.9430919 1.7007922
0 1.4937888 1.1923602
0.78335434 0.011778342 0
3.5445976 3 1.3847429
0.66780239 0.02952406 2
1.6617196 0.61665869 2
0.98966515 3 0.90100294
2.6036172 0 0.43616346
0.59718168 3 0.56607944
0.80745012 0 1.5397902
2.6456776 0 0.12919781
0 1.5951592 0.94560444
0 1.5063195 0.76074845
4.1076813 3 0.76324141
0.75532693 1.4454715 0
0 0.80321288 1.7646068
2.5338852 0 1.5285479
4.6497355 3 0.54830873
1.137428 3 0.53534114
0 2.4539695 1.222824
0.096322775 3 0.55875224
1.4892238 0.97605103 0
2.0425479 0 0.19371985
4.0372057 3 0.094465531
0.85326815 0 0.95450109
2.3111856 0.655119 0
3.8995624 3 1.6923134
0.8785277 3 1.9293314
5 2.5526567 1.4943572
0.51190287 1.7024757 0
0 0.93273252 1.8443418
2.5056167 0 0.084118582
0 2.011647 1.9218136
4.3077698 3 1.6412816
0 1.4381509 1.234153
0.16826527 1.4222543 0
0.64246804 1.6691658 0
0.50473064 3 1.4065144
1.2133107 0 1.4025998
0.7186178 3 0.57464224
2.8223433 0.45942733 2
3.939395 2.4572132 0
1.9132614 0.82769352 2
0.80826247 2.4530387 0
0 2.0193367 1.7706457
3.5164857 2.9183259 2
2.9817257 3 1.7980628
2.7692168 0.055963632 2
1.271028 2.0445502 2
0 1.1482381 1.2885388
1.003266 3 1.1379317
0.7996375 0 1.1967684
0.55813414 1.9520371 2
0.26152083 3 0.043698929
4.876297 3 1.9342177
0 2.9357576 0.80494916
2.2967312 1.6276135 0
3.5377336 0 0.49299803
0.94638187 0 0.94835031
1.7246219 0 0.36079431
0.4602572 1.3851274 2
4.3036728 2.5856795 2
1.0762818 1.4598751 0
3.9567103 0.83763582 2
4.4069633 1.5 1.3517934
1.2838435 0 1.7429961
4.9543476 3 1.1594722
4.495842 1.5 0.37898552
3.6114902 0 1.0405126
0.20940502 1.7259706 2
1.9294003 0.60776311 2
4.158977 1.5543305 0
0.25610331 3 0.86219311
0.62457806 0 0.95323706
0.41780144 0 1.2188097
0 0.080212563 0.027266879
3.9396944 0.6732437 2
5 2.5616264 0.26762351
1.2705456 3 1.5273901
0 2.9598041 1.0612566
1.2581941 3 0.59986186
3.1000619 0.88233751 0
1.4657204 2.0821702 2
0 2.707983 1.2469182
1.8464161 1.8212206 2
4.642652 2.1543663 0
4 1.1544901 1.718223
0.50347304 1.1043514 0
0.70185667 0 0.65202177
3.4131703 1.6369098 0
1.0957854 3 1.0287268
0.56171209 0.60091209 0
4 1.0908674 1.6946734
5 2.7801406 0.59060323
1.8703758 2.3084676 2
3.4630108 3 1.2831268
1.4529167 0 1.9349803
1.1170312 2.235214 2
4.4922881 2.6206903 0
2.1549554 0.13706182 0
3.7820747 0 1.4784292
1.1270919 2.326689 2
2.3013506 2.1593587 2
2.3416293 2.8302619 0
2.5137968 2.4924095 2
4.5584898 3 1.4427928
4.0186706 1.8667891 2
1.4813483 3 1.5067298
4 0.98632658 1.6652157
5 2.6940575 0.44285581
5 2.5295618 1.1686184
4.6412706 2.3721821 2
0.35166827 0.51416719 0
3.2747815 2.6872706 2
0.90724844 3 1.168147
0.12206581 0 1.5634997
3.9304767 3 1.9360621
0.50404501 0.82953107 2
4.7218256 1.5 0.76404995
4.4598718 1.5 0.97091448
3.8987222 0.40975496 0
0.42384127 1.4930406 0
0 2.967499 1.2322786
5 2.2517564 1.7436558
0.4541046 1.148533 0
2.16363 1.9082524 2
4.5151443 3 1.1119293
1.8301741 1.5046705 2
3.6093183 0.20526789 2
0 0.79705268 1.9558656
0 1.225842 1.6949415
1.4973956 2.9320326 2
5 2.2604823 0.83294797
4.9954553 3 0.1693881
4.6134052 3 1.7994211
3.7983811 0 1.2031177
2.711139 3 0.2502431
4.4499073 1.5 1.634973
0 2.7398038 1.0273253
2.6708169 0 0.8931784
0.85794234 0 0.48686251
4.5749884 1.5 0.3503688
2.1113214 0 1.5559403
2.3063328 1.4601574 2
4.2792706 3 0.69312626
1.3967534 0.14543806 0
1.6954769 0.092498742 2
4 0.81258994 1.1669564
3.6022925 3 0.23620844
0.31152812 3 0.15609553
5 2.3388126 1.1060672
3.4372613 0 0.64655596
0.13786684 3 0.31491128
1.2750782 3 0.51172459
2.9615324 0 0.94177127
4 0.52864915 1.1828362
4 0.83112216 1.6465091
4 1.0856408 1.0454541
0 1.9500358 1.6442279
4.1524014 3 1.3726792
3.3665478 0.5505951 0
4.8065066 1.5 1.866019
3.1259384 3 1.1342096
4 0.7906248 0.81949431
3.0372939 3 1.4844341
3.0100121 0.044492312 2
3.7125998 0.47416764 0
0 2.8922784 0.019499434
4.6110263 1.5 1.1385216
2.9564078 2.8083518 2
2.7609897 0.36460897 2
4.849534 3 1.4938291
1.30615 3 0.57510436
0.09459047 0.48433653 2
4.6336212 1.5 1.1491159
1.152514 3 1.4812025
3.1141684 0 1.4128879
4.0970836 1.5 0.92523909
4.2871685 1.7811636 0
2.2055893 2.5892878 2
1.4384842 0.034050643 0
3.487505 1.8895181 0
1.5417489 1.8588688 0
1.2305866 0 1.8483599
1.6867263 0.6370278 0
1.8439208 2.4467859 0
4.501195 2.0298328 2
0.21307044 3 0.34558734
4.1049628 3 0.72320002
0.25340196 1.6947817 2
2.0435066 0 1.2816917
2.2158492 1.9770893 0
4.2597075 1.5 1.2016655
0.22148134 1.3354013 0
5 2.8978477 0.86140299
3.018024 3 0.70463294
2.6783066 1.0252082 2
2.1493056 2.4636633 0
2.7300811 2.3999588 2
3.7997231 0.48902521 0
0.43141055 2.2672646 2
0.4540419 2.2475815 0
1.4728795 3 0.68041039
2.502357 3 1.9542506
4 0.28222892 0.48077771
2.3713677 2.8529236 2
2.2422905 3 1.1480931
3.8001988 1.4593236 0
1.1520808 0 1.251328
2.6306939 2.7736928 2
4 0.89094418 1.384331
2.8928676 2.4031005 2
5 2.6604118 1.5179965
4 0.4774211 1.0999706
0.48506367 0.73691589 0
1.9747796 3 0.47325918
0 2.8258519 0.65021509
4.7009435 2.1362741 0
4.0421424 2.7082181 2
3.6500702 0 0.09021353
3.084388 3 0.16769938
0.84619105 3 0.71757901
1.3949095 0 0.94881558
1.6084042 3 0.030846365
0 2.7570715 0.43747705
0 1.2916152 1.0210608
0 0.6400882 0.91980243
3.8387952 0.19210313 0
4.8042703 2.3272989 2
0.97013903 0.038127061 0
0.39741728 3 1.4379749
2.7460375 0.26970172 2
5 2.0880404 1.5588669
4.2685509 1.5 0.6720342
4.3233976 1.5 1.8323998
1.6947205 0 1.1202588
4.2085447 1.5 0.84985155
4 0.11763132 1.8105859
0.49360609 1.0945694 2
1.9340734 3 1.5394994
0 0.31892371 1.2655685
4.9106059 2.2586224 2
2.4970636 2.5188789 0
0 1.3488319 0.46789876
0 0.57435775 1.1642072
3.6200633 2.3391218 0
1.0764709 1.9411325 2
3.4971573 3 0.79193079
0.99074882 2.49859 0
2.4906194 0.9076767 2
4 1.2575257 0.61199093
3.5054789 3 1.2996875
2.29124 3 1.9024585
3.9710906 3 1.8994439
1.3174241 0 1.9436413
2.7127092 0 1.5721037
0.77212995 2.093946 2
2.0880072 3 0.11170314
0 1.0956095 0.8019703
2.456764 0.64086205 2
2.0461135 3 0.14925618
1.8206954 1.871447 0
0.98810273 0 0.25345817
2.3560524 3 1.5787265
0 2.8177915 0.60054356
4.6941776 2.6714816 2
0 1.9941372 0.0081947735
2.2434587 0 0.14401883
0.054040052 1.9508282 2
1.3207991 0.50402063 2
3.4149003 0 1.2747644
1.2163019 0.84849632 2
4 1.3920423 1.3631729
1.7297542 3 0.39710814
1.0420454 0.37563705 2
0 0.24787818 1.3491004
3.0097098 0 0.45278901
0 1.5849965 1.433772
4 0.74285853 1.0197554
0.26464725 2.8733757 2
5 1.7527102 0.23824471
5 2.98473 1.7131169
0 1.6314027 1.6811267
0.79095691 0 0.033824325
3.4080732 3 1.6159176
1.6839998 1.1747149 0
0.19540219 0.42279723 2
4.8746614 1.5 1.2711973
4.9825411 1.5201768 0
2.1666138 3 0.53701788
0.44766286 3 0.9935891
3.6432042 1.5347284 0
2.0535886 0.22067243 2
4 0.72410673 1.9501613
0 0.30912727 1.9593142
0.29571137 3 1.4124928
0.9241702 2.7385361 0
1.8757346 2.171345 0
0 0.31596494 1.0206386
0 2.4081929 1.4498059
1.3963288 3 1.7777729
4 0.76485664 1.7983627
1.6554487 1.7757404 2
1.4945924 0 0.64909142
0.15893227 0 0.44632015
1.9940327 3 1.6619383
2.7528043 0.41355118 0
4.3054466 3 0.37506601
3.5135236 3 0.24529691
2.9595988 0.59978288 0
4 1.3618186 0.41625115
0 1.7832106 0.84376943
3.3843665 0.51752287 0
2.1375868 0.19974631 0
4.8802366 1.5 1.0669795
2.1262159 0 0.13429125
0.11523923 2.7624621 2
0.3228175 3 0.33668324
0 0.4363187 1.5778641
0.32933903 3 0.43487465
2.9594343 0 0.10653299
2.641191 0.56308627 0
0.23493773 0 0.76173943
4.3121557 2.2456074 2
0.3753522 2.1314449 2
0.71716762 2.7825484 2
2.0731537 3 0.87575954
0 0.34091029 0.39268836
0.82170874 0 0.0019424818
0.87496752 2.313868 2
0 0.72031862 0.67162722
5 2.8106489 1.6200476
1.4127977 1.2465912 0
0 0.40982026 0.26437458
0 0.90462989 1.7783263
4.5218434 2.9986172 0
4.315268 3 0.53715903
4 0.16959381 1.8071728
2.7243531 3 1.1685171
0 1.4029078 1.296688
2.6155918 0 1.6358258
0.2282888 2.5290546 2
3.8648758 0.5016858 0
1.1035795 0 1.4428142
1.2427331 0 1.6385208
0.66633022 3 0.2305678
4.6884551 1.5 1.8404537
1.0005155 0.1606281 2
4.9467392 1.5 0.62293494
3.2980897 1.7392761 2
4.8491035 3 1.2547567
2.6243417 0.13465616 0
3.3677678 3 0.4584159
1.1533834 0 1.8018389
0 2.3475139 0.35386303
2.8854296 0.6356743 0
1.4726834 0.42030856 0
3.1840918 3 0.13446467
4 0.37194654 0.27437028
0.17308597 3 1.4672146
3.9731281 1.0769296 0
4.0046892 2.9376409 2
0 1.6827264 1.0330548
2.8430278 1.8142806 0
0.10178072 0 0.75177276
0 2.6615403 0.21461865
0 2.0089343 1.776311
3.2080336 2.11427 0
4.0313201 1.9585629 0
4 0.060144406 0.99669778
3.1224473 0.12566976 2
4.3446794 3 0.67326319
3.7896686 2.5784385 2
1.1948245 3 1.8513224
3.1362591 0 1.4735196
2.5058222 2.7124417 2
2.0897157 2.3295379 2
3.0581367 2.0530245 0
1.6090693 3 1.3378994
4.2026548 2.6682649 0
0.73227859 2.2102823 0
5 1.6932116 1.9135073
0.50246638 2.2078402 0
0.20136148 3 0.65546072
1.0798622 0 1.1612821
2.3848412 1.0199027 2
4.2128396 1.5 0.37070045
2.1423554 1.2497362 2
4.3164754 2.4592111 0
1.2870579 3 1.2667738
0 1.2786208 1.8883365
3.7083108 3 1.5365245
0 0.53659701 0.8451699
0.045214314 0.92902589 2
2.8671894 3 0.6414662
3.2722836 0 1.7517859
0 1.0532384 1.8037131
0.20595747 1.0871388 0
3.1346653 0 0.52448583
4 0.60567349 1.718621
5 1.6819443 0.12377141
5 2.4218307 1.9965696
0.55940098 3 1.8172402
4.7656374 1.5 1.8186772
1.6713581 0.62134844 0
2.3007882 1.1893092 2
0.4314571 2.9963932 2
2.5371807 1.4460858 2
0 2.1039622 1.4650091
5 1.9759521 0.31024989
4.676187 1.5 0.98951411
0 2.033381 0.31676444
0 2.9352543 1.5728512
3.994061 0 0.67828816
5 2.5187507 1.5607985
2.7113764 0.77402908 2
2.7537432 0.14404829 2
4.4643559 3 0.18241765
1.2434335 2.9957786 0
2.2555385 3 0.10317723
0.29046392 1.9288839 2
3.0818586 0.45718813 0
3.1264355 0 0.37525523
0.23823674 0 1.1325392
3.4470587 1.9930117 0
0 2.9435246 0.01310412
3.934819 0 1.1173316
4 1.3366705 1.0379262
1.8703927 3 0.81999844
3.758575 0.12759775 2
1.0590302 3 1.9077938
4.079751 3 1.6988839
0 2.856884 0.49942648
1.9818826 1.7481687 0
2.9216504 0 0.26156041
4 1.0411538 1.2706312
4 0.77340448 0.33035994
4 0.28205916 0.29686743
4 0.67201567 1.9615986
0.94273239 0 0.029646132
4.4984555 1.8449687 0
0 2.8036489 0.083971113
2.2138205 3 0.80449849
3.6888232 0 0.31664252
2.27582 1.6102872 0
2.9297543 1.6666776 0
4.2518468 2.0402565 2
3.5424211 0 1.8368216
4.7676959 1.5 1.7988509
1.3834653 1.7264524 2
1.5130416 1.572917 0
3.6368749 0.48420972 0
1.4169476 0 0.99954897
4.9810963 1.5192314 2
2.5452757 1.7677035 2
1.9310751 3 1.9585544
3.1082478 0 1.8843899
2.0607243 2.2495391 2
1.9431721 0 1.6664135
3.5713449 1.8889105 0
4 0.90510005 0.93517369
0.53550953 0.15614577 2
2.9381225 0 0.20783608
0.16410978 3 0.62906492
1.9012046 0 0.21773204
3.7290015 0.31741881 0
0 2.5528569 1.4112494
