# .PCD v0.7 - Point Cloud Data file format
VERSION 0.7
FIELDS x y z
SIZE 4 4 4
TYPE F F F
COUNT 1 1 1
WIDTH 2122
HEIGHT 1
VIEWPOINT 0 0 0 1 0 0 0
POINTS 2122
DATA ascii
0.17751117 0 0.53977376
1.8668301 0.93310899 2
0 2.2099891 1.9771305
1.1038406 3 1.6045575
5 1.5067602 1.5769166
0 1.2759714 0.10736741
5 2.2320383 0.1539287
1.9839863 1.6022947 2
5 2.7476988 0.20258284
5 2.7478595 1.6779635
4.3531594 2.4108996 0
0 1.5910562 0.52182251
2.7061462 0 1.553859
1.5106519 0 0.20978236
1.9394594 3 0.024977732
3.8578734 0 1.7921754
1.0052625 2.1412284 2
1.617353 0.073610283 0
3.9006739 1.1207834 0
2.8562284 0.97611135 0
4.8232393 3 1.5798783
4.0209422 1.5 0.57239276
3.0079331 0 1.673748
2.5894361 1.9919394 2
0 0.26007992 1.7724456
2.750437 2.3453333 0
3.3765187 0.72559482 2
3.1333964 0.40390202 0
4.0425024 1.5308 2
1.0730993 2.7011518 0
0.26916072 0.77887821 2
3.4464359 1.9695438 2
0.56429791 0.5353725 2
3.6930852 1.6385028 0
1.3895289 1.1212127 2
0.7234211 0.85161352 2
0 1.8734961 0.42618403
2.9980564 0 0.64501375
2.4993174 3 1.9117166
0.68604243 1.1278074 0
1.9506639 2.929863 2
2.8529773 2.4384837 2
0.20862174 0.38603884 2
0.21716683 3 0.88453233
1.5723156 1.3965635 0
4 0.71524441 1.0953325
0.040009491 0.92575598 2
4.046793 2.0550075 2
1.9091657 3 1.7830752
4 0.47094622 1.2530423
2.3862784 3 0.80470753
4.0072784 1.5 0.94449264
4.9024096 1.5 1.750585
2.288413 1.3619052 0
4.4639597 3 1.333279
3.6837482 1.8708364 2
0 0.02973301 1.3351531
4.031682 3 0.67024946
2.6778352 3 0.10042031
0.68998933 3 1.800964
1.009873 0 1.3689327
1.3992014 1.9223398 0
3.8395233 2.6153736 2
0.80407763 1.1938602 0
2.4643245 0 1.3469359
1.5507976 0.99221379 2
3.4785967 0 0.96940076
0 1.8464665 1.9154336
0.96533453 1.4332516 0
1.4304479 2.3824549 2
4 0.74727768 0.11179481
5 1.6752422 0.237396
4.0417819 2.6103516 2
2.8563616 3 0.083207168
5 1.8369923 1.0505133
2.3215263 2.3618801 2
4.2455735 3 0.40441915
0.99573767 1.304967 2
4 0.045774359 1.5497564
2.498903 1.9310575 0
4.0002794 1.8905767 2
3.2058306 0.48047134 0
0 1.581588 1.2817224
0 2.4169161 1.3669907
0.69018841 0.91813105 0
2.85938 0 1.3271005
4 0.29810059 0.054244325
2.653929 1.7554802 2
3.0444412 3 1.5943158
2.9701893 2.5438449 0
0 0.95824826 1.9437197
2.9283893 0 0.86513174
0.75080377 3 1.9381295
2.9330585 2.0146992 0
0.046649225 0.402513 0
4 0.95261931 0.75317669
3.2615492 1.4080837 0
2.351505 3 1.8606906
4.0717006 2.871773 0
4.5219412 1.5164853 2
0 0.1460758 0.44120675
2.4150913 3 0.98920447
4 0.69986922 1.3600487
0.53797364 0.15638372 2
4.3542576 3 1.6660233
2.5611391 0.072812349 2
4.6932101 3 1.2648062
3.7954144 0.73476684 0
0.64391983 0.26219633 2
4.3923054 3 1.7460074
4.3784761 1.5 0.32682735
0 0.5188815 1.8103002
1.204692 1.8882424 0
0 0.004510548 1.7070149
2.4145138 0.10249699 2
0.97406405 2.5125585 0
0.19183195 3 1.01688
0.55871612 2.0796299 2
2.8452508 0 1.6072836
0.81708199 2.2306731 2
0.51147914 2.5442417 2
4.0733376 3 0.48111758
4.0007372 3 1.5371144
1.9932414 0.17857707 2
4.6988444 1.8155922 2
2.2288826 0.023993254 2
2.6781406 0.8656413 0
0.9150421 1.1267135 2
1.2309049 0 0.42873561
0 2.0308976 1.0018115
0.83109462 2.49769 2
1.8336276 0.22285596 2
4.3184257 3 0.030152798
4 0.19659741 1.6525418
5 1.8341825 0.68043107
4.2270255 1.7762834 2
1.6549646 0 1.8007399
4 0.22882222 0.715303
0.27474633 0 1.5693399
1.3728036 3 1.8933645
2.5798078 1.708892 2
0.3850705 3 1.4629869
0 0.98057038 1.8807713
4 1.1299098 1.050375
2.7061396 0.56718349 0
1.2610092 0 1.9702318
0 0.013555022 0.18008696
1.6934111 0.0016819916 0
0 1.2968593 0.96503282
4 1.2612076 0.80506539
1.5307263 2.3814251 0
1.1212487 1.5834134 2
1.4498873 0.83323944 2
1.2838473 0 1.9119899
2.5805035 3 0.24057439
0.52413398 2.9302704 2
0.28375965 0 0.88440794
4.1869726 1.9153411 0
3.4769795 2.9123266 2
1.9888594 1.2581701 2
3.0366209 2.5016546 0
4.8887286 1.5 0.2005872
4.5772552 1.5 0.82271039
0.96142256 0 0.23901954
3.1582055 2.2283015 0
0 2.5654836 0.96143734
1.4683262 0.72047305 0
1.5364217 1.7583642 2
4.1853061 3 1.6593534
1.319638 1.9850463 0
3.7344553 0 0.9968468
2.847903 0 0.083867021
2.1459603 1.7483336 2
1.7333685 2.5713668 0
1.865947 0 0.39414719
0.4361515 2.0938747 2
2.2054484 3 0.70651805
0.69674993 0 0.59362131
3.5804255 0 1.1503237
3.8384912 1.4207002 0
1.1736386 1.5934324 2
3.2739406 1.7774956 2
0 0.70804417 1.1798556
3.6409125e-05 0 0.85080302
0 0.013183253 0.53398651
5 1.8901926 1.8271132
1.4906373 0.24078844 0
1.5666388 2.1618738 0
0.29794529 0 1.684961
1.3666891 1.8443146 0
1.6079013 3 0.65972197
0 0.85490543 1.5929691
2.8207476 0 1.9695659
4 1.3931016 0.88468724
2.7949131 0 1.7639726
0.20867175 0 1.3247685
1.9091361 0.2540876 2
4.6709313 3 0.14321296
3.5945213 0.39653555 2
3.9326324 0.51694041 2
2.2873385 0 1.4080203
4.0539956 3 1.7262254
2.465786 1.2440954 0
4.7763991 3 0.12011081
2.0665593 2.6426532 2
0.92466456 2.0758798 2
4 1.4669858 1.1737618
4 0.78406686 0.8796078
4 0.39387313 0.95949978
2.283725 2.6710303 2
4.5920277 3 0.11061843
3.2923543 1.109585 2
3.3846853 2.4802899 0
2.1158221 1.4043034 2
0 1.4839853 0.77446407
0.66516477 0.14226088 0
4.0120645 1.5022373 0
0.57863152 3 0.25445616
4 0.53329813 0.68787676
3.9706082 2.4944389 0
0.56290239 2.2916021 2
4.0045972 1.7518382 0
3.9584773 0.79739749 2
3.6643481 3 0.7579487
4.8357339 1.5 1.8736339
1.6427271 0 0.73845142
3.0009665 3 0.76391262
0 2.8956609 0.13189441
5 2.4098032 1.6844233
2.8359683 1.9591663 2
4 1.2939296 1.475299
1.7507851 0.50076282 0
0 2.1646483 0.50004411
1.1001784 0 0.64116436
3.4213266 0.83208734 2
4.8842397 1.5 0.98587185
1.8490905 3 1.511095
2.4189351 0 0.15412483
0 2.9349289 1.5503131
2.8377409 0 1.8365687
4 0.43382174 1.8504832
2.6130741 1.3350394 2
0.76095986 1.9083449 2
3.2814641 0 0.089459836
1.0571496 1.9997655 2
4 0.51845104 0.56145734
3.0052164 3 1.8121107
3.5361707 1.9495035 0
2.5217786 0 1.8140991
4 0.99354643 0.50609541
5 2.8646219 0.59893423
1.1302458 3 0.0088316817
2.1765716 0.65155429 0
1.2151223 0.48971209 2
1.0504143 1.9293623 2
1.6843594 2.2492955 0
3.7618456 0.49921703 0
3.7142606 3 1.2077403
0.66054124 0 1.7261232
1.5828377 0.20203337 0
3.0369968 1.6321187 0
4.4977484 1.5 1.4251655
3.9394209 0 1.4999071
4.474546 1.5 0.42322826
4 0.62679493 0.70340824
2.660449 3 1.6255541
5 1.6027322 0.044849567
0.75784516 1.5980556 0
2.0083723 0.26755488 2
0 2.710876 0.67333841
2.9945934 2.632452 0
0 1.652015 1.0611758
1.5204582 3 1.567443
2.9751322 1.0129693 2
4 0.96538419 0.45375001
2.1498444 2.4815822 2
5 1.9807127 0.020039216
1.6493977 0.17841919 0
2.0185826 2.7647798 0
4.9766197 3 0.029059734
1.5003102 0 1.7886024
4.126647 3 0.86101115
3.1127193 1.0564736 0
4.0414271 1.5 0.72682834
4 1.4435039 1.5309268
3.0012369 0 1.7449276
2.1484964 0 1.7565919
0.90675157 2.3546774 0
5 2.645633 0.10456278
4 1.3644323 0.67456847
3.1788757 2.0481734 2
0.56448483 3 0.78810745
3.0753005 3 1.2828194
1.2339392 1.6089387 0
5 2.2116435 0.94999027
1.0493752 0.1396713 2
5 2.3210399 0.92676157
3.3817978 0.73915672 0
1.8474886 0 0.47069013
4.2412863 2.2438414 2
0.73296249 2.0295403 2
1.3931618 2.9928048 0
0 0.047030166 1.3034323
1.6991607 1.0575521 0
4.7527256 2.4947062 0
2.1503096 1.5039767 2
0 0.1073204 1.2913318
4.3667989 2.5977397 2
2.5384405 3 1.8231169
0 0.047602832 1.2660813
4.5056581 3 0.80430722
0.44584468 0.28668281 0
4.6866169 3 1.6973817
4.5025935 2.3138413 2
2.7764609 2.6828573 0
0.49260503 2.112618 0
5 2.071285 0.6206758
4 1.1336673 0.29757527
3.9341767 2.1493008 0
0.99028802 1.0259236 2
1.4296005 0 1.86584
1.5023923 0 0.096696034
0.13137718 0 1.3313869
1.7285148 1.2645807 2
3.8306651 1.5849277 2
1.5095352 0 0.14573434
0 1.6864642 0.12262921
0 2.7705114 0.48245233
1.7738357 0 1.8403602
1.4004971 1.8196033 0
1.2460585 3 1.9678901
1.1830889 1.846349 2
0.83373302 0 1.969524
4.0999131 2.0842845 0
4.7203918 1.5 1.6121435
1.7801944 2.8608408 0
3.5676038 0 0.73290527
0 2.1947491 1.345565
1.2333536 0 1.9831648
4.5824952 2.6043148 2
0 1.916126 0.95928007
4.1871395 3 1.7327111
0.019674331 0 0.36625433
2.4105918 0.90326339 0
1.1001663 0.91271168 0
4.135993 2.2898264 0
4.953331 2.5451519 2
3.1450403 1.9147221 0
2.2144647 1.6327447 0
2.828326 3 0.64667505
1.9775912 1.462202 2
3.141223 1.4190143 0
0 2.8815334 1.328084
4.3338304 1.5 1.6386642
4.6782837 3 0.83478439
0 2.4599342 0.57617241
0.23218137 0 1.9344898
3.7020981 0.0071568 2
0 1.820734 0.33608958
2.2195492 0 1.5297263
0.011655997 1.376093 0
2.5499802 0 1.1433178
2.0518217 2.9174011 0
2.6827805 3 1.6679753
2.1791873 1.2566254 0
1.9208118 2.3460104 0
2.3998873 2.0006692 2
3.39081 2.621891 0
4 0.62095469 1.6181951
3.2815518 0.75013399 0
1.8638399 0.085379608 2
0 0.064065933 1.7275258
3.174094 0 1.6718538
3.0154662 0 0.42937475
0.69982845 2.6326535 0
1.2746013 3 1.7628272
0 0.48739207 0.17880598
2.2047603 0 1.1642443
0 0.97312593 0.54465574
4.1968899 3 1.4873362
5 2.9825358 0.65549785
1.5791101 3 0.038299892
3.3127632 3 1.9813823
1.8526642 1.568445 0
2.0820835 3 0.18256992
5 1.8877376 0.2259603
4 1.3193754 1.4742905
3.6351891 3 0.28394014
1.1688485 1.7736938 2
0 1.209141 0.64118135
0.90737486 2.4411569 2
0 2.7683823 1.0517371
0 0.9345156 0.80032545
3.6432316 0.43493405 2
1.10238 0.064962 0
2.3184326 3 1.4671041
2.4309182 0.72079575 2
5 2.4603798 0.26111448
0.25863731 3 0.41635218
0.95165211 3 1.9637285
2.2567251 0 0.47526282
4.4286904 1.5021664 2
4 0.78852266 0.14374
4 0.15044549 1.6909596
0.78552508 0 1.4838001
0.77123666 3 0.56338376
3.7541103 0 1.350036
3.6375694 0 0.91647601
5 2.3073082 1.6761765
0 1.1581738 0.64185953
3.7483807 0 0.63716698
1.7532789 0.70392871 0
0.57980657 1.4837965 0
1.7839803 3 0.15701002
0 2.6878767 1.6400824
1.0614376 1.4164717 0
2.1379602 1.8161271 0
2.8294139 0 1.1240237
5 2.3968985 0.36771613
3.7787097 2.0667882 0
0.22114506 0 1.7623488
2.9859672 0 1.9522458
0.45987478 0 0.94126791
4 1.3143079 0.37524629
2.7279687 3 0.51033688
0.37275544 3 0.096264705
3.0458627 1.3527589 0
0.32960489 0.14946336 2
4.3742852 1.5 1.123879
0.88644022 0 1.5474118
5 2.9500341 0.49722761
1.7367902 1.8957233 2
5 2.9322886 1.9104706
0.23635037 1.4794743 2
0 0.5278511 0.32415268
0 2.2003951 1.0335329
1.0662477 0.54006124 0
3.8980827 3 0.11675329
3.8245616 1.3595011 2
1.8792394 0 0.5342046
2.2634587 1.1916964 2
1.4176298 3 1.3296725
0.79670715 0 0.6874122
5 2.4762037 0.37263927
4 0.39916372 0.47135907
3.1320229 0.39387926 2
3.8709421 0 1.3928989
5 2.1438186 0.76648623
0 0.58025157 1.0285666
0 1.2998489 1.7932243
2.8852654 1.5532829 0
3.544843 3 0.41857603
3.7683797 2.0514894 2
3.4694135 3 1.4855231
4.6589608 1.5 1.1228168
3.0328503 0 1.8538026
1.8367521 0 0.65788227
1.0556147 1.0098727 0
4.9845214 2.6587121 0
4.3120327 3 0.29971772
3.9621046 0 1.1173854
2.414115 1.7180625 2
3.5911007 3 1.754868
4 0.080131181 1.531269
4.0486603 1.5 0.15450333
2.9220791 0 1.928775
1.9322351 0.89487636 0
4.195107 2.3879604 2
1.3057768 0.93645799 0
2.8219204 0 0.3215048
2.8289354 3 0.69728732
4.9418144 1.5 1.6040858
5 1.515339 1.6467496
2.0922167 0 0.030247953
0.052559763 0.82192391 2
2.8701673 0.9903962 0
3.2089987 3 0.45270747
2.8058295 3 0.36479166
0.21723229 2.4719858 2
0.89258075 3 0.58493584
0 2.4700754 0.9060306
3.5824533 0.73606831 2
2.9014411 2.586724 2
1.8311288 1.536126 0
1.0418373 0 0.7071442
0.85900867 1.6678847 0
0.57896441 0 0.54393458
3.1062937 0 0.52884138
3.4594772 2.8740487 0
2.3128736 1.3880835 2
4.3034606 2.6272776 2
2.7063117 1.061981 0
3.8925774 3 1.343367
1.514695 1.5099299 2
0.4635503 1.5240691 2
4.71383 1.5 1.709542
3.5262613 3 1.2841257
1.538512 0.14164566 0
2.4945264 2.5994987 2
2.2332232 0 0.55463177
3.6056607 3 1.6051946
4 0.14563324 1.2263888
4.6538086 2.2048409 2
2.8066342 2.2643332 2
3.5969601 0.42326844 2
4 0.11491423 1.5750793
1.0859413 0.99175382 0
2.1646233 3 0.77884847
2.7438104 1.7536206 2
0 1.9901174 0.5433284
4.3098316 3 0.0041235052
3.8687608 0.52296436 0
0.30290526 1.9702157 2
4.877315 3 0.079228118
1.082116 2.9278598 0
3.9780285 3 0.52107912
3.5723567 2.7787731 2
3.0787182 0.1204256 2
1.717247 0.74407619 0
0 1.4482286 1.9076132
4.7538085 3 1.9727794
0.78653377 1.5528579 0
1.7527032 0.45191592 0
2.6048553 1.7402042 2
4.2230272 2.3997989 2
0.69399369 2.8739057 2
4.5831475 3 1.723896
4.7407694 3 1.2079251
0.022986788 3 0.82614797
0.078625858 2.3931837 2
0.082288012 0 0.87003571
1.2710162 3 1.4616632
0 2.4014671 0.47097585
4 1.106791 0.47646466
0.52949619 3 0.98475397
0 2.8970366 0.5505017
0.78450483 0 1.1591523
3.7560244 3 0.63746631
3.6438494 0.074151993 2
1.8378919 1.4437239 2
3.8324399 0.44732806 2
1.0790366 1.3782948 2
2.8288972 2.7976131 0
2.0719731 1.8159219 0
3.858007 0 1.1092257
2.7572155 0 1.5502944
0.75070596 0.63516873 0
1.4304423 1.6381207 0
4.2369761 3 1.549199
5 2.3428369 0.46475109
2.270664 0 1.9684225
2.5547619 3 1.5195558
4.3109159 1.8264956 2
2.1764152 0.2337686 2
4.2227736 2.156168 0
1.7757245 0.72491831 0
4.5096421 2.2322435 2
1.9722239 2.5451994 0
2.7370729 0 1.6941715
0.23592971 1.3156065 0
0 0.83461344 1.7291324
4 0.63145781 0.86987108
2.5951917 0.83593833 2
1.9208914 2.9199739 0
4.1088915 1.7329463 0
0.36377534 3 0.43647477
1.3725051 3 1.9156699
0 1.4541789 0.288122
4.3208938 1.5 1.8499738
4.1312766 1.5541112 2
3.8538635 0.97292048 2
0.090162963 0.36681506 2
4.1146379 2.5266266 0
2.8342676 0.93243378 0
0 2.3205612 0.70220041
2.4419785 1.2430723 0
1.1795932 2.9777296 2
1.438221 3 0.24180865
4.4993491 2.616956 0
4 0.28610477 0.05039857
0.60118836 0 0.15939806
0 1.4826125 1.4986999
3.5477672 2.2867444 0
3.0269067 3 1.9933618
2.4638913 3 1.3273813
0 0.7776255 1.5773174
3.6298921 1.6526457 0
4 0.29027155 1.2006602
4.6863918 2.2364693 2
0.25691831 2.0393152 2
0 2.3430836 1.6007898
4.2709785 3 1.3685877
2.6469574 1.5846871 2
2.6687188 1.7855988 2
5 2.4510496 1.0681336
0.32691762 2.3513315 0
2.942502 0 0.14821477
4.3444309 3 0.78930396
5 2.862967 1.7087846
4.8845668 3 0.67667562
0 1.1899374 1.185773
3.412406 1.9337903 2
3.2781909 0 0.70606691
2.7612383 2.1397049 0
2.0321889 0.33167395 2
1.5867969 2.4842293 2
0.41308683 2.4180441 2
0 0.49797508 0.29740646
0.12317251 0 1.3762536
4.0185962 2.4498603 2
4.6280742 1.6250535 0
4.3522215 3 0.50888765
3.6771884 3 0.74782628
4.6564622 2.6664929 0
3.8355753 3 0.091667175
0 0.57427257 1.0094868
3.1558702 0.23141892 0
4.1033564 1.5 1.0791817
2.7910504 3 0.86488593
0.046082981 0.92109889 0
0 2.7488828 0.64343947
1.6142076 3 0.55849999
4.7776546 1.5 1.6833695
2.9814339 0 1.4038831
0.8440755 0 0.06759464
5 1.7148495 0.95615053
1.3708627 2.7262313 2
2.3231583 3 1.0256528
4.3172154 2.4001572 2
3.3687701 3 0.46143413
3.8455985 0 1.8769639
3.3281114 1.2001266 2
0.3848637 3 1.2798902
4.804759 1.5 0.494771
4.1800838 1.5 1.6699016
4.3784256 3 1.1410403
1.3550581 0 1.6192676
4.8136897 1.5 1.5956841
0.33634278 0.18353283 0
0 1.9258522 1.7605268
1.6997955 2.0583644 2
2.6035304 2.7580338 0
4.3863368 3 0.29025689
1.7552174 3 1.1607648
0.048536621 2.0745606 0
1.8875911 1.7975359 0
3.0971067 0.075905718 0
4.2726889 1.5 0.015677586
2.3473313 0.038352694 2
2.1414936 3 1.1731313
0 2.2059443 1.318311
3.8568645 0 0.051525693
3.245734 0 1.449528
4.6257873 1.7105992 2
0.018807299 3 0.98893839
3.2882469 2.8718359 2
3.0597768 3 0.18361391
0 2.3960266 0.26220098
2.8410153 2.8927205 0
3.1590092 0.88549447 0
3.4646311 2.7077687 2
4 0.23637825 1.0933939
5 2.407382 0.35328841
0 2.0349784 0.62835497
4.2833018 2.1029773 0
1.3880361 0 1.5518994
0.5257057 2.6400974 2
1.7756249 0.19112091 2
1.9877919 2.4146314 2
0 2.2948039 0.40565595
2.6084998 0 1.5291051
4.7627516 2.7635055 0
1.8086936 3 1.0888735
1.2147307 3 1.9346217
2.1639655 3 1.6156121
4.4527016 1.7863625 2
2.027703 1.1364875 0
3.1182675 1.2460848 2
2.4017951 3 0.24388568
4.7676916 1.5 1.0212648
3.2566824 1.8614163 2
0.5485782 1.2248479 2
4.2778735 3 1.1298699
0 0.26305583 1.2724828
3.3400011 1.6736701 2
1.733755 0 1.513254
4.0487247 1.5 0.29247293
1.8423353 0.49292105 0
4 0.28307405 1.8839854
0.5519532 0 1.325242
1.4445919 0.28938586 0
3.8135157 2.0441422 2
3.5735621 0.17555176 0
0 0.65683442 0.95447403
3.6177671 0.4265686 0
4.428411 1.6445678 0
2.1959286 0.77697766 0
2.6197135 1.0351413 0
1.1794649 1.8051465 2
5 1.9217257 1.8578659
2.8886783 1.0468165 2
3.4852057 3 1.3368356
4.292707 1.5 1.7174783
3.0665505 1.6690909 2
0.85448802 1.1802635 2
3.7322323 1.4540614 0
1.8445978 2.6132212 0
1.349611 1.8190142 0
1.0946752 2.7221966 2
0 1.6680555 0.73559618
2.0206645 2.2241807 2
2.2666152 3 0.93968648
3.1405611 3 0.5681113
0.65014046 2.8064337 0
3.8811736 0 1.1946485
3.832731 2.8107417 2
0.93785679 0.93538314 0
1.5786568 0.5193612 0
0 2.2745695 0.47259903
0 1.8106931 1.828048
0.95645416 0 1.9057653
0.061178479 3 0.12749931
3.3597476 3 1.4999112
4.23979 1.5 1.9826853
0 2.9702649 0.50621367
4 1.3223233 0.16670243
3.942636 0 0.12964524
0.016301243 0.41953248 2
2.8401394 0 0.70289207
1.0763454 1.7505823 0
0 2.1666303 0.31371847
4 0.44786218 1.0815136
0 1.1311184 1.1223128
2.8354731 0 1.2474653
4.2388678 3 0.71355712
4 0.29854748 0.15943602
0.43668172 0 1.118976
2.792325 3 0.93248725
3.8074942 1.2734176 0
2.6524384 0 1.986009
0 1.4282286 1.2078125
1.6770635 0 0.23405802
0 1.2935963 0.047628332
3.9187505 2.2414916 0
1.3181181 2.7404757 2
3.8074 2.9738569 2
2.5786624 1.9030025 0
2.0009344 0.094056591 0
4.8153548 3 1.9352075
4.4569449 1.5769651 0
0 2.1278133 0.0029113824
4 0.95199978 1.9434532
4.6169152 3 0.91150123
5 2.8125467 1.9376018
1.6626389 1.2651157 0
3.4113755 2.9511433 0
1.6649269 2.6779034 0
0 2.0244372 0.69464844
0.683402 0 0.44762167
4.0488381 1.5 0.79442692
5 2.4515591 1.2021556
2.5877354 0 0.83171582
1.1539266 0.79376465 2
3.541126 1.4232026 2
2.0853033 0.86027145 0
1.8846784 0 0.83038509
0.48539829 2.4335096 0
2.1379831 0.11669883 2
1.0553478 2.1662445 2
4 1.0315613 1.8705636
1.9256017 1.5958449 0
3.2627137 3 1.2374541
0.22858591 1.3395569 2
3.6528299 1.1903887 0
4.9118695 2.2626643 0
0.77501088 0 1.30349
0.62082052 2.1597486 2
0.28821319 2.4016955 2
1.1715866 0.49469095 2
0.35479355 3 0.49687561
1.7297939 3 0.68537849
4.2759671 1.5 1.144578
1.1770115 1.0778888 2
0.1237276 2.7308724 0
1.1001662 2.1744907 0
4 0.62242901 1.8775378
4.9535618 1.5 0.29072049
3.8637898 2.4447412 0
3.2628019 2.5308621 0
2.2419698 3 1.396238
1.3791914 0 0.56355625
0 0.65420526 0.56602699
0.028774749 3 0.66347748
2.8909445 1.4975401 0
1.8691888 3 0.31689098
1.7450808 3 1.99624
2.7129188 0 0.091128334
3.3585453 1.3760442 0
4.3778172 3 1.5864826
2.9669845 1.3116511 2
1.463946 1.0832961 0
3.4149568 1.2147605 2
1.8880296 2.9766326 0
1.8941336 0 1.7538571
4.5406494 2.413624 0
4 0.95610583 1.6647899
4 0.66656643 0.23888338
4.5312729 2.3619173 2
0.6179651 3 0.65973008
0.54906517 0 1.0598176
1.7195406 1.5823979 0
1.4935845 1.3274927 2
3.9735041 3 0.24856862
2.0501378 0.1163156 2
0 0.4959695 1.2178507
0.10401037 0.32360399 2
0 0.82472843 1.5722837
4 0.189632 0.78053892
0.16665687 1.4790844 0
0.20007397 2.7280002 0
0 1.4887807 1.2337302
2.3856521 1.2054851 0
1.8489667 1.2896655 2
0.18095328 0 1.5977587
1.9606488 0.22501725 0
2.1454761 0 1.2670032
3.5852311 0 0.56218857
0 0.90286911 0.82254118
4 1.3352536 1.8014995
1.8186712 3 1.1517489
3.1823409 3 1.2378293
1.1272424 1.9243348 2
4.7598252 1.5 1.3268729
2.9138296 1.3500135 0
2.1575296 3 1.9476346
3.6041849 2.3167017 0
4.0992064 1.9970055 0
2.61519 2.1037073 2
4.0160604 2.6938627 0
1.8512614 0 0.64751637
4.8730388 1.5 1.8716321
3.9212682 0.42582873 2
5 1.689924 0.78020853
0.50657582 2.9812336 2
2.9497666 0.96575373 0
5 1.7366532 0.94732112
3.2158842 2.5262778 2
3.1853685 0.64379799 0
5 2.1281569 0.8385278
0 0.33827096 1.5650989
0.91200489 1.5461309 0
4.4196162 1.5 0.38022107
3.0670176 1.5092418 0
4.2926097 3 1.0694096
4.1546698 3 0.10985824
1.2686603 0 1.2779275
2.5118384 1.1832997 0
2.9630055 0.71200639 0
3.9115381 0 1.074073
3.324291 3 1.7906722
3.4258323 3 0.0030626692
0.73870397 3 0.3824062
0.29720908 0 1.5752788
0.53772074 0 0.51408249
4.3325572 3 0.80422628
0.46534857 3 1.4609946
0.72188532 3 1.9715551
1.3029177 0.43389946 0
4.6404676 3 1.0087246
0.17519198 3 0.38129002
3.6335649 3 1.9232159
2.1270647 3 0.34943643
1.2646219 2.5298953 0
3.68449 0 0.78975886
5 1.9511585 1.829388
1.5990855 1.3894453 2
3.4501107 0 0.27682799
3.7654154 0.66790968 0
1.8885089 1.2098101 0
4.110847 1.8736336 0
4 0.012618123 0.35609362
3.1053734 1.5840405 2
2.3190179 3 1.0952264
0 2.0835211 1.3885549
2.9577193 0 1.0314389
0.25971192 3 0.68741852
1.7547569 0 1.3646553
3.2755797 2.8591466 0
1.3439313 1.6472681 2
3.7664387 3 1.8115642
0 2.8602314 1.3293693
5 1.5979842 1.7893683
0.34032643 0 1.5754704
1.3247893 1.9498553 0
0.5349493 0 0.38166794
0.96599811 2.4377332 2
0 1.1044298 0.72514033
3.0977283 2.6407611 0
3.5584331 1.0812339 0
0.84456724 3 1.0238503
2.758781 3 0.56470245
2.8202176 3 0.86946833
2.7144885 3 0.68986046
5 2.3894308 0.61003923
4.793745 2.7671046 2
3.4106226 0.53357148 2
0.57615787 0 1.2464986
4.1571751 1.5 0.064432189
1.5270387 0 0.31576815
0.070219696 1.2377661 2
0 1.5006584 1.6540394
5 2.5241487 1.6657201
0 2.7328715 1.1122271
4.993516 2.8670208 2
3.5541477 0.41435853 2
3.9663284 3 0.75026453
1.215807 0 0.49994761
0.73957098 1.0640881 0
4.8731947 1.5 0.10006399
4 0.77180058 0.47443146
3.5086207 3 0.14148572
5 1.5274342 1.721999
1.0513262 0 1.4503422
2.787879 0 1.2064482
1.1157818 3 0.30177516
2.5163469 1.0859276 2
0 1.194355 1.5982238
3.7830126 3 1.9624147
3.4779177 1.3238106 2
2.672339 2.8019233 2
4 1.148304 0.19996314
3.6006634 0 1.9567138
0 1.089878 1.019034
4.8055968 3 0.71901703
0 2.5640674 0.58769983
2.6603618 0 0.23389232
0 0.85602522 0.5011155
2.2341254 2.5516753 2
3.5513957 0 1.7157236
1.4273614 2.4385664 0
4 1.4602576 1.2846912
4.9769592 1.5 0.4812158
1.9487672 3 1.0326799
4.3521271 3 1.6609343
2.2197256 2.3012686 2
4.6504045 1.5 0.49041471
4 0.88625783 0.64145511
3.3935027 2.9018903 0
1.4130825 0 0.46268666
4.1834416 2.6040912 2
0.077088609 0.025264306 2
0.48764193 0 0.88912046
0 0.3905156 1.2452548
0 1.8570017 1.9085782
4.9973788 2.7021296 2
3.5463026 2.8803797 2
0.79606062 0 0.15142068
0 2.5761006 1.4324528
0.69186831 3 1.8751818
2.1966302 0 1.1964996
1.9446428 3 0.71542931
3.9362059 0.80382198 0
0 2.5337684 0.39279795
4.9827881 3 1.3217295
2.0042391 3 0.057121918
0.2946524 0 0.81342536
2.7816553 0 1.6680607
4.8700132 1.5 0.50117946
4.4974298 1.6639104 2
2.5407512 1.6734123 2
2.6263309 3 0.26069498
1.2492398 2.5781715 2
1.826057 0 1.2236668
1.848524 2.7286372 0
2.5900936 0 0.17538354
1.663299 1.028124 0
2.3208272 2.9628835 2
2.5865374 3 0.55698764
4.9756207 3 1.5020871
0 2.8631134 0.67510915
0.70363528 0 1.3526723
1.0528316 1.0626658 0
1.0109231 3 1.1645343
1.576372 0.81904489 0
3.8255715 0 1.5895007
5 1.5017792 1.7701601
1.5775324 0.49093819 0
4 0.64257735 0.96565962
2.1793158 0.19029145 2
2.5575798 0.18755335 2
1.8635728 0 1.9001107
1.677356 0.57314008 0
4.299088 1.5 0.83847606
0 2.9453325 1.4803706
4.3115673 3 0.20672068
2.314728 2.7936804 0
3.3489342 1.0066932 2
4.2950335 2.4535544 0
0.76592886 3 1.0330535
2.5139065 0 1.9801631
4.023335 1.5 1.4163101
4.3913441 2.9410136 2
0 2.2248635 1.7677293
0.84066504 3 0.9257192
2.2961965 1.7170358 0
1.643694 0 0.43662509
4 0.67865574 0.36243662
1.1963434 0 0.24413493
1.0831898 0.3885493 0
4.8390236 2.513521 2
0.30131295 3 1.6283394
4 0.76012701 0.51167059
0.19259959 3 0.30651751
2.1798255 2.3037 2
0.27521804 1.677477 2
0.51770735 0.91351175 2
1.4466716 3 0.52557981
2.8743861 0.086095653 2
1.4469925 1.2722473 0
5 1.6043717 1.3507619
4 0.21206355 0.36909568
4.5566239 3 1.6734773
1.5701753 3 0.25153068
3.7419319 0 1.6369904
0 1.8436878 0.32495901
0.56722003 0 0.59452051
3.1269169 1.6225164 2
3.7415245 1.8576525 0
0.59041321 3 1.2111908
4.3273253 1.9699624 2
2.9506829 1.755502 0
5 2.1522744 1.0928724
2.5197828 1.6827652 0
4.8541379 2.0504057 2
1.0295843 3 0.55308008
2.045984 2.5529273 2
0 1.1072167 1.7539252
0.57832849 2.1932645 2
2.0357058 1.7006503 2
4.5642848 1.5 1.3636651
4 0.52846521 1.8397517
4.8353705 2.598321 0
2.1339066 2.8669066 0
3.2937226 2.6811402 2
2.4756494 0.83542985 0
4.1612372 1.9798144 2
1.6001045 2.3020272 2
4 0.34049088 1.9190315
5 2.656347 0.25405768
2.6768832 3 0.39800516
2.9184585 0 0.20740746
3.4339817 1.8266853 0
5 2.0474699 0.52662671
0 2.0461643 1.2001715
0.83902878 2.6100237 2
0.21166468 2.5654488 0
1.5844293 0 1.5340433
0.819534 0 1.1952022
3.3943968 2.9033313 2
5 1.7182136 0.99493456
3.7622526 1.4851547 2
3.3629162 3 0.55711335
3.4873121 3 1.8021441
1.2969059 0.70417678 2
4 1.4776404 1.5395882
2.3926766 2.9150114 2
1.7907475 2.6856256 0
0.8905673 2.0634766 2
2.4073761 0 1.8135689
1.9523464 0 1.4931755
2.2474167 1.9346924 0
1.9047092 0 1.9674224
4 0.0060196668 0.63318992
2.3760102 1.7932144 0
2.8357413 0 0.46109238
3.2827771 2.6062913 2
4 0.1991245 1.7141744
4.0002403 2.0685911 0
1.5400885 0 0.083896823
0 0.017565662 1.5977418
1.8061444 1.8546029 0
5 1.7053297 0.76600438
2.2381926 2.0224874 2
0.60400259 1.0283426 0
3.4004054 0 0.051171128
1.934733 2.4097662 0
3.6274805 0 1.2774484
3.3902407 0.43047392 2
2.8996503 2.2446048 0
0.21326378 3 1.234607
2.319226 1.9794716 0
0.10680041 3 1.1731385
3.372376 3 1.7345654
2.040184 2.7378049 0
3.5192761 2.3903444 0
1.7630651 2.162786 2
0 0.10980023 1.758693
1.8246684 0 1.8570164
4.4669299 3 1.6105735
3.6223025 3 1.1169101
3.5416901 3 0.166179
0 1.892385 1.4100627
2.043088 0 1.2507962
3.7800045 0 0.73984677
1.6493158 1.2868022 0
2.46663 1.2103591 2
1.5978708 0 0.20257647
2.6254251 2.4107296 0
1.6990881 1.854637 0
4.3413649 2.7994702 0
1.8744607 0 0.7036674
2.2709684 1.7154878 0
3.0441449 0.13287354 2
3.4950154 0.47415146 0
1.694258 0.72554541 0
0 2.265763 0.8180567
1.6506029 1.6296953 0
1.8650771 1.2924346 0
0 0.29387647 0.29586476
0 1.2129357 0.63220578
1.638674 1.9881041 0
4 1.0129641 1.9082091
0.56150818 0 0.55317861
4 0.10449766 1.4931003
2.621877 0.12083215 0
1.5961375 1.1545801 0
4.8831902 2.9666948 0
0.46974054 2.8489416 0
4 1.172449 0.27921069
4.0935688 2.9401476 2
0.82393664 2.560729 0
5 2.3637352 0.39451659
5 2.2282104 0.33140543
5 2.1500185 0.2527267
2.1034081 1.7257298 2
4.9991961 1.9700152 0
4 1.1586714 0.93037444
4 0.59075177 1.4453204
0.7986275 2.8353171 0
0.3799628 3 0.65384859
0.76767278 2.3489668 2
2.1397927 1.5389634 2
0 1.335402 0.8937763
4 0.62968749 1.165125
3.767365 0 1.7044247
4 1.381317 0.22746892
3.6163471 0 0.73925096
3.1811445 0 0.33710629
3.6554842 1.5162855 0
2.176321 3 0.48710462
2.2564068 3 1.9510708
1.5380082 0.17530107 0
3.1060727 2.0856957 2
0 2.3766119 1.2558036
3.3929513 0.52770573 0
1.5889965 3 0.56515974
1.2571588 0 1.355628
0.18503584 0.92343253 0
2.5834405 3 0.39486572
0.40178218 2.7494545 2
4.4379344 3 0.84557438
0 2.0765204 1.5796678
4.7980051 2.3828211 2
4.9217925 1.6465118 2
3.4803963 0 0.5427959
3.454735 0.81365347 0
4 1.0416315 0.9844749
4 1.4685943 0.057191189
4.837009 3 0.80860716
2.5488038 3 1.971344
0 0.351367 0.26711023
0.89947724 0 1.7720224
1.8738072 3 0.49995613
2.5219896 0 0.024247844
1.0524083 1.3096026 2
5 1.5716603 1.4143414
3.9516294 0 0.64147693
4.208755 3 1.5738444
0 2.346806 1.2028663
1.5211328 3 1.3846499
4.1685658 2.0894678 0
2.4248052 0 1.6260706
4.0195885 2.3155971 0
0 1.0901442 1.3394186
2.7381315 3 1.2105583
1.0564694 0 0.86510992
2.4556317 0 1.988551
0.74139518 1.1176816 0
1.2162883 0 0.23398744
3.311481 0.37896636 2
0.9409098 0.71949565 0
2.8919539 0.40490818 0
3.1068764 0.35275561 2
3.2630532 0 0.87309122
1.5168977 0 1.1417878
4.8803062 2.8943677 0
5 1.5765389 1.3888959
1.0810701 1.7064919 2
0 1.6476362 1.5380007
3.4717391 0 0.86758757
0.24086066 3 0.60100329
3.8083916 2.8888497 2
0 0.14692447 0.86539167
0.12941499 0 1.0547453
3.6320939 0.88941926 2
0.25872624 2.7618997 0
2.1064687 2.460083 2
4.645987 3 0.083998211
5 2.172519 0.44887477
3.001251 3 0.27164817
3.4837217 1.6388353 0
1.0784354 1.9106262 0
2.8231125 2.6016705 0
3.8047407 2.5049014 0
4 1.0613544 1.3343761
1.3400704 2.1888859 0
0 1.4960361 0.25386545
5 2.3113334 1.868222
5 2.477875 0.034146555
5 2.3867269 1.3343394
1.0528775 0.95842189 0
0.92726368 2.6925278 0
0 1.5769198 1.0949171
0.69636106 2.7339478 2
5 2.9057574 0.4032166
0 0.90384352 0.1535145
2.2040782 0.20784652 0
2.5175924 0.37897545 0
3.7588038 0.2212258 2
2.6207895 3 0.52976125
0 1.3026417 0.85920155
0.12317192 0 0.078042142
3.059 0 1.9753081
1.0638748 3 0.40739179
0.59622496 2.9854221 0
1.3911217 0.26085111 0
2.5085301 3 1.0553552
0.43935671 1.6007819 0
2.181567 3 0.35162577
0.54369044 3 1.7693565
2.13925 1.1235131 0
1.8115318 0.6449402 0
2.0717282 0.91092145 2
1.8566581 3 1.720479
0.42270559 1.8808012 2
3.3512681 1.7164526 2
1.5585541 2.1155 2
2.6921191 0 0.28613016
4.370604 3 0.11514591
1.1201229 2.636158 0
1.3699067 0.084979519 2
4.569685 1.5 1.3574994
2.290381 0.17280124 2
4 1.0891527 1.0028255
0.6166085 2.3285689 2
4 1.0675068 0.4220522
3.7194901 3 1.3144978
3.7660592 0 0.61463588
0 0.31441376 1.3305781
0.80217141 3 0.82909203
4 0.2348502 1.3435172
1.7178675 0.59609056 0
3.8420246 3 0.89437395
4.5325747 2.4611316 0
2.8113651 0 1.8001051
1.912428 1.9844424 0
2.2404559 2.6648517 2
1.0697768 1.2771147 0
4.8224444 3 1.2116067
1.480722 0.61599839 0
4.3264642 3 0.42348385
0 0.19539531 1.8086137
1.2357069 3 0.075720407
4.4509039 2.8726261 0
0.18809505 3 0.19673477
5 2.7800107 1.8114002
0 0.024881955 0.28086433
0 1.7096144 1.2082469
5 2.8738236 0.73343301
4.1298881 1.5 1.8808465
0.11492798 0.43340155 0
1.6643307 1.2765571 2
0 0.52022028 1.9018948
1.9241718 1.0439937 2
2.6300688 0.36823335 0
2.2881808 2.3773875 2
0.72622007 2.5318592 0
1.72449 0 0.60514849
4.78092 1.5 1.341243
1.2766459 0.88441575 0
1.5267669 0 0.2667495
5 2.324991 0.24114476
0.40152588 0 0.71437496
3.01701 3 1.890704
0 0.30109385 1.6476425
5 2.4438887 0.32572713
0.81329972 0.28318325 0
3.9431627 0 1.3993495
0 0.961169 1.3711983
3.5961623 0.40051916 2
4 0.92753893 0.99349988
5 2.3365901 0.12334852
4 0.10646734 1.6579235
3.4818892 1.735172 0
3.6126873 1.0331854 2
1.0839958 2.5571742 2
3.0642891 0.81003052 0
2.9725492 0.074237615 0
2.482029 3 0.65131807
2.727849 1.9519727 2
1.0337871 0 0.98912954
2.474822 0.21658461 0
3.4214923 3 1.3724747
0.84587836 1.1939912 2
0.30367103 0.63504499 0
0.96358126 0 0.37936124
3.6963019 0 1.8949401
4.0171223 2.9767256 0
0.9604038 3 0.1865173
3.6292374 0 0.056358583
1.3883985 1.7491647 2
1.1986449 0.47295645 2
1.8230594 3 1.9077872
5 1.9721092 1.846982
1.4806736 2.0789552 2
2.4894361 0.38648361 2
3.092093 2.9333003 0
0.47569513 1.2917455 2
5 2.1653295 0.51421332
2.1883566 2.8997312 0
5 1.9237735 1.3612164
0 0.95274335 0.2834217
2.7788749 1.1160525 2
0.34997907 1.6925831 2
2.7826474 1.7065017 2
4.0552397 3 1.9302446
4.9259787 2.9473608 2
4.4924603 3 1.3757542
4.6542859 2.6693082 2
2.3815372 3 0.31861138
4.0765247 2.6095159 2
4.4413667 1.9287548 2
5 2.834939 0.80844623
3.7070606 0.74667126 2
2.6909609 3 1.4144143
3.9745491 2.3271871 2
2.827441 3 1.5545824
3.568543 3 0.011953333
0 2.0642593 1.5031638
3.2108021 0.082217634 2
0.11073177 1.646431 2
0.10039694 0 0.44686973
0.34216583 2.332284 0
0 0.11861779 1.1574849
2.235033 0 0.51397717
4.3285809 3 0.98022318
4 0.90478712 0.90499496
1.9812993 1.2767096 0
1.0770185 2.4151943 2
2.3348582 1.2047038 2
0 2.4197421 0.66214722
5 1.8296258 1.3572096
0 0.62579644 0.50875223
1.0541769 3 0.13219023
4.80931 1.7942483 2
5 2.7622573 0.25393376
2.3407199 1.3677598 2
3.6745644 0.42233294 2
3.8073962 0.65657693 0
4.5966597 2.5163393 2
0.5808847 3 1.0858287
3.0322273 0.71195477 0
0.03901998 3 0.32350934
4.2123232 1.5 1.3287715
2.4683344 0.031456545 2
0.55131757 3 0.91332442
4.997654 1.5 0.77012223
1.9146613 0 1.9495357
5 1.5987821 0.506598
0.16561273 2.7116678 2
2.7316062 2.0497866 0
3.5693309 3 1.3180717
4.8032508 3 0.098408349
0 1.6407121 0.22997646
2.1991222 3 1.7364682
0.43373421 0.46308318 2
3.472259 0.072136454 2
1.88223 1.5748491 0
2.5560145 2.4392042 0
1.9084779 0.50754142 0
1.1723001 0 0.86103857
3.1241047 2.5110211 2
0.62415314 0 1.3756059
0.23175062 2.9404628 0
3.4908688 3 0.96799523
0.63948715 2.8073709 0
3.8727615 0.3871797 2
4.1238632 2.5839312 0
3.0979085 0.25422904 2
2.3202207 2.2676718 0
0.61725789 0 1.8339853
2.8122313 0.86016768 2
5 2.8193586 0.31374192
4 0.17984082 1.8496819
0.97461092 2.8207657 0
5 1.8876623 1.0042962
0.21997797 2.5959773 0
2.1173499 0 0.33577597
4 1.0191773 1.2599959
0 2.2970057 1.7146629
0 2.052531 0.16064449
2.2603061 1.1156284 0
3.9642363 0.36896357 2
1.8775824 0 1.6524971
3.4403543 3 1.9952766
0.53355533 1.464576 2
0 0.059769191 1.0201093
4.8437543 3 1.8799912
0 2.0578618 0.52682811
2.5894523 3 1.634177
5 2.9933097 0.75088745
4 0.77821732 0.80877113
1.8232764 3 1.3585109
4.6141591 1.5 1.9714069
2.3770683 1.5636042 0
3.9936299 2.8751926 2
2.9592855 3 1.3349903
2.9737825 0 0.68207616
2.1399033 1.7093427 2
3.8881748 2.2327659 0
0.34413505 0 0.33486715
0.58143997 1.3369734 2
4 0.42469749 0.47575754
4.3223181 3 1.1419914
2.2450342 3 0.85203272
3.1638849 0 1.1638659
2.6276176 0 1.2683712
0.63208294 0 1.3240429
4 0.90054673 1.9954307
4.8820562 3 0.5227809
1.2966557 3 1.5069246
3.4824705 3 0.82929331
0.4393391 3 1.7392368
0 0.030289466 1.1736224
0 1.2352058 1.7938186
0.73322892 0 0.87957633
1.823032 0 1.0703557
4 0.13133883 0.78372598
3.6223176 2.2531331 0
4.1283255 2.7891409 0
3.4886899 1.2066455 2
3.0819778 3 0.89021689
3.9787836 1.7867916 2
0.33876058 0 0.59878159
0.59931648 3 0.62917513
0.68927616 3 0.6705513
2.880379 1.896714 2
2.1239185 1.1981317 2
2.525414 0 0.0098983673
0 2.8007047 1.1364553
1.6702385 0 0.20317276
2.4443026 1.4217646 2
4.5455227 3 1.1494349
1.0754495 0.77783823 0
1.3146361 0.30115813 2
4 0.45526913 0.64042479
3.9257448 0 1.0289286
1.2815663 0 0.1379621
2.5274594 3 0.98675054
1.4371207 3 0.89626175
0.013711793 2.0044751 0
3.3416159 0 1.5897657
3.0918112 0 0.4178564
0.6237011 0.59359896 2
1.4343933 2.8321786 0
4 0.044456631 1.458132
5 2.742763 1.4805999
2.5646524 2.5583694 0
0.20489623 3 0.61261791
2.645638 2.4941976 0
0.47670442 3 0.91077214
0 2.4224763 1.7659185
4.1666183 2.9716198 0
5 2.1493702 0.2536613
0.78545678 0.21079716 2
0.90153247 0.18818578 2
2.0588746 0 0.18118303
3.9391041 0 0.95283419
2.7158477 2.1645746 2
4.2378712 3 0.80093277
1.9983695 2.8983998 0
0.43564808 2.9121742 2
3.8326714 1.7295306 2
3.8232298 0 0.59931827
0.78490525 0.56966358 2
1.2709856 0.35362372 2
1.3858474 3 0.20836124
1.5373694 2.6449962 0
5 1.5266738 1.7456627
1.0363029 2.5212972 0
0.89361715 1.9903973 0
0.52326107 0 1.7310034
0.2283666 2.406096 2
1.5999002 1.8347763 2
4 0.4322741 1.3005759
0.27887765 2.9046037 2
4 0.98590267 1.5959009
2.1412785 3 1.092476
0.10345817 0.019530464 0
2.535496 0.24229944 2
0.54703927 3 1.5367011
2.9689271 1.7529026 2
1.3672249 0 0.15900418
3.902492 3 0.99843669
1.7967625 1.7911114 0
3.6520691 0.88836169 0
1.0029052 3 0.11085624
3.8279614 3 0.11085135
3.8717203 3 0.24384438
0.81803221 0.17964578 2
4 0.54875332 0.51616919
0.62404037 0.23074576 0
2.6254253 1.2115074 2
3.150568 3 0.12412068
0.94016129 3 0.17472287
2.9687481 1.290319 0
1.2191017 1.2429087 0
1.0941956 2.7062893 0
0.051527411 2.4923408 0
4.1035132 3 1.1570013
1.4291664 0.67291796 2
4 1.1035498 1.4533548
4.5450511 1.9991903 2
1.9922885 1.3323003 0
1.0867327 1.2176216 0
1.1655904 1.1860098 2
5 2.9640949 1.8098975
3.5160387 2.6087711 0
0.6140815 3 0.26950166
1.5189945 0.447938 2
2.7854223 1.0309167 2
1.9358784 1.811757 0
2.4475093 1.6387421 2
1.4281483 1.1533614 0
2.4679933 1.1242379 2
3.7932465 2.1771255 0
1.4114349 0 0.0594455
4 0.93871361 0.24473125
0 1.8876053 1.6129073
2.1549563 0 0.87460309
0.67023081 2.1311595 2
3.4613593 2.9515188 2
4.7388849 1.5897048 0
0 2.7335014 0.041783176
5 2.6881747 1.2149951
1.9875473 3 1.8672109
2.1542385 3 0.13359737
4 1.0636216 0.19064866
3.2580433 2.4925771 0
3.8670886 0 0.19740878
2.6505454 3 1.3086655
5 1.9800253 0.78349876
4.1974874 3 0.68407631
1.6765926 1.0819153 2
0 1.9468197 1.8984888
3.7131095 3 1.5233516
4.6998663 3 0.5386349
4.9350681 2.6887348 0
1.9296353 3 1.2233621
0 1.4210562 1.1808474
0.86732179 0 0.2806626
3.2702518 0.4570809 0
0.86083448 1.3694839 2
3.1096296 0.65325999 0
4.4497733 3 1.7298421
2.1429565 3 0.37440112
2.1133893 3 1.5545129
0.45568559 0 0.38358337
2.6509931 2.4026406 0
4 0.090280242 1.6712105
2.3641977 0.58083534 0
0.25757191 0.5398674 0
2.2799425 1.256478 2
0 0.57494396 0.19406633
1.716345 0.090008773 2
4.8696103 1.5 1.868265
3.9963732 2.4450834 0
4.7082162 3 1.611425
5 2.7281144 0.42264929
1.4199961 0 0.63522363
4.2424064 3 1.9225072
0 0.82978368 1.9909936
3.5994747 2.4701393 0
3.8320324 0.44803506 0
3.4691186 0 0.37000597
3.3804123 0 1.2928561
1.3728589 1.8914773 0
4 0.87826389 0.04941684
4.2160702 2.4184351 0
1.9688441 0.22116287 2
0 2.4501951 1.6381562
4 0.53176022 1.896023
4.1568589 1.6797588 0
3.833427 2.0122728 0
3.8083549 2.2357588 0
2.4348757 3 0.40366307
1.4863043 3 1.3041565
0.23526222 1.4523816 2
3.1996713 3 0.046416964
4 1.2176622 0.93373638
0 1.7101442 1.6763524
2.6634653 0.44479838 2
3.0417769 0 1.8407764
2.2983754 1.173744 0
1.1762528 0.90257698 2
2.1830163 3 1.1398177
0 2.3500485 1.2596433
4.4105277 2.0696175 0
4 0.23252012 1.7844554
0.0032747481 1.0067931 0
0.9555912 0 1.8515358
0.30087712 0.073906243 2
0.89439821 3 0.63938528
2.0370212 2.7363722 2
0 1.8511101 1.316
1.2084029 2.429091 0
5 2.0619609 1.5824749
1.7843012 0.20304762 0
1.1051623 3 1.8191475
1.2679533 0.4554711 0
0.842462 2.4224353 2
1.8204724 3 1.0242131
4.1952724 2.6426246 0
0.94773346 1.1513277 2
3.8993025 0 0.33348072
0 1.1276083 1.5500871
4 1.3690101 1.2842449
4 1.1421653 0.79014313
2.1003597 3 0.030948866
4.5637727 2.2689145 0
2.8235335 2.4311149 2
1.0454872 0 1.160164
5 1.840661 1.4085975
4 0.30228925 0.47056898
0.64826351 3 0.51189607
2.5337479 0.88934278 0
3.0181835 1.8759416 0
3.7030156 0 0.37448171
1.5387913 1.804209 0
2.4777873 0.36428297 0
2.2311401 0.94316107 2
0 1.6313509 1.8626646
1.5957295 2.2002742 2
4 1.3340135 1.1595185
1.5851492 0.90376985 2
0.94350183 1.7865317 2
0 1.6318591 0.19127055
0 0.017722946 0.086296946
0.15526184 2.1405919 0
0 1.6166781 0.95519549
3.7433796 1.3760324 0
5 1.8573251 0.99775672
2.1741297 3 0.67420578
4.3247633 3 0.556539
1.5008454 0.24432801 2
4.3393226 2.2983713 0
2.553648 2.6889882 2
0 0.0084095281 0.30161428
0.84583813 1.0673933 2
2.8854194 0 1.9541928
4.112329 2.1206989 0
2.6299479 0 0.8927241
2.544446 3 1.8802059
2.4142029 2.4331419 0
5 1.5095677 1.9489213
1.4020741 0.55606669 2
3.6124015 1.7676479 0
3.7499552 0 0.25364032
2.8447177 0.42534792 2
0.48367828 0.559636 2
0 1.5904421 1.4071705
3.5463021 2.9499204 2
0.46706882 0 1.6346494
4 0.57002878 1.4109972
1.1754721 0 0.26729971
4.0680509 2.0114174 0
1.7426749 0 1.887136
4.7135949 3 0.55404788
3.9353971 1.8820893 0
3.9379139 2.1968775 0
4.3236938 3 1.4994206
2.4597373 2.6075416 0
4.1264682 1.9465219 2
0 2.5106719 0.56628597
2.7097085 0 1.1722479
0 0.22893031 0.52171415
1.0834863 0.85268533 2
4.4042873 3 1.0167294
2.3409295 0 1.9424944
0.66031891 0.33701843 2
2.0094643 3 1.8884357
1.5034913 0.79455358 2
1.2960792 3 0.89548606
0.58527923 0 1.3593457
2.7961061 0 0.89746475
4 0.58058161 1.7610947
5 2.2525847 1.3821056
0.5365392 1.3170861 2
4 0.34280944 0.71019113
1.9867954 1.6535821 0
0.37460595 0 1.4575732
2.7037199 3 0.25041035
2.5805402 2.8718486 0
2.0255075 3 1.8058714
0.37812456 1.9723003 0
0.68457907 2.6813588 2
1.9626073 0.47700042 0
0.60433972 3 1.6419153
4.4933147 2.0385549 0
1.6385734 0 0.76400083
2.4895282 0.75947863 0
5 2.564971 1.2774805
4.9224548 1.5 0.89356637
3.6770904 2.3085351 2
4 1.1060852 0.96912825
0.16019762 2.8844614 2
0 0.66316521 1.0317289
3.4901214 2.8784163 0
2.7592268 0 0.023146074
1.3209803 1.0119532 0
1.3592854 2.0325549 0
0.049259245 2.7473564 2
1.1805735 3 1.4169263
0.77122051 2.899127 2
1.9251987 0.98096961 2
2.2949243 0.81590348 0
0 0.42516178 1.7027763
0.80713016 0.6283102 0
4 1.3861556 1.693556
2.5504992 0 1.5597104
0.70867991 1.0738823 2
2.1617355 0 1.2580397
2.5570664 3 0.037573904
2.703084 0 0.28388005
1.2775353 0 0.48661444
1.0073504 3 0.17468876
1.722404 0.53138703 0
4.3059778 2.4255135 2
3.3238356 2.1474743 0
4.6014485 2.065532 0
1.8621016 0 1.3006831
0.32169244 3 0.11875024
0 2.4343178 0.39693657
4 1.088378 1.6670074
4.0748086 1.9508941 0
1.1808953 2.1899936 2
3.2962623 0 0.021978468
4.6549201 1.5 1.8153739
1.5134273 1.5988883 0
3.273201 0.63408285 2
4 0.20426974 0.43786305
0.13767093 0.034455243 0
1.7415977 0 1.26899
0.37227833 0.93001068 0
0.27327159 0.97191161 0
0.040574443 0 0.94136757
4 0.70748323 0.73758197
5 2.4738922 0.31386662
4.8274603 2.2136714 2
1.3691716 1.6479812 2
1.5999783 2.421041 2
4.1628876 2.518821 0
0.91587132 3 1.1051714
2.7430799 3 0.73692888
2.9774222 2.5270267 2
0.47191486 1.5269246 0
4.1683235 1.5 0.9558633
0.53441757 0 1.3767343
1.8332379 2.3343232 0
0.85263413 0 0.4474335
3.7467165 3 1.7277137
4.955267 1.5 0.74345982
0 0.24650826 0.13015443
4.5355048 3 0.075607844
0.80409855 0 1.2830737
3.167582 0.1862157 0
2.9067953 0.088267066 0
4.7129288 2.505404 0
3.5873485 0.42247862 2
3.0432875 2.6589186 0
1.8009795 0.12327931 2
0.1845426 0 1.5539603
1.6047465 3 1.7802906
3.6745322 3 0.59094429
0.58853072 2.2870333 0
0.67129081 3 1.9392329
2.5538869 0.50194526 2
2.4605021 3 0.34426728
4.3382001 1.5 0.38733348
2.2815599 0.17187966 2
0.77815801 2.169045 0
3.0889015 1.6951205 2
4.2117109 3 1.5522367
1.1871592 2.5551357 0
1.3219589 3 0.060908675
0.68046814 3 1.1622099
2.0710959 1.4336079 0
1.3341277 0 1.6044983
5 1.9890583 0.36222416
3.9583893 0.92613828 0
2.9477873 0.55618453 2
3.9523218 3 0.71644545
1.454933 0.44570163 2
3.5035625 2.3593302 2
0 1.2329276 1.5335243
2.3063295 0.74968934 0
0 0.54750741 1.5382599
4.2922344 1.5 0.17171369
3.9104681 2.4042292 0
0 2.4145846 0.13561189
4.9272423 3 1.3794535
2.6850724 3 0.93014878
0.0079071727 2.2485847 2
0.5128659 1.8631823 0
4 1.2444477 1.7387525
4.6892591 3 0.82115048
0 0.044170715 0.96254736
4.4685354 2.3356967 2
2.5530312 0 1.7697887
2.0841908 2.3124588 2
2.7460501 3 0.428278
5 2.9769752 0.78429824
5 2.8235824 1.4711454
3.1984713 3 0.30581328
4 0.45234618 1.4238991
1.3757232 3 0.49381804
3.9380383 0.19922332 2
0.40184495 3 1.2242587
0.2010998 0.70972478 2
0.46154153 0.41410229 2
4 0.55247653 0.87031996
1.4644742 0 1.2516359
0.55972427 0 0.84307981
3.6876981 2.9289484 2
0.0307029 0.4922494 0
0 2.2357376 0.8207373
0.7303142 2.4588823 2
4.7223506 1.5 1.4742563
0 2.425432 0.45104232
0.17703624 2.9247518 0
2.2686372 0.97385019 0
2.4848385 3 1.5164961
1.6021315 0 0.83803797
1.0248355 2.7255473 0
4 0.39668277 0.60948807
2.5756123 0.11088515 0
0 1.1676224 0.43751839
0.8523286 3 1.0748339
4.0791225 2.9422195 2
1.0936884 2.7763529 2
1.139541 0.030306138 0
0.66108668 0.73244059 2
0.32207564 0.22259071 0
4 0.64357293 0.5579353
3.4767823 0 0.48886195
3.6885328 2.8229012 0
3.0944209 2.2938776 2
0 0.88853061 0.18801907
0.46051192 0 0.25660986
3.9279633 2.5732408 2
3.7145162 3 1.4621263
0 1.6835444 1.8441652
0 0.49730384 1.7938672
0 1.0319895 1.3984648
1.1969334 0 0.55793816
0.93340874 3 1.9821945
1.3752306 1.4251915 0
3.4867582 0.76611155 0
4.2853146 1.5 0.29580313
5 2.1496913 0.39179277
0.51849437 1.5239191 2
0 0.73460579 0.65099734
3.6005573 2.2537568 2
4 1.4683779 0.73118085
0 2.1446187 0.71593767
2.5555472 0 0.72306287
4.294086 1.5 0.014068929
5 2.2188687 1.9576793
2.8551383 0.65982926 0
1.7650025 3 0.02259424
1.9045779 3 0.80489421
2.7239873 2.8416014 0
2.0185697 0 0.62338758
3.9886193 0 0.10641682
0.11577605 3 1.6107519
0 2.8393545 0.067723893
3.2808268 0 0.23641381
4.351366 1.8104588 2
1.3482827 0 0.53100634
1.1902139 2.9622886 2
3.5940206 3 1.5969805
0 2.0942199 0.55102432
3.8795362 2.7391486 2
1.9405099 0.00097207585 0
3.5446615 0 1.3863271
2.2640431 1.9181652 2
3.1314666 2.2671976 0
1.6222219 3 1.882574
4.6577387 1.5 1.5998656
3.7317617 0 1.0311037
1.5710393 2.6219335 0
1.5147116 0.56872064 0
3.8844833 1.5513109 2
1.1561234 0 1.2842151
0 2.4489093 0.24736169
4.8156123 1.5 0.78367895
1.4748672 0 0.39091036
1.7497618 1.9310007 0
0 0.45295098 0.31073448
3.1942787 0.99580312 0
1.0361122 1.1447556 2
3.2503872 2.5369058 0
2.5935576 2.5216749 2
2.7703545 0 0.029215641
0.59872812 0 0.80744219
2.699708 0.57571995 2
4.1868682 1.5 1.4851519
0.35831365 0 0.96534169
0.74302477 1.7635192 0
0 1.43565 0.56435519
4 0.81456518 1.2315894
2.2365825 0.12178782 2
3.4429028 1.410941 0
3.8558245 3 1.386829
3.1248102 0 1.0937151
2.132185 1.0782295 2
0 1.2388102 1.2716525
2.8236654 0 0.20120719
3.7917171 1.9604148 2
0.099562362 0.047314525 0
1.8188088 3 0.71446335
5 2.2755268 0.50368565
2.1401112 0 0.26018202
3.0481741 2.7354808 2
0.10637158 0.020638756 0
2.6669767 1.3453888 2
5 2.5645289 0.029753599
0.72747785 3 0.94554973
4.0499129 3 1.758157
2.8387749 2.8372791 0
0.13213612 3 0.23026395
3.4034328 0 1.8833413
3.6300242 3 1.8055644
4 1.4751434 0.97119898
5 2.8760049 1.037432
0 2.6832366 0.75581795
1.0182079 0 1.2694097
2.6629977 3 0.90721321
4 1.2609613 0.62477726
5 2.8558826 0.65612626
1.4484475 0 1.9587278
2.4622364 3 0.80871725
0.42436156 3 1.2065622
3.8588846 0 1.320888
4.4984884 3 1.8614852
3.0915766 3 1.0905739
3.7998793 2.6627777 0
2.5336726 2.4953399 0
0.96216959 0 0.20581125
1.3062979 0.35835788 2
3.5721374 0 1.0976826
0 0.88371944 0.1886705
0.85242474 1.3221452 2
1.3558478 0 1.2207623
3.6012535 2.5353775 0
0 2.5153241 0.54645854
4.7515502 1.8894757 0
0 2.4884748 1.5902768
2.2192965 0.1347522 2
0 2.4396374 0.053950213
0 0.52571642 0.63773257
0.056282766 3 0.53093988
4.1768699 1.7484419 2
2.5258543 3 0.32097694
3.4840064 0.063809447 2
4 1.2091486 0.79299492
1.4451381 0 0.85035312
2.5581019 3 0.67483813
2.4978607 2.5877473 0
2.0089338 1.1831788 2
4.461587 3 1.549408
3.8308005 2.7587161 2
0.85290027 2.3958206 2
4.6687174 3 1.967172
0 1.4769348 1.5463817
5 2.3885512 0.56928974
1.4578338 3 0.40358773
3.2393942 1.4844613 0
1.0529109 1.8595035 2
4.9512987 3 1.558243
0.91359502 0.4619348 0
0.22309878 0 0.086637452
4.848774 1.8555702 0
2.2170622 3 0.65440172
2.1509113 3 1.7127872
2.1672702 2.7776587 2
1.7660723 2.6415672 0
4.3569474 3 1.2871554
3.6154506 3 1.1216738
4.9791989 1.7484524 0
0 1.9248189 0.68613499
4.2611194 1.5 1.2853099
2.5950856 3 1.0348769
1.5285782 1.1307805 2
1.6604214 3 1.623343
2.5668268 3 1.6166785
4.8317342 1.5 1.4002782
3.2601657 3 0.40357736
4.249928 2.806303 2
1.3411142 1.7886734 2
3.0268202 2.2998524 0
4.0174131 1.5 0.51454407
1.8274322 0.0018102976 0
4.4422326 2.7753601 2
1.6486248 3 1.0773098
2.9322436 2.6678424 2
0.3012307 3 0.10695903
0 0.18533781 1.8813466
3.3465376 1.3489112 2
0.36039999 0.79906225 2
5 1.7054327 1.421768
2.8687422 2.5124962 0
2.2114079 2.7091069 0
0.097629316 0.066637464 2
4.4349275 1.5 0.44884491
4.120512 1.5 1.0518453
0.67026913 0.82312071 0
1.0070181 2.4957891 0
3.9803128 1.1666231 2
0.18760008 0.017771481 0
3.5578282 0.89150709 0
0 0.94422251 0.78416234
0.61825454 0 0.9443453
5 1.8976396 0.54275507
5 2.6478007 1.1682677
1.2297163 0 1.135681
0.99643731 2.7253151 2
2.0094931 3 1.5824828
1.3396308 2.3218431 0
5 2.549968 0.043205585
0.81931955 0 0.37943685
0.72023803 0 0.72629148
2.938514 3 1.5924019
3.1947415 0 0.98859644
1.4020897 3 1.4737529
4 0.86866707 1.9604905
4.8959479 1.5 0.21860445
0.024380103 2.5105321 2
2.6401012 0.068441965 0
2.5494075 0 0.16839056
2.5472827 0 0.58816004
0 1.0047392 0.59670562
0.1730385 0.85306948 0
1.2549907 0 0.54117274
1.6497023 1.8523299 2
2.285502 2.8992541 0
0.26741424 0.36515111 0
2.0543149 1.0569015 2
0 1.0738074 0.27818829
0 2.2185895 0.35559863
0.02450796 0.32670549 0
4.5851212 1.5 0.83514416
4.0292959 2.2241096 2
0 2.8315468 0.6247704
2.2676156 0 0.14491852
0.8422718 3 1.178799
2.2977734 1.0902581 0
1.0927007 1.7594225 0
1.0020086 1.166993 2
1.330096 0 1.7550137
5 1.7471906 1.2409873
4 1.1480519 0.31248567
1.797029 1.1562376 2
0.27751696 1.6173939 0
4.7861586 1.5 1.408426
0.46475595 0.53521478 0
4 0.062483091 1.2458994
3.1604164 0.10906012 2
0.39241147 0.61624384 2
1.9224316 0 1.8102683
0 1.6197493 0.019402545
3.4066994 0 0.45215034
2.0476112 2.4658415 0
3.7825387 3 1.5016229
3.1195557 0 1.1966783
3.583251 0 1.6036487
3.7226295 2.5948622 2
1.6834693 2.5735345 0
0 1.9869068 1.1648196
4 1.1947566 0.70725536
4.8756385 2.8878312 0
3.330039 2.6719565 0
1.8778429 0.17779832 2
0 1.3408219 1.0619081
1.8026071 1.8814327 0
0.90150476 0 0.27079499
2.3819845 1.6261586 2
2.0348735 1.8688426 2
2.4642768 0.59305614 2
0 1.3618788 1.3377292
2.7531927 2.0077622 0
2.9015946 2.9568343 0
0 1.4448907 1.6992979
4.2805929 1.9593447 2
1.9325616 0.93410742 0
2.3853033 0 0.65428323
3.6116052 0.030355068 0
4.7640119 3 0.082752183
2.0244439 0 0.94260579
1.7423373 3 1.3040612
0 1.5408281 0.18252471
0 0.61938161 1.3959172
