# .PCD v0.7 - Point Cloud Data file format
VERSION 0.7
FIELDS x y z
SIZE 4 4 4
TYPE F F F
COUNT 1 1 1
WIDTH 2122
HEIGHT 1
VIEWPOINT 0 0 0 1 0 0 0
POINTS 2122
DATA ascii
3.8937378 3 0.10375924
4 1.4040217 1.7403802
0.94728196 0.64723128 0
4 1.2529421 0.71034521
3.9517524 0.18438569 2
1.3960241 3 1.851189
4.1634779 1.5 1.601768
2.2847302 3 1.8530573
3.2113349 1.3492863 0
0 0.96598667 0.19845755
0.17808804 0 1.2992516
5 2.8422301 1.1018653
1.645612 0 1.6724815
0 1.7937232 1.3261031
0.559497 2.9867597 0
1.1835003 0.24041811 2
3.6822567 2.7761846 0
2.036808 0.52184963 0
2.6136565 0 1.956924
3.4871161 0 1.6228056
2.7433491 2.1737347 0
2.6518323 2.0000062 0
0 1.7839907 0.51071417
2.8512878 2.9732084 0
1.7035247 0 1.032546
0 0.69554782 0.81063682
4 1.0665718 0.71250087
3.4040444 0.83674878 0
3.4619522 1.3577803 0
3.8251734 0 1.4386854
4.8378391 1.5 1.2413114
0.33030355 1.8962859 0
4 0.86356175 1.7460976
3.9515471 0 1.3846576
0.17792231 0.22863169 2
3.7078707 0 0.32934982
1.3366526 3 1.76991
1.3971992 3 1.3272057
5 2.7485766 1.2578224
1.6701854 2.7620685 0
0.43114838 2.3912275 2
4.1302958 3 1.7519587
4 0.088627808 1.1814538
3.2954144 2.4565864 0
4 0.079894036 0.82097739
0 1.0654417 1.8796481
4.4398584 2.8538866 2
2.4219198 1.3467846 2
0.22435912 0 1.4966432
4.695158 1.5 1.0807843
3.0358343 2.5770469 2
2.8637111 0 0.73372722
0.40374833 3 1.5803578
2.3805988 1.7087039 2
3.0697424 3 0.51976198
4.852623 2.7118561 0
3.8344753 0.91011912 0
3.5418818 2.9387178 0
0.9103148 2.2481534 0
4.7862425 3 1.3339015
3.8200665 3 1.0381327
5 2.9725437 0.63468105
1.0578884 3 0.25701812
1.3598148 0.86335903 2
4 0.0092865424 0.18512748
4 0.89395797 1.6713294
0.16160864 2.1113915 2
0 0.47779569 0.12670793
1.8069344 0 1.6360935
4.1664262 1.5 0.0072323289
1.2202841 1.2934935 0
1.7949617 3 1.7990038
2.4996603 0.7448144 0
5 1.5484363 0.084802523
4.3216715 1.5 1.7915649
0.289426 1.5504589 0
1.4907472 2.2815759 2
4.5839624 3 1.404196
5 1.763171 1.9247714
2.8301992 0.8851372 0
3.6433451 3 1.4517471
3.6090095 2.5761147 2
0.50203568 2.9064 0
0.034814943 1.3517635 0
1.3788124 2.0436964 2
2.1110773 1.0878898 0
4 1.2857889 1.5494217
5 2.8777819 1.3424808
0.69695276 2.3917911 2
4.8014588 2.7655821 2
3.2267916 0.75866044 2
3.0167255 0.55923241 0
3.9043052 1.8477187 0
5 2.0643938 1.220264
3.516206 0.22780173 2
3.2880204 1.7562953 2
2.0376461 2.4660349 2
0 1.5802857 0.53862894
2.247865 3 0.97024405
0.64410913 2.6718094 0
4.8317585 3 0.017757094
3.1978126 3 0.13706499
3.2957904 1.2556735 2
3.0196362 2.9168622 2
2.2919562 1.2542688 2
0.60461426 3 1.5124278
4.7016602 3 0.27114668
2.354815 0.84129989 0
2.0732584 2.9236574 2
5 1.8470608 0.99701273
0.49941227 0.17839962 2
4 0.60516763 0.24965477
5 2.969733 0.4570969
1.6260989 1.0413347 2
2.8849247 3 1.6844361
3.6433516 1.9567225 2
1.3423923 3 1.1240683
0 0.059210565 0.040608034
4 0.024248119 0.66068166
2.6147585 1.3205032 0
2.5016074 1.2889634 0
0 2.9086227 1.145198
0.75365388 0 0.066074736
4 0.41993523 1.0531099
2.060755 0.40266973 0
1.0106386 0.16846198 2
0 2.7616539 0.52908516
2.5487511 0.39974925 0
1.9764364 1.5967529 0
1.6830012 1.2166362 0
3.0931132 0 1.48366
0.057051614 0 1.1575999
2.2068491 0 1.6338575
1.0179116 0 0.3386662
1.6145787 0.47186643 0
0 1.0735841 1.4733425
0.20334357 1.4004138 0
3.2656255 0 0.83238965
5 2.3786266 0.61958718
2.7665823 2.5840027 0
3.0547888 0.68602931 2
3.699028 1.9081432 0
0.81993687 0.26257324 2
3.3779702 2.6643195 0
0 1.5914896 0.03391299
0.84654397 1.7256283 2
0.52841628 3 1.4165937
2.8780241 0 0.22431241
3.8167183 0.29001108 2
4 0.87449938 1.1056373
4.6461968 3 0.82597995
1.5311933 0 0.10738026
2.8087354 1.0365975 2
1.4150038 2.1947119 2
0.60091877 2.678407 0
3.8017104 0 0.30401388
3.1687729 0 1.6984342
4.7931657 3 0.35963625
0 0.045172341 1.9926189
3.036778 3 1.9884588
4.0886955 2.9426107 0
4.4031639 1.5 1.4185086
1.3558402 2.0088146 0
0 2.5013349 1.5178963
4.4211941 3 1.7322093
0.20106889 0 1.381604
0.29739597 0 1.5221497
2.4236631 1.182801 2
0.13027972 3 1.2390938
2.2369015 1.4690624 2
3.0246103 0 1.668856
1.8406785 1.9654979 0
4.5529943 2.6219366 2
1.3450562 2.3728664 0
3.6749561 0.72707933 2
5 2.4895723 1.2117399
4.1252823 1.5 0.18367049
2.6946306 0 0.94435644
5 2.8179586 0.51809633
3.3379123 1.7037045 0
3.8060822 3 0.22284524
0.57487422 3 0.16009112
3.7077341 3 1.3198605
1.2518584 0.46529597 0
1.723938 3 1.4555107
5 2.0659049 1.9489563
3.025727 0.22203502 2
2.0448697 0.41162825 0
2.9522023 3 0.88793927
2.8527448 0 0.51858395
3.6892648 0.39248288 2
0.047178231 0.73450106 2
1.0728194 0.10984341 0
0 2.701854 1.3949807
4 0.60737669 0.85124296
0 0.4938466 0.52171874
4.3944063 3 1.6369113
0 2.3963964 1.1682192
2.3669765 0 1.6671668
1.2572705 2.1549234 2
1.389957 0 1.8242944
4.2966661 2.7039428 0
0 1.8969952 0.50020099
0 0.313849 0.71464807
1.9318893 3 0.39359394
2.6990197 1.7909553 2
1.3257475 2.0312335 2
0 2.9136753 0.47224465
0.33102739 0 0.072452933
0.59268928 3 1.0231934
2.4765823 0 0.41271552
2.3660467 1.9463979 2
4.3699565 2.0495176 0
0.39197388 0.3851375 2
3.6211023 3 1.4816706
3.5997717 0 0.86199307
0.57266295 2.7347083 2
0.2895945 2.7309113 0
1.5031017 3 1.1767415
1.4039186 3 0.42065659
1.4466271 1.0605649 2
3.0719051 2.6559782 0
0.8979243 1.2746691 2
1.5267802 0 0.46290046
5 2.6263981 0.24214558
5 1.6333656 0.75719965
4 0.62323886 1.6489069
4 0.24101125 0.10890193
3.859751 0 1.6171564
3.9597771 2.042228 0
0.37268093 3 0.035907704
2.6941736 0.13949808 2
4.771749 1.5 0.31466636
1.7474796 0.25868097 0
5 1.6217601 0.44700104
4.0183268 3 0.32667759
4.7345557 1.8847804 0
1.1180489 0 1.6939741
4.6346879 3 0.65749586
4 0.31384343 1.2902436
3.6240335 0.4099147 2
5 2.0069244 1.7703543
5 1.788229 0.75825137
5 2.6198845 1.3438098
3.9616814 2.4190843 2
5 2.2976644 1.7235022
0 1.7016443 0.0052906312
3.7788651 1.403578 2
2.1307771 0 0.46703553
2.4839349 1.4467636 0
0 2.1298873 0.21790546
4 0.39990351 0.54243475
0 1.9516144 0.8000381
0.42058748 3 1.489862
0 2.2605374 0.11848664
3.9537768 0 1.8269701
1.2908911 0.36641085 2
4 0.071000665 1.5176927
1.9435902 0.76446939 2
2.2634745 1.397446 0
1.3874658 3 0.40169767
1.7026838 1.7349995 2
1.9191222 1.901234 2
0.6264624 0.23390341 2
1.7276372 0 1.5686159
4 0.82100439 0.92987514
0 0.48574978 1.2485822
3.4810226 1.1359068 0
2.5724986 0.31528035 0
1.2849874 3 0.90648627
2.4601805 0.67552793 2
3.9437108 0.3496311 2
0 0.46672454 0.076710351
3.0168896 3 1.904705
4 0.15597409 1.077069
0.79927701 1.4044102 2
3.8064725 1.8236922 2
4.909749 1.5 1.9548023
1.3283497 2.1005967 0
2.200089 0.060856141 2
1.95398 0 1.6844954
4.9734073 2.5638862 2
4.6066742 1.5 1.4315548
4.0711036 2.8896892 2
4.0219421 3 0.30240357
4 0.22435749 1.4952703
1.5205472 0.2284992 0
3.5003991 3 1.5671538
3.1354434 3 1.7409327
2.7412848 2.0459697 2
2.7828209 0 0.67189676
2.4188907 2.4155622 2
0.50827885 0 1.435501
3.452673 1.3763659 2
3.5820491 0 1.0156393
2.1373336 1.7466235 2
5 1.6124885 1.7414758
0.55714613 2.9757369 2
0.41148102 3 1.945212
2.9135292 3 0.94797266
0 0.20129469 1.245005
4.6092587 1.5 1.7135724
0.31138214 1.0974638 0
5 2.4223361 0.596614
2.0227118 1.3758956 2
0.076949753 2.0199332 0
1.5786645 0.65435463 0
0.54765338 0 0.012517257
0.15150359 1.7838024 2
0.42377222 1.0253313 0
1.997534 1.5960616 0
2.0135365 0.027574783 0
3.6459608 3 0.17723393
4.4526377 2.756278 0
3.2428267 2.3924294 2
2.8467832 1.374872 0
5 2.6178808 1.8097372
3.0267415 2.1066885 0
4.4189553 1.5 1.6021369
1.8095123 1.3195202 2
3.6036358 3 1.6712165
1.7669947 0.94925869 0
3.8710918 3 0.020161085
5 2.2168577 1.6821859
1.7571703 1.628549 0
0 0.032097209 0.42100501
4.2749972 2.1695497 2
1.7213944 1.5752186 2
2.601109 0.26736125 0
0 2.9575186 0.72517926
3.3017287 1.6081276 0
0 0.9445259 1.2337556
3.956342 0 1.3965676
3.6015816 3 0.015088627
1.4243379 3 0.81112802
0.75358731 0 0.49164808
3.6587274 0 0.88190168
3.4898057 3 0.048682924
4.3978329 1.5 1.4892393
2.9667439 1.503305 2
5 2.7683849 0.51302469
0.84248537 0.89836758 2
2.7388699 3 0.063860543
4.8750448 1.5087769 0
4.2409058 2.9838502 0
0.21741432 1.846278 2
3.8727603 3 1.5630527
3.5296395 2.7071199 2
0 1.0670962 1.3004758
3.0239079 0.52672493 2
0.42790124 3 1.6373974
3.9057119 3 1.9923427
2.1262629 0 1.6295425
0.47323021 2.6164954 0
4 0.62076604 1.7098907
3.7645562 1.0150821 0
0.69410008 1.5546572 0
4.0519962 1.9351968 0
4.795361 2.50208 2
0.69383067 0 1.6624616
1.1043983 0.79265177 2
0.45477191 0.53187132 0
4.6023149 2.816756 0
1.4024099 2.5478303 0
3.0693119 0 0.30462253
0.13596971 1.7008142 0
1.6157264 0.20007204 2
0 2.9861305 1.5067925
0 0.67494845 1.0790036
5 1.7218444 0.71958762
4.5209861 1.7934821 0
3.0008595 3 1.8748056
0 0.97306401 1.4497249
3.1787205 0.40919209 0
4 1.49733 1.67685
4 0.4354156 0.77548575
0 2.793895 0.44206578
3.1186264 0 0.15192758
4.8382297 1.5 0.24945094
0 0.94858479 1.0406431
4 1.0545347 1.7158879
2.7856507 0 1.1343294
0 1.7898269 0.83100015
2.1177664 3 0.38902408
2.4060471 3 1.8283846
0 2.5742309 1.4686465
3.792542 1.8220344 0
3.6231856 3 1.2906604
0 1.6292274 1.3962916
2.6627433 2.7411096 0
3.8740616 1.1972578 2
2.5991871 0.54755551 2
0 2.8496923 0.48932427
3.557117 0.099662051 0
1.6692942 0.20742573 0
5 1.6050841 1.1824012
4 0.45156386 1.5421778
0 1.3208551 0.31526271
3.0027337 0 0.55018026
0 0.12824439 0.69731033
4 1.3413241 1.9836973
1.0650012 3 1.2574507
3.3105443 3 1.8859081
3.7683532 1.8437307 2
3.2411678 0.59629035 2
3.3476675 3 1.1106265
2.1007612 1.6873794 0
1.6596674 1.6682589 0
4.5064158 1.5 1.5637627
3.3120928 1.6141245 0
4.9276752 2.9292178 2
2.7926965 3 1.668357
1.1073706 3 1.2829717
1.5219882 0.90406549 2
1.7811546 2.0805945 2
0.54981226 1.563414 0
1.8693831 1.5359544 0
1.9074898 0.80890667 0
1.2358462 1.1895593 0
4.876657 3 1.4798976
0.95873046 1.4791316 2
2.7439532 0 1.6903294
4.3055048 3 1.0571867
3.6108341 3 1.7475315
1.4398967 0.70677906 0
3.951858 0.026142206 0
2.6532927 0.39501345 0
3.2064071 3 0.62559205
4.2117243 2.2262876 0
0.28267527 2.2645526 0
0.65483952 1.8644375 0
0 0.91502541 0.056713447
2.7390113 0 0.16401538
5 2.4019177 1.3892632
3.5505331 0.47782347 2
0 0.77068931 1.3843617
2.4987512 2.7097011 0
3.3008859 1.6676147 2
1.1672515 3 1.0910981
1.3372707 1.7507834 0
1.8326163 0.15971416 2
0.20922263 2.1235633 2
1.3455369 1.8376518 0
4.1259184 2.5776348 2
2.447588 3 1.7256896
4 0.78787881 1.1259649
2.5071285 2.1270335 0
5 2.3311746 1.0833842
0.50522989 0.49827537 2
4.8683424 3 1.9188993
0 2.018995 1.5398697
1.5117795 1.9983231 2
0.40664729 1.7221696 2
5 2.539844 0.28376237
4 0.6679607 0.54695773
3.8390019 0 0.81616759
4.8214769 1.5 1.1325293
4.5748672 1.5 1.7098908
4 0.23709391 1.1077142
4.1815672 2.4839756 0
2.2483678 0.36658794 2
4.7670541 1.5 0.00087965932
2.0815406 2.0560138 2
0 2.1633568 0.60546821
0 1.5679133 1.7889602
2.3599524 0.2806356 0
0.51077664 3 0.45186973
1.7314559 0 1.956638
4.0496831 1.5 1.225515
0.68455887 3 0.089029215
0 1.0111477 0.90764797
0.99171555 0 0.53205627
0 0.96450859 0.14290598
0 1.9292647 0.25422511
0.68857449 2.505352 2
0.72780019 3 1.6172415
1.9742384 0.65958869 0
4 0.033438463 0.48791599
0 0.050644934 0.53949207
1.0466862 1.2619166 0
1.5109037 0.72072482 2
0 2.2165678 1.5496274
3.6839585 3 0.24088284
4.840117 1.5 1.4691114
2.5595098 1.4414631 2
0 1.2881088 0.47408819
1.4444978 2.6642287 0
3.9505885 0 0.68453801
0.30933538 0.51752061 2
3.0783365 0.37306342 2
2.6969419 2.2994788 0
4 0.93894964 1.0187902
2.0291219 1.9935609 2
0.15271686 0.644324 0
0 2.5331328 1.8604466
0.6790719 3 1.1146709
1.9887379 3 1.0617262
4.6498232 3 1.4606396
3.0259757 2.7605872 0
1.5810981 0.67612088 2
0 0.812751 1.8333572
4 0.009252579 0.3559463
1.8925612 2.3823261 0
4 0.91546309 1.3774678
4 0.12956899 1.5030476
0 2.4675634 0.10623508
2.4795864 1.5913612 2
1.0909295 0 1.6935045
2.6622806 0.85810715 2
4 0.44261169 0.67087775
1.0865961 0 0.81256509
5 1.7455345 1.6689517
1.9478788 0 0.4036262
4.6666126 1.6744242 0
2.3814745 3 0.62930357
4.3312774 2.3317001 0
4.1783967 2.5621331 2
4 0.53842789 1.5657825
4 1.4783618 1.6613891
2.1907306 0 0.079903267
2.9495893 0 1.6889699
4.7612195 1.5 1.3904394
0.45370561 2.8247595 0
5 2.6418798 0.22063228
4.538712 1.5 0.86215389
1.0169779 1.4955606 0
3.9230602 0.66930652 0
4 1.2379055 1.8640268
3.1278658 3 1.5001849
4.2431717 3 0.48710063
1.5212293 2.9904187 2
1.8919042 0 0.90211266
0.46064991 1.8597318 0
1.3901179 1.2872635 0
3.1457412 0 0.69767278
1.3401235 0 1.4378967
1.1271964 3 1.0930905
1.5207318 0.40011892 2
3.4482715 2.9699643 2
0.97700584 0.93808419 0
0.72152251 1.1122404 2
0.26634115 2.9866717 2
1.6901784 3 1.5074631
0 0.18667383 0.15118331
1.4515853 1.6653279 2
4.4108667 3 0.8379544
4.0766554 2.8509393 2
3.1157537 3 1.5399438
0.61836666 2.1642714 2
0 0.1884118 1.5144436
1.5081527 0 0.76637918
1.5475823 2.3378778 2
2.4910619 2.1591625 0
0 2.7677352 0.29730561
3.3973045 3 0.94459754
5 1.7442865 1.0123187
3.9270065 0.79547715 0
0.92158008 3 0.77802348
1.2698716 3 1.1756344
3.9905632 3 0.94671428
1.6443635 0 1.5983906
1.3290112 2.6054018 2
2.5822856 0 1.9937327
3.0758333 3 0.66740489
0 2.5378726 0.21585891
5 2.2275479 1.4137719
3.0030918 3 0.62119442
0.61131036 3 1.5888568
0 2.0578132 0.71750242
2.6981575 0 0.051183678
5 1.8129746 1.2542446
3.2487035 0 0.18626551
3.246815 3 1.5635026
2.4764478 0.34613457 0
4.4892483 3 1.4945349
1.1927121 3 0.95773554
0.3427467 2.8522038 2
0.61413819 2.6827903 2
4 0.35559842 1.5467981
0 1.2355119 1.5239111
2.3039219 3 1.0024462
0.63688803 3 1.5104729
0 2.6880395 1.9157869
4.1284099 1.5 0.6198833
2.6682346 1.0297089 2
4.257772 1.5 1.6176932
4.8986259 1.5 0.99567735
4.0147667 1.5 1.851018
0.20043157 2.0693951 2
3.6636219 2.5586922 2
0.20825712 2.0909107 0
0 2.0509911 1.5900606
5 1.7112838 0.14511061
5 1.9752152 1.0121683
4.7678308 2.9159746 2
4.3011742 3 0.5110144
1.8314394 2.8465245 0
1.3713815 0 1.5641814
1.406291 2.2779 0
0 0.51769882 1.2922441
3.3671303 0.6050685 2
3.0673733 3 1.9569314
1.3234791 3 1.8381537
4.8626437 2.6552968 2
0.40406784 1.5539654 0
0.1856755 3 0.95990115
0 1.9882956 1.6596104
0 0.92617208 1.2521321
2.0134695 0 1.5839725
3.7374079 1.9354106 2
0.67636496 0 1.0556209
1.8903239 1.0751871 0
0.28504956 2.7955215 2
4.9137225 3 0.52877051
4.5334792 1.5251476 2
0.21152519 0.27244246 2
1.6172738 0 1.3187442
2.6188505 0.63059944 2
2.8978906 1.9500673 0
3.9149976 0.30696312 0
0.47009346 3 1.7211397
2.2592611 3 0.51795274
0 1.7434851 0.20829281
3.1433713 2.4583895 0
1.8386656 0 1.0284564
1.6025398 1.2726762 2
4.9387527 2.0003221 0
0 0.62647009 0.56078637
0.59335804 1.4542474 0
2.7145033 0 1.8032017
0 0.93467027 0.91063941
2.550169 3 1.9887441
2.9535058 0.02207954 2
0.71841639 2.7938886 0
3.7617412 3 1.9314443
0 2.937773 1.0867134
2.8293355 0 1.9673988
0.80479795 0.76166177 2
1.2233076 0 1.5029292
1.1620173 1.9656169 0
0 2.8427727 0.41390845
5 2.790591 0.94204921
0 2.7212636 0.86459672
1.3936201 2.7962995 2
3.2275302 0 1.3033905
0.56295687 1.109236 0
0.43648997 2.9285836 0
2.836972 3 0.64844728
4.5143428 3 0.023600694
4 0.20514931 1.2222576
5 2.7316997 0.22423269
2.3942289 2.9293971 2
4 1.020844 1.4721086
1.5787154 3 1.8363086
4 0.77448142 1.6225315
0 0.43844298 0.50155354
4.346159 3 1.1656221
4.0732164 1.5 1.7813799
4.2716384 2.4831922 2
1.2715857 3 1.492615
2.3603249 2.3256061 0
4.184823 1.5 1.7551824
0.72417593 3 0.24827607
0 1.0813086 0.078490548
3.6620286 0 1.9854954
3.9688458 1.601315 2
4.6006727 3 1.1516331
1.2217705 3 1.0668774
3.297421 3 0.97312093
2.1959767 1.1526196 0
4.4280906 1.9756546 2
0.074718378 2.7070909 0
2.9726119 0.33247459 2
1.3370197 0.56947392 0
3.2294099 1.6823161 0
1.2595046 0.93264568 2
1.8659965 3 0.40674487
0.52063519 3 1.2471147
0.69163364 1.4354088 2
0.91655815 0.80017173 2
3.7801731 3 0.35112181
0 1.9554389 0.33279735
3.6245186 2.5221939 2
5 2.2649219 1.3162763
0 2.9669745 0.44742915
2.197067 1.7391418 0
2.0667629 0 1.9790665
1.8197602 0.044726856 0
3.2163289 0.64487034 2
1.3838975 1.0567825 2
0.060598686 0.15494908 0
2.0589283 1.7149652 0
4 0.95155048 1.7182254
1.5370061 1.5517013 2
0.60680664 0 0.66796249
1.5659442 0 0.017335866
5 2.9539924 1.4846375
1.1161556 3 1.0226315
0.4748624 2.7768979 0
4.4778285 3 0.31367835
3.9254405 0 0.84695131
2.3992219 2.5902176 0
0.24705891 0.29101989 0
2.6360626 0.2940942 2
5 2.8355806 1.0301855
1.2836868 0.0743962 0
3.7904842 0.0047532255 0
0.19539435 1.309477 0
3.8466859 2.1770902 0
1.0744424 0 1.5772868
0.44163993 2.7986143 0
4.9184227 3 1.9592152
1.5394261 0.87726527 2
0.52915078 0.24244395 0
1.8366562 0.55809569 0
0.53770608 3 1.9725482
3.6327965 2.0722775 0
3.464967 3 1.4876153
4.7017212 1.5 1.1797266
0 1.9331334 1.7860447
1.5979677 0.19636455 2
0.95538425 1.9619867 2
1.1706878 1.20882 0
3.7087421 3 0.56194127
3.7794707 0 0.3210912
0.8523559 2.2743835 0
4 0.045751266 0.67755961
3.8702929 2.8478305 0
1.0967268 0 1.2048359
3.5735888 3 1.5253965
0 0.70391458 0.46760988
0 0.68322438 1.8752477
0.32460386 3 1.6014196
2.1291568 2.3558378 0
0 1.6419886 1.5866116
2.8253529 0 1.6890744
3.9452004 2.5565569 0
2.6127601 3 0.13645484
5 2.9133282 0.84075302
1.1175208 2.0837893 2
4 1.4108731 0.33116448
3.4596708 2.5666006 2
3.7965529 2.4286406 2
2.2026269 2.1072736 0
5 2.6778488 0.49874687
2.1060712 0.69116104 2
5 1.9648691 1.2461203
0.081833445 0.79331607 0
2.6455295 2.6346018 2
4.7848792 1.7917145 0
4.8825278 3 0.22242515
1.6564506 2.6207767 2
4.3885674 2.1300099 2
4 0.83039272 0.43845922
0.047591433 2.058588 2
3.4944274 3 1.5363227
1.7243245 3 1.0974696
0 1.9579847 1.8675307
0 0.40109918 0.50158119
3.7468097 3 0.63105237
4.743947 1.7718868 0
4.7471066 2.2929556 0
3.2309158 0 1.5914218
2.0032339 1.8673375 2
1.9226258 0.83436537 0
0.64549005 0 0.82638597
1.5522562 1.0663857 2
4.6159 3 1.3743269
2.281234 0 0.64246368
3.3104212 1.1995063 2
0.90717781 1.4656038 0
3.9162018 2.4703033 0
0.15572762 0.94096637 2
0.41492581 2.181443 0
2.4427934 3 0.18699153
0.52634507 2.4441295 0
4 0.9343248 0.19058643
1.501799 2.0144494 2
0 2.8997052 0.067222767
2.1805267 2.536937 0
3.7233379 1.4241425 2
2.7610478 3 0.64582223
2.2941909 3 0.16983163
3.1253653 2.5242686 2
3.3256168 0.7352336 2
2.0975642 3 1.1154708
0.22219153 3 1.3247157
0.11038743 0 0.80806369
3.7620976 0.13612658 0
3.4370174 0 0.77674472
0.82651949 1.3121232 0
4.8673325 1.5 0.9073863
0.14025156 0.84464288 2
0.89167398 0 0.25011745
1.6707186 3 0.75771141
2.5289438 0 0.31955948
5 1.5887388 1.6170399
2.4894843 0.62088668 0
0.75495887 0 0.47927618
3.9739902 3 1.9437686
0.8178643 2.6742837 0
2.0614524 0.44728649 0
0.12994748 0 1.7380103
1.6794302 2.3119373 0
0.066463836 3 0.21670361
0.35654643 0.94100106 2
4 1.0865756 1.4368408
2.6360092 1.3314719 0
4.2049193 2.9442632 2
4.8438325 2.4411876 0
0.55869442 3 1.0205655
4.9691834 3 1.6378688
3.9748151 1.0017054 0
2.0776005 0.81140435 2
4.6210771 3 0.64768457
1.3338617 0.35873201 2
1.927683 3 0.8368454
3.1026673 3 0.21567345
0.073658653 1.4650207 2
1.2837616 0.58829957 0
2.6906493 0.72378546 2
5 2.4650533 1.2948506
0.71377856 3 0.67737401
3.6031942 0.91571087 0
3.2522459 3 0.52251762
3.3749959 0.78199726 2
0.58875108 1.2079415 2
1.697479 2.8367488 2
4.8791904 1.6759824 0
1.2637591 2.0491219 2
2.4958172 3 0.53561628
2.4979863 2.0167384 0
0.50909287 0.413257 2
4.1216593 2.8521526 2
0.30633429 1.044353 2
4.1615243 1.5708196 0
3.6685824 1.3559572 0
3.2946086 1.6077613 0
0 1.3980752 0.30428973
4.2231426 1.5 0.2567001
3.8183219 0 0.5701313
1.3566384 2.3249571 0
4.4409914 1.8701134 2
3.1696558 3 0.54546994
4.0171375 1.6191491 0
2.0288861 2.5562518 2
3.4208212 0.91233367 0
0.36686629 3 0.73765445
4 1.1793545 1.2519212
4.8678813 1.5 1.192017
2.3445101 3 1.5493838
4 1.4704919 1.998106
0.52220726 1.7068251 0
0 1.238341 0.22790854
4.1607246 3 0.18241028
0.45857361 2.0403578 2
2.5997515 1.2266817 2
0 0.21771318 0.92293346
0.35394144 0.2225551 0
0 1.8395451 1.4534169
0 2.278702 0.16195452
0.68020099 0.51852965 2
3.6099596 0 1.9987708
0.17645222 0.71631885 0
2.0111794 3 1.0103604
4.0544577 3 1.7187006
0 1.5580745 1.9554998
4.8251343 2.6331079 0
2.787061 3 0.75932133
3.5087719 2.566113 0
5 1.9054645 1.1655895
2.4890251 1.7009215 2
4.7216902 1.5 1.9250089
1.9345258 2.3602333 2
0 1.2060189 1.8705484
0 2.1628742 0.93750238
2.5996001 2.7642772 0
1.2834029 2.8177106 0
0 1.0885673 1.2855604
0.61151564 0 0.39279518
2.8158462 1.995653 2
3.6449959 0 0.27171341
3.1472924 0 0.17314611
2.574887 3 1.1839452
1.8964729 1.3633747 2
0 0.47990093 1.618696
0 1.0541836 0.12392401
2.1584277 2.661005 2
0 0.16141753 1.1191953
0 0.23006082 1.1403301
5 1.9137943 0.58592546
4.454165 1.5 0.52200592
0.47903362 3 1.3817166
1.1528267 2.3036728 2
4 0.85838872 1.6702018
4 0.94676483 1.9963462
0.49882442 2.968833 2
3.9338987 1.523797 2
2.6988573 3 0.1450498
3.3858938 0.21902595 0
2.871227 0.38804874 0
5 2.4865353 0.50112969
1.2786525 0 1.8626108
3.044137 2.7379594 0
0 1.9433533 1.7476029
0 0.45977941 0.43351832
4.8250651 2.6675253 0
3.3114481 0.15673423 2
0.2272274 2.2567492 0
4 0.13719851 1.02034
3.0229993 1.6433551 2
0 0.81437236 1.7460638
3.7157936 0 0.92153293
0 0.17944321 1.2871993
4.7099833 3 1.3453739
3.2299173 2.4524398 2
0.46044922 3 1.5853394
1.377811 0.038493451 2
4.1067867 2.0496089 0
3.9035745 3 0.024393782
0.14013758 2.5101302 2
0 0.079448223 1.5940492
2.6148973 1.8411311 2
2.337225 0.61947197 2
2.1398134 2.2665453 2
2.0463407 0.91321236 2
4 0.84173173 0.035596985
4 0.76357824 1.3498716
2.8534949 0.7078864 2
2.7767892 0 0.47073397
3.7989578 2.5246162 0
0 2.0347865 0.47773379
1.7780515 2.2522879 0
0.79811269 0 1.1694459
4 0.11951748 0.36711019
5 2.1290128 1.3357754
0 0.99902153 1.8883817
1.8397439 0.81678146 0
3.716754 3 1.5515904
3.401257 3 0.26142174
3.3985372 0 0.27896813
1.1165659 0.85298628 0
1.377983 0.47181818 2
0.41193491 2.2420568 2
1.1660212 3 1.9852266
3.9898865 0 0.16244739
1.1840104 0.062965497 2
4.5960321 2.8780401 2
1.7042211 0.0011319795 2
4 0.35446846 0.56592113
0 1.837551 0.37491119
4 0.74862301 0.85437542
3.99826 1.4192828 2
0.67849332 1.1953499 0
0 0.96921068 1.528257
4.9998002 1.7464075 0
1.9969888 3 0.22187507
0 1.5225384 0.4977017
4 1.4582531 1.4994318
5 2.7228582 0.34064537
3.9776073 3 0.7104221
0 1.3729746 1.1564783
3.6383922 1.28579 2
0.93976051 3 0.11533089
0.50138909 2.8392515 2
0.58069116 0.044663791 0
3.4186068 3 1.601403
5 2.3749475 1.7249744
0 1.9791249 1.1759175
3.0297532 0.099148951 0
2.4865208 0.87200874 2
5 2.0913951 0.53097916
4.6067677 1.5894313 2
4.8060961 2.5822332 0
4.5690751 3 1.636765
3.1664684 0.47269532 0
1.1700724 3 0.72047353
0 2.3185382 1.9697243
1.2218456 1.0769635 0
2.4888484 3 0.66617757
1.7334851 3 1.1960543
3.2732937 0.6699481 0
3.6592004 3 0.52185369
2.1633031 0 0.18494821
2.3780756 3 0.45235839
0.39094895 1.868441 2
2.7927928 0.60160869 0
4.0032139 1.5 1.1956955
3.7547548 2.6250463 0
2.6642091 1.7869474 0
1.79634 1.1580681 2
0.79860252 2.8664601 2
3.7349956 3 1.1377507
0 1.208261 0.1598901
4 1.1164056 1.6732019
4.9042768 2.3007064 0
0 1.823561 1.4896853
1.8544534 2.6387382 2
0.2225287 3 1.1730158
0.4778195 1.6490016 0
3.5103636 2.1287789 2
0 2.4684601 1.0887668
1.1568404 0.51231319 2
3.2202251 1.2317821 0
0.024892526 1.2985514 0
4.5224767 3 1.0487995
0.2366721 1.0336835 0
0 0.33730233 1.8477187
1.8100755 3 1.9610152
2.1448543 2.8500445 2
0.40129286 0 1.3772751
0.1811724 2.6504548 2
4.2673221 1.8989536 0
4.0325518 1.5287814 0
4 1.1010647 1.3462831
3.18591 1.7391238 2
2.4770317 0.15274158 2
0.24859665 1.7161115 0
1.8734976 0.741588 0
0.99783939 0.60062838 0
3.2011454 1.916352 2
0 1.3608791 1.2249545
5 2.8742468 0.19172284
3.6180212 2.1407871 0
0.8741861 1.8307948 0
4.0946403 2.7810018 2
2.2777305 0.98959762 0
0.30809319 0.59940416 2
0.080258347 0.13957252 2
2.8219738 0.28815269 2
1.4644741 0 1.6703098
3.0254881 1.6466939 0
3.9055994 1.5050248 2
3.4693599 0 0.98565751
0 0.1669957 0.96876526
5 2.0017934 0.51886982
1.4695748 0 0.80555916
5 2.7227366 0.2962535
0 2.8572865 0.71339518
0 2.6759348 0.44300756
0.071302362 0 1.9975311
0.19877394 2.3143287 2
5 2.9781284 1.5075604
0.08700145 0.21230748 2
1.0063041 3 0.22230764
1.0188055 0 0.077897958
0.32410401 0.64237469 0
3.7399907 1.6157309 0
2.7716281 0.94866091 2
5 1.5167164 0.39765677
1.6524888 0.56219733 0
0.35923678 0 1.5659724
2.2373664 2.5376453 2
2.1206653 3 1.0423203
1.6734756 1.5379682 2
3.9625368 0 0.95921767
2.3595748 2.3506188 0
0.0065372493 2.7095168 2
3.8915534 2.9876997 2
1.3482223 2.5107682 2
2.4733431 2.1470342 2
5 1.948431 0.78925705
0.60682112 0.78010583 0
0.48882747 2.323005 0
1.4355408 0.17041419 2
0.45567834 3 0.98466092
2.6207302 0 0.60289454
2.2902319 1.6653539 2
2.0915709 2.9007576 0
4.2635846 3 0.31414199
0.74092346 2.0029399 2
4.3483758 3 0.20866404
0.92200136 0.55651963 2
2.571821 0.92038709 0
2.9119012 2.7623773 2
2.9030757 1.7110149 2
2.9652247 3 0.58569968
4.6733704 3 1.1987718
1.5032399 3 1.4770453
3.035861 0.56164604 2
0 2.4506352 1.9051925
2.9170969 1.5093237 0
0.68707812 3 1.9299905
2.9782436 2.3157537 0
1.4105712 0.76464522 0
4.5240707 2.134696 2
1.3096689 2.9891856 0
0.83012563 1.9771981 0
2.3019147 0 1.6672853
0.17247918 0.51194608 0
4.3324957 3 0.52754223
0.069627129 0 0.046244767
4.4083362 3 1.698289
3.7214844 2.8455369 0
0 0.085017703 0.34982619
5 2.4619551 1.1582292
4 0.90030748 1.6231873
0 2.9635878 0.7341516
0 2.6666024 1.018383
2.9269898 3 0.040694147
0 2.9064713 1.483664
3.9260046 0 0.89583468
0 1.1449553 1.6980532
2.4956901 0 1.9595926
3.4142556 2.8436248 0
0 2.7280836 1.948099
5 2.9559901 0.091058433
0.93592876 0 1.6247218
4.3346691 1.5 1.7005035
2.9041374 1.8459566 0
4.6239066 3 0.1423599
1.3789953 3 1.806716
1.6906087 1.2646892 2
1.0922961 0.45061469 0
2.7572169 0.45500857 2
1.3398563 1.6895629 0
0.46398833 3 0.7578885
0 2.8749816 0.52586013
2.9691806 0 0.14604057
3.1883411 3 1.3843297
0.49919745 0.87344402 0
4.0463538 3 0.86786461
1.1412432 3 1.2775619
3.8504021 0 0.56056845
0.0057327412 2.1103849 2
4.358932 2.9364915 2
1.1173561 1.6881199 0
1.8805336 0.34201103 2
5 2.3577473 1.3733757
3.2425246 0.40712503 2
4.2384562 1.6420562 0
4.716064 3 1.5729144
4.3343344 3 1.027843
4.2843966 1.5 1.8482817
4 0.54375196 0.6732223
5 1.9624351 1.0341136
5 1.7548288 0.0004877951
4.3325095 2.7636135 0
0 2.9024134 1.9428601
3.1339073 2.3113542 2
4 0.032923851 0.32034332
5 2.1335034 1.2744279
4.6898103 1.5 0.5346722
0.86315113 1.9263906 2
3.9647093 0 1.4227557
0.98042315 1.8479316 0
0.70803463 0.39300856 2
4 0.61476457 1.3574946
4.8415322 1.5490561 0
0.75998217 1.0644758 2
3.627234 0 1.5520775
1.5390816 0.36820897 0
2.6507382 0 0.78259754
2.5000556 2.0256844 0
4.2361407 3 0.95000875
0.62105387 0.56507635 2
4.0551505 3 1.7990005
1.9812531 0.40153968 0
2.8721292 0 0.3371931
5 2.3155985 1.0832824
1.2859409 0 1.4105382
2.535852 2.4206867 0
1.4240763 1.8379362 0
4.2706237 2.1354208 2
3.1741979 1.7092384 0
0 1.428872 0.03622783
0.91717362 2.3339531 2
3.1645281 0.76534802 2
0.76581216 0.95636064 0
2.7875862 0.22886007 0
3.8487613 2.3868601 0
2.485081 2.1644285 2
1.7202822 0 1.7929065
0.38353559 0.79418153 2
4.290493 1.5 1.8093809
2.3081634 2.5071726 2
4.0807185 3 1.1160107
0.3195509 2.1015351 2
4.0618792 2.3783693 2
3.6228142 0.51531446 2
0.9958604 0 0.76832962
2.4579761 1.4331691 2
4.4069266 2.3121562 0
0 2.3691506 1.5879222
0.35818389 0 0.40482926
4.6734853 3 0.57832819
0.22443685 1.4574006 0
1.6638975 0.70220762 0
0.48852095 0 0.86763746
4 0.071955197 0.35841477
0.89000177 3 1.4236668
4.4108286 3 1.6438444
4.5559363 3 0.66320252
4.7148132 2.8373127 2
4 1.0947089 1.8171144
2.8786137 0 0.29861057
1.2214941 2.2343299 2
4.1304483 1.9677355 0
0.07134214 1.1467775 2
2.1055722 3 1.5633417
4.3803391 3 0.57837099
4.1062603 2.6095703 2
4.3374443 1.5382993 0
4.2731643 2.5123634 0
3.0957437 0.72735965 0
4.1340942 1.5 1.9639543
2.019335 1.2219504 0
1.0569991 2.5116155 2
1.9873545 2.2884579 0
4.7437787 3 1.6055034
5 1.9844612 0.036584076
4.9812365 3 0.20672709
1.7377185 0 1.2750386
5 2.9224765 1.8851999
3.589752 2.1452441 2
3.1704309 1.6489002 0
2.8361042 2.0824947 0
2.6356432 3 1.4181924
3.9070003 3 1.2701129
0.5651809 3 0.78573799
3.7410994 0.71078032 2
3.9111626 1.1709123 0
0.50331748 0 1.1255205
3.925724 0.44719738 0
4 1.2719154 1.0138516
4.5565562 1.5035589 0
0 0.48605701 1.4925777
1.2659389 1.8414909 0
3.6273377 3 1.8764138
4.0918727 1.5 0.12424066
3.3718791 2.55125 2
0.1187774 0 1.7906574
5 1.8912582 0.1476299
3.7036462 0 1.8349721
2.600399 0 1.3433876
2.6477413 0.007923455 0
5 1.5808156 1.1099931
0.63340229 1.2478397 0
0 0.71611893 0.51859862
3.958519 0 1.792223
1.9558569 0.091004804 0
0 1.9964247 1.1236231
2.9345427 0.51547062 0
4 0.0722197 0.61228865
2.8923635 0.57501674 0
0.36106685 0.48377222 0
0.5872156 3 0.05309239
4 1.3031352 1.4431374
0.20142087 1.210865 2
4 0.55536127 0.13538823
0 0.18961719 1.1723701
0 1.0361029 1.8789923
4 0.79907531 1.0387092
4.6878858 3 0.13787499
3.7163725 3 0.34337565
1.8817326 1.1531491 2
2.0905735 0.2108815 2
2.7547894 0.16629514 2
4.2798181 1.8618983 2
2.5720253 1.4222735 2
0.64741153 1.5990188 2
1.1771896 3 0.038926739
3.241442 2.5534449 0
2.988806 2.1173146 0
4.4579773 3 0.94388247
0 2.8612063 1.6237441
1.9227277 1.703395 2
3.7841763 3 1.0362425
5 2.2701225 1.012748
3.7454495 1.5093367 2
3.6325347 3 1.5888612
3.3309705 1.9357394 0
3.7977736 0 0.13562299
2.784631 1.2362468 0
0 2.8092463 1.5807559
4.4480095 2.7393811 2
0.18102133 1.0994396 0
3.2429271 3 1.8418851
0 2.4512959 1.0362866
2.1323395 0 1.1705611
0 0.46186674 0.50990528
3.1372912 0 1.8866837
0.36691427 0 1.1308521
4.1955562 1.5 1.9778583
0.47176328 0.97250348 2
0.0042536315 0.22290306 0
3.3235872 3 1.0704031
1.2778805 1.3223171 0
1.0183089 0 0.13322563
0.52543169 1.3632079 0
3.8762655 0 1.7934535
3.2199421 2.8056495 0
0.57053512 0.19885136 2
2.3996568 0.52315438 0
5 2.4868915 0.66539818
0.3502087 1.2375528 2
2.721483 2.7647171 2
4.145647 2.992095 0
2.6575642 1.5022053 2
1.1340163 3 1.9183583
0.51743704 2.0274405 0
0.51270896 3 0.068371907
4.9404511 3 1.2387975
4.5166178 3 0.93459648
2.1639194 0.43879262 2
0.056758013 0.89941299 0
4.6228099 2.3976448 2
4.2694283 1.5 0.74341071
2.2210686 2.9655814 0
5 2.7693694 0.57981068
3.4528067 0 0.46354565
0.30286819 0.77851462 2
4.7583718 2.4033835 0
2.6663344 0.47971979 0
3.0265207 3 1.802498
4.5254793 1.9254248 0
4.1091108 3 1.3919021
3.3101516 3 1.2565999
5 2.6856039 1.1151369
3.0634031 0.76709092 2
2.4573743 0 0.61041892
0 0.3144511 0.43963653
3.1396043 0.35733151 2
3.2077317 1.623495 2
4 0.68007296 0.33847678
2.5004983 0 1.1199815
1.2991717 0 0.5513069
3.4104855 2.6575634 2
0 1.0030044 1.9191018
0.1938761 2.6346745 0
1.6512909 3 1.7276736
3.388746 0 1.2667629
4 0.19089653 1.4575698
0 0.24539955 1.9936898
1.8612248 1.7143083 0
4.1153412 1.5 0.54816949
4.5951157 1.7103069 0
2.48493 0.53835505 2
0.3276549 3 1.2516143
0.93877411 0.32433891 2
0.2981911 3 0.35332412
0.98046494 0.082737051 0
0.34409785 0 0.56922936
4 0.22863898 1.4947567
3.8016045 2.3146474 0
0.3921158 0.59929562 0
0.4031499 0.50019228 2
2.0425231 0.93900877 2
4.6646843 1.7294697 0
0 0.66016787 1.5007778
4.0787735 1.5 1.0681221
4.6642842 2.4413366 2
0 1.9135193 1.0870552
2.4384112 0 1.4790535
3.179249 1.2976509 0
0.54408175 0.19256391 2
3.5283716 3 1.9728714
4.0090976 2.9425173 2
0.13579457 3 0.60062099
0 1.7458117 0.70348591
2.1423261 0 1.4259813
5 1.7653875 0.13441439
1.6045771 0 1.5655092
1.5615325 1.4115548 2
1.9021769 0 0.75811869
4.7016344 2.2801056 0
1.5982457 0 1.6186653
4.3682661 1.9833225 0
0.98653263 3 1.7425814
1.7118984 1.93011 2
1.5987625 2.7688088 2
0.51525956 0 0.67549932
0.36194244 2.6798851 0
0 0.97977179 1.3740032
2.1552701 2.3931639 0
3.6005628 3 0.81730998
4.2659445 1.5 0.54587603
5 2.5519629 1.9767585
1.7815835 0.24914671 0
4.6913924 3 1.1045477
4.4672427 1.5 1.0661778
5 1.6304408 1.7478517
2.9926708 1.1219223 2
0 2.1866465 0.968207
3.1616926 0.78356373 2
4 0.20804694 1.0171647
0.67498273 3 1.9557134
4.3699641 1.5 0.16356662
0 0.97840446 1.64297
4 1.4889472 0.38941312
0 0.98291099 0.2522133
1.2931393 1.5521951 2
0 0.5918951 0.25125164
2.0510347 3 0.34723002
5 2.7502661 0.90717894
3.7175956 2.4877493 2
2.6185551 3 0.8445158
0.24642688 3 0.95886797
0 1.9200562 1.9389591
4.5812483 1.5 1.7072575
2.8522565 2.0969205 0
3.0628099 1.8960173 2
1.7770269 2.1810045 2
3.1684761 2.3285491 2
0.4517149 0 1.7124729
1.4172373 2.3513868 0
4.5683799 2.8364568 0
4 1.3708255 0.23492718
1.8987501 0.39755523 2
1.2245756 0.48936191 0
1.2826719 3 0.84478122
1.9995639 1.4729495 0
3.8025792 0.97379071 0
0.62916189 1.2573955 0
2.5152967 3 0.36397073
2.4933653 0.65741134 0
2.8009918 2.4728835 0
3.768332 1.4278629 2
3.3218536 1.5482816 0
1.4908817 1.9132075 2
3.826349 2.5651159 2
0 1.4250996 1.3087025
2.7052398 0 0.92220783
1.0159901 3 0.6486786
4 0.16090061 1.6275437
0.013560811 1.5497675 0
4.2858915 3 0.07048852
0 2.8402622 0.69965219
3.1003525 3 1.9246603
1.3733282 1.1092031 0
5 1.991914 0.91052163
3.5579598 0 1.5172677
2.4420323 2.3903902 2
0.79932547 3 0.60593396
1.9357125 3 1.3411846
3.336252 2.4941382 2
2.2692437 1.6554331 2
2.312026 0.73925632 2
0.21802275 1.2593373 0
2.5437195 3 0.50360209
1.8608732 1.5829773 2
0.84940237 0 0.48452786
0.51947254 3 1.3132907
2.7001319 2.5310397 0
0 1.6691792 0.1927014
3.4401028 2.9523485 2
0.54805624 0 0.35761473
2.9022233 0 1.9657905
4.457664 1.5 1.0267061
2.8120008 0.88599831 0
0 1.9369384 0.63161707
2.7495036 0.30593142 2
3.478682 1.0770446 0
3.3860669 1.1390395 0
3.1172645 0 1.7034918
1.5429168 0 0.077944718
3.7203701 1.3215986 2
4.7157836 1.5 1.6116209
2.7223127 0.055382494 2
4.7462497 2.4108498 2
5 2.1100497 0.1437187
4.4005947 2.6100121 2
3.6853456 0.15854916 0
2.0068297 0 0.99912709
3.9463024 2.6374357 0
1.3700825 0.1029095 0
1.2547477 0 0.47050399
2.2369013 0 1.0714114
1.7847857 0 1.9845454
4.9139895 3 1.9083828
2.1237988 2.6979716 0
1.2541986 0.34286964 0
2.0118763 3 1.7263225
2.486779 2.8692529 0
4 0.90278131 0.58103102
1.0714774 0 1.5027192
2.9892051 0 1.0589173
0.62061143 1.7210952 2
3.642858 0 1.4057078
4.6644154 2.0932462 0
0 2.4359574 0.99263501
3.8686614 1.0802549 2
0 0.88450348 1.037288
1.3291678 0.94500053 0
3.0644233 0 1.8111776
1.3077786 1.6053172 0
4.8430829 3 0.78846288
0.81053275 0.25009829 0
0 0.093139298 0.61420387
1.798098 3 1.9402052
0.22703697 2.5067568 0
4.805337 1.5 0.30008066
2.6692767 2.8183041 0
3.8786807 1.3408518 2
0 1.6378609 1.3587488
3.3264234 3 1.2552778
3.7725372 2.8789177 2
1.9339647 2.2888811 2
0.82304782 0 0.79888862
3.5705049 2.8549399 0
5 2.1493385 1.0649813
1.8981214 3 1.558192
2.7096214 0 0.14505167
3.910006 1.0329783 2
3.4860439 2.5824301 2
3.9065442 0 0.24750407
4.827107 1.9203049 2
3.1037521 3 0.45748958
3.5513005 0.69060153 0
0.13815607 0.18608372 0
2.0804152 3 1.104899
5 2.4448867 1.5863171
3.3368011 0 0.95091462
0.46740681 3 0.91631204
4.734673 3 0.85816902
4.3238578 2.440403 0
0.48070922 1.2475752 0
4.4222231 3 0.15738329
0 2.2054853 0.027522093
4.7397914 1.9591491 0
1.1540626 0 0.82361954
1.6523626 0 1.5285248
0 2.575742 1.7504035
0 1.0396934 1.4659661
4.1018605 2.1026993 2
1.6833199 0 1.6375507
1.7765274 1.3872228 2
1.9138331 1.8000476 2
3.7448123 2.0630696 0
1.5358855 0.24228922 2
2.4415302 1.8256989 2
4.92588 3 1.2665007
0 2.0998487 1.2553079
2.2288871 0 1.082508
0 2.9944935 0.85888994
2.3641121 0.91887051 2
4 0.15168744 0.12299825
0.44888589 2.5014641 2
3.0905726 1.440891 2
3.4637482 3 1.6919175
0.64353383 1.5398999 2
3.9933033 0 0.71032846
0.54874933 2.7995453 0
3.2447073 2.9067931 2
3.0688071 2.5994153 0
4.653368 2.1285892 2
4 0.41138172 0.018385179
1.8386508 0.12634158 2
4.5240965 1.9986598 0
0.8767783 2.3924513 0
5 2.2175355 1.5227957
0 1.6785394 1.8395739
1.6836748 2.9286609 2
2.9095519 0 0.30720758
1.9319903 0.33247411 0
0.9624849 0.28587463 2
2.7512581 0.83143437 2
4.026998 1.9047731 0
1.3051294 3 0.067978345
0.89146668 0.81920713 0
2.5614023 0 1.7758384
3.461015 0 1.3501669
5 1.816098 1.2615498
4.4361053 1.7322252 0
1.4498843 1.766866 0
0 0.80621248 1.5896006
3.1839452 0 1.4231536
1.4119889 0 0.25137281
3.0224867 3 0.09711238
0 0.62356883 1.3015926
1.9094101 3 0.27116001
4.1161952 3 0.50013977
1.2836984 2.4478431 2
1.7157748 2.2966008 0
3.8319361 2.1518362 0
0.7751745 0.64153272 0
2.413909 0 1.2934713
0.46054542 0 0.3939926
4.0411763 2.5637414 2
0.77548665 1.3645772 2
1.7683922 0 1.1484874
3.86025 1.1731842 2
1.3728778 3 0.91249698
4.4596581 2.8023274 2
1.8659748 0 1.3331718
2.6743488 1.1067375 2
3.8574629 0 0.92858768
3.3567982 0.53509128 0
1.9669253 3 0.95613056
0.64854819 3 1.0890158
3.8480299 0 0.5971036
4.5957427 3 1.4498183
3.6969469 3 0.74035794
4.5585499 3 1.766987
3.800549 0 0.11250729
1.4623404 0.96790123 2
5 2.7027299 1.959226
3.7407346 0.47436136 0
2.8143549 2.27106 2
2.4125335 0 0.34570488
0.9596228 0 0.3423208
3.9396317 3 0.20068082
4.0001988 2.4409208 2
2.9024317 0 0.79986769
4 0.39785424 0.23987305
1.8997118 3 0.43338156
0.051800501 3 1.3427632
0 1.5213947 0.91299802
4 0.36494845 0.47552836
3.2492349 0 1.6880835
0.18429694 0.74749339 0
0.45240679 0.72196174 2
1.0055251 2.2326863 0
3.1051269 2.3093088 0
1.5325851 3 1.5294362
0.36934522 2.0722454 2
0.3786698 2.8623347 0
3.809442 0 0.36437321
1.625026 0.3688907 0
3.351855 0 0.56712294
0.54854232 0.68082565 2
4 1.2934096 0.027972974
2.6695588 0.90841007 2
4.5644555 3 0.31238782
2.7579386 0.49487865 0
3.2489827 3 1.4535228
3.7233734 1.155532 2
2.7747529 1.1580083 0
4.718874 3 1.8625811
5 2.9531112 0.084537275
1.385676 2.7271953 2
1.2427342 1.055001 2
1.6704482 2.1424901 0
1.0334853 0.90870988 2
2.1753328 3 1.6950582
3.7600915 3 0.85111612
4.5047855 2.7558939 0
0.54876781 3 0.0369482
1.5426525 0.28510463 2
0.9913609 0 1.6722181
1.9018066 0.61928606 0
1.5127037 3 0.051402241
3.428406 0.38236672 0
2.3831687 0.089810215 2
3.9245372 0.56205076 2
2.4630909 1.0074583 0
0.33284763 3 0.94868755
2.7402565 0 0.47661656
2.21175 0 0.20793632
3.8905039 1.2247924 2
0.19561514 1.7890217 2
2.3184316 0 1.3156059
2.7122674 0.23651923 2
2.7397017 0 0.26478407
4.0416088 2.8257198 2
4.2515621 1.5 1.3080547
0.28119078 2.9038825 2
4 0.41493997 0.22664531
3.877815 0 0.65024459
1.0637975 0.43368128 0
2.3182836 0.0029593713 0
0.51172841 0 0.69024843
2.4100001 0 1.1553435
2.0624206 0.55244219 2
4.457438 1.5 0.14815471
4.0377855 1.5 1.8502558
0 1.6179547 0.42058355
5 2.9592428 1.1376966
3.2349348 0 1.5341221
1.2262179 0.20941432 2
2.026083 3 0.24346094
0 2.3443537 1.5813298
0.96687186 3 1.5791482
1.3742714 0.19182661 0
2.2786405 0.073793776 0
4 1.1761985 1.5153126
0.71958351 1.7111621 0
0 0.038699765 1.5183536
1.4924059 0 0.40940353
2.670552 1.6457485 0
4.1886106 2.1965873 2
1.7095245 2.6391919 0
4.01232 1.5 1.4748689
1.9136444 2.7703419 2
1.6538833 3 1.6641736
0 1.2329507 1.3476491
2.01245 0.029392978 0
0 1.3037281 1.0261729
4.1369882 1.5 1.9218957
0.1438261 0.075672127 2
4.8822351 1.6076 2
2.7271028 1.3839953 2
0.60049731 2.9167151 2
1.6720803 0.051064111 2
3.0310175 0.5405643 0
1.1259823 3 1.2953765
4.7032151 1.5 1.3250263
0.0751855 3 0.1404461
2.7479722 0.62340355 0
1.1070788 3 0.95987022
2.3469629 1.8828862 2
2.3699255 2.597132 2
3.1064584 2.292743 0
0.52670145 0 1.0395435
2.1290047 1.4896873 2
2.1584499 2.5364146 0
0.34676969 0 0.28371257
1.0944194 1.3672965 2
1.5009214 3 0.26835588
1.4531662 0 1.0311307
4 0.15223336 0.22276147
1.0767366 0 1.8182118
4.6512222 3 1.3622493
0 2.0549424 0.98321259
0.15891723 0.74537045 0
0.52669168 0 0.70870894
1.8392628 3 1.3954893
1.3694932 0 1.3004792
4 0.46322602 0.4211117
1.6707648 0.91387492 2
2.2856894 1.1979665 2
4.6285715 1.5 1.6722893
1.3224406 0.32597694 0
5 1.8226225 0.036642905
0 1.8638209 0.97080696
4.4520292 2.5986986 2
0.13340108 3 0.24553467
4.927742 2.3584583 0
4.3871956 1.5 1.7327602
2.3485904 1.3232018 0
3.9534395 0 0.75754786
2.5506189 0.62829888 0
0.27485248 0 0.9626776
5 2.744014 0.1106737
1.5944288 1.6518534 0
4.7381239 1.5 1.8275825
3.7293017 2.6236098 0
3.6426258 3 0.82731754
0.064525969 3 1.0745556
4.5130978 1.5 0.16537307
0 1.7595243 1.2353171
2.7197471 3 1.8152149
3.8824456 2.8961394 2
4 0.17303208 0.55390984
2.5426812 2.8462002 2
0.58148307 3 0.12015747
0.054024249 0 1.7700893
0.89160407 1.8454995 0
5 2.9457903 0.43229392
1.1029893 3 0.84534961
5 2.0669451 0.22393467
4 0.46791637 0.71719378
3.5246556 1.2772201 2
0 1.9523098 1.6436689
0 0.5055542 1.0510972
5 2.9138687 0.37814718
2.6422744 1.2591953 0
0.1222489 2.8068328 2
2.2541614 2.5928373 0
3.4532461 0 0.24783419
2.7221358 0.64113247 2
5 1.9211811 1.7353982
0 0.96050209 1.6435293
0.16712233 0.25886446 2
3.1023247 2.0338423 0
0 0.53150666 1.4394562
3.3001995 2.8330696 2
3.7797861 1.8968772 2
0 1.9156724 0.5661788
2.2468283 0 0.92752075
3.2225399 2.034405 0
0 0.70984364 1.1251643
5 2.009661 0.34270349
2.0118237 0.91537941 0
1.0448587 0.076291718 2
4.1575408 2.2659307 0
0.48868293 2.470506 2
0.077570058 0.83808631 0
4.5188632 1.5 1.4332764
2.4049618 0 1.6775204
3.0097914 0.78297913 0
1.8185024 1.8440042 2
0.20829482 0.89113498 2
2.8344765 1.5169876 0
1.3846087 1.5773959 0
2.7187083 3 1.6758801
4.2180057 1.8430266 0
0.84159875 0.67369246 2
3.5091205 2.3527741 2
1.526158 0.63632673 2
4.0518665 1.5 0.90984428
1.894874 0 0.31527436
3.2475181 3 0.76557451
0.77239525 3 1.7432553
2.3730628 2.9934592 2
4.9993157 2.3640246 0
2.4950216 3 0.87757623
1.7802142 1.1663216 2
2.7410564 3 1.2801013
0.042635471 1.3469542 0
0 1.0561848 1.4955262
0.017280195 3 1.8172057
4 0.42701489 1.2739254
4.9169364 2.719558 0
1.5121217 0 0.1060427
1.3777567 0 1.1244537
2.2362976 2.0386541 2
3.3496435 2.303751 0
0.16036499 0 0.63497597
0.13018192 0.42300844 2
2.0358803 0 0.21021849
1.6846439 3 0.95683253
3.3545103 3 1.7811897
4.6700521 3 1.853937
4 1.4824569 0.72589833
1.5210389 3 0.65668386
0.11560732 0 0.13036437
1.1221412 3 0.9747929
3.1480668 1.4167761 0
0.62069386 0.28503692 0
1.9743067 1.0295001 2
1.1974458 1.1955578 0
1.7445976 1.739352 0
2.6138523 1.8394268 2
3.0310869 0.54571211 2
1.8076649 1.8030859 2
3.0948856 0.44481254 0
1.0698576 3 1.5086783
1.4496564 0.16332345 2
1.7410955 3 1.9710025
3.6209726 0.74398559 0
0.7268346 0 1.905336
0.19501185 1.7553443 2
4.6375151 3 0.24756542
0.50753766 2.9330921 2
0.12310071 0.77787614 2
5 1.6929901 0.0089585846
0 1.2797151 0.95989633
3.1230309 1.6801226 0
1.6926594 0 0.11380932
0 2.7737651 1.6074367
2.4573989 2.6433032 2
0 1.8458717 0.68228793
2.059659 0 1.0553421
4.5625911 2.7432659 0
5 1.856555 1.5625886
2.8003492 3 1.5560271
4 0.40100485 1.834398
1.0140576 2.2028489 2
5 1.9570973 0.26463157
0 1.3922035 1.6583096
5 2.1006579 1.6999667
1.3017508 2.8553026 2
4.0786095 1.5 1.4536532
0 2.0055165 1.7090005
4 0.90789235 1.9608853
0.12328611 1.6775482 2
0.4172492 0 0.39248392
3.3170791 3 1.653177
3.279834 3 1.5566348
0.69570726 0.26846969 0
0.23453878 3 0.57519597
3.7894866 3 1.5006624
4 1.2317163 1.5443882
1.4305025 2.6569426 0
0.51577264 1.2687072 2
4 1.1475136 1.8401355
4 0.22695978 1.9056053
5 2.8825107 0.14363003
2.3479981 3 1.0977546
4.1916313 2.581933 2
2.8228219 2.831682 0
4.1237817 2.1069667 0
0.36563632 0.13577233 2
1.0215117 0 1.3886437
3.5514529 2.7306035 0
1.9142973 3 0.24571404
3.79142 0 0.72125614
2.5734828 2.2621586 0
0 1.6481115 0.060218181
5 2.0800407 0.094324373
3.0988395 2.0843685 2
0 1.4456124 1.0245842
1.9502161 1.9671346 2
2.3480749 0.9982118 2
2.1107676 0.67502612 0
4.8689499 2.3198073 0
3.7500706 0 0.4350706
2.6767697 2.7646604 0
1.5708251 2.200582 2
1.2097766 1.7027434 0
0 1.9943776 1.9444168
1.4666547 0 1.2391316
0 2.5097136 0.88588005
4.5441456 3 0.84937853
4.4330559 2.6776807 2
1.035774 0 1.7344564
4.7962947 1.5 0.68182433
0.8726747 2.5232191 0
0.68094766 2.0740173 2
0.96659863 2.4247694 2
3.3817461 0 1.6697706
4 0.55518728 1.6963283
2.2110708 1.9594353 2
4 1.4868882 1.3141686
0.33558759 1.1294893 2
0.61697936 0.42397699 0
3.9778197 3 0.024353845
2.5002601 3 1.8398274
4 0.1419306 0.17814773
3.2260704 0 0.60149735
2.3381727 3 1.2572504
0.72927922 0 0.93459606
3.8840792 2.6691163 0
2.0110958 0 0.36722654
0 2.0804067 1.0024997
0.42740637 0 0.68566918
1.1478388 0 1.8713158
0.3447552 0.39958757 0
0.50797206 2.4177334 2
4.309546 1.5623957 2
1.3734949 3 0.9865427
1.7319328 0.51541227 2
3.050653 0 0.092040218
0 0.88444424 0.65428567
1.4821537 1.4235864 2
1.3646563 3 0.43877804
1.8916414 2.5751367 0
3.7519593 0 1.577896
0 2.589186 0.056344762
2.274684 3 0.65751374
3.6469607 1.4354603 0
2.6762717 1.2603689 2
0.076500334 2.3737576 0
4 0.41691324 1.9808676
3.3760104 1.0881706 2
0.69855154 1.3548486 0
3.1959136 0 1.4607741
2.9724503 1.4055101 2
3.2281134 1.3262491 2
0 2.5852358 0.45395052
2.8080516 0 1.6621794
0.98503035 0 1.1173559
2.0901687 0 0.34303129
2.283854 0.78397202 0
2.8084872 2.7085404 2
2.4759951 3 1.6110287
1.6475476 1.4071183 0
2.6820354 0 1.6822469
4.1177683 2.0572102 2
3.5128131 0 0.68185908
1.0478411 3 1.9749964
1.416095 0 1.8206273
4.8317685 2.3279803 2
3.1213963 0 1.5695444
0.82012916 1.8340707 0
0.39381438 0 1.1727502
1.1882814 2.0789764 0
0 1.7300053 0.18337679
4 0.53535938 1.7052802
3.554955 2.6839094 0
3.4135711 0.42369476 2
0.44356081 2.3226111 0
1.8023399 1.331957 2
1.5719664 2.0148261 2
1.9234917 3 0.2985771
0.66211629 0.017144386 2
5 2.4665685 0.20969209
3.1416457 2.5073216 0
3.9857347 3 1.7598146
2.4665856 0.95495307 0
2.0249386 0 0.30281734
3.5255861 0 1.4583654
0 0.47500974 1.1829273
4.5912342 2.6634395 0
0.13110104 2.3196731 2
1.949971 3 0.52092957
0 2.4749751 0.79549956
3.3133802 0 0.32301766
1.152302 0 1.5681237
3.4731226 1.5831591 0
3.6822283 0 0.9193694
0.91974163 0 0.29491886
2.7505336 0.94777012 0
2.3738656 0.31227213 0
1.8531867 3 1.0995256
1.9371372 0.72502613 0
0 2.5035958 1.0587147
4.3198028 3 1.0301111
1.5998344 0.14239359 0
2.3066728 1.2351969 0
1.8916537 0 1.4686956
3.616766 3 0.2070277
3.2997456 2.3218029 2
1.7945429 0.20908073 0
2.7746706 3 1.956503
0.10654879 2.4387903 0
2.6646178 2.3955789 0
0 1.1297908 1.1883464
1.0915072 0 1.7798434
1.3670757 3 1.9896204
5 2.4350042 0.25288343
3.7814071 2.3800881 2
1.8523524 0 1.9698849
1.8430121 3 1.0407194
1.1990561 3 1.7972715
3.6476645 2.9005425 0
0.96511579 1.654488 2
4.0108662 2.5086849 2
2.7398131 1.3690146 0
1.2280374 1.9564854 0
4.8321576 2.094135 2
4.0908527 1.5 1.6820155
1.2355957 0 0.93261898
2.4614038 3 0.3377994
4.7447486 2.901269 0
5 2.1596131 1.6112156
0 2.70911 1.9052045
1.4545943 1.6488168 2
2.8141494 2.7908063 2
0.97319633 0.29179293 0
2.981946 3 0.29893494
4.5122671 1.8861907 0
4 0.45584637 0.66512144
4 0.31435922 0.72428781
5 1.5718862 0.95348054
0.048504926 3 1.1780027
1.4572126 3 1.3495708
4 1.0837411 0.46628731
0 1.6476771 0.70723993
3.6944072 1.633029 2
3.3654141 0 0.54490227
0.79733521 3 0.38101345
0.31776181 1.4186028 2
2.2688301 0.38792276 2
3.1824527 3 1.9507403
5 1.6746824 0.076471619
4.5982242 1.5 1.9305545
3.4975357 1.4357214 2
4 1.4548224 0.6938104
2.8248241 0 0.29245093
1.5776289 2.608391 0
5 2.5754113 0.82852942
3.2571502 1.2769976 2
1.2966192 2.3781672 0
1.2468767 0 0.62486535
1.2889963 3 0.32357651
1.5887712 1.934132 0
4.0684652 3 0.84654415
5 2.1903734 0.50319469
0 2.4447293 1.6120808
1.2519641 2.3085916 0
2.4048378 1.6175184 2
2.4854965 3 1.0094686
0 2.6139014 1.0134056
1.7072258 0 1.940255
0.76802772 1.5979722 0
2.5624435 2.9310586 0
5 2.9230645 1.4223981
2.1594758 0.215526 2
0 2.1718414 0.46458679
2.9734964 2.7819602 2
2.8344514 1.4743004 0
4 0.79011899 0.5796181
2.9871993 2.2450843 2
4.762176 3 1.2679026
4.4094329 1.5 0.30826434
2.7362773 2.5631855 2
1.501173 3 0.15801813
2.048671 3 1.068028
3.248322 0.82864875 2
4.9753375 3 0.317763
1.9049671 2.1358118 2
2.3602965 2.2214255 0
5 2.2665355 0.5833987
0.37558433 3 1.3821237
2.3174651 1.7130276 2
1.2444836 0 0.10100714
0.15632978 0.44851944 0
3.861973 0.013426654 0
5 1.5364563 0.045439664
2.094162 3 1.996406
2.1421978 0 0.4140301
0.15552519 2.2968051 0
0.89155191 2.0842295 0
2.6702406 0 0.40235394
4.1386814 1.5 1.7098027
1.7683227 3 1.6356736
1.9582173 2.165905 2
0 0.74034476 1.0756122
4.0912042 3 0.25289023
4.2342949 2.6272547 0
1.2384917 2.4772425 2
3.8711269 3 0.25410068
1.8829591 0 0.53663093
3.0429599 1.535906 2
1.387199 0.55599028 0
4.453311 2.192054 2
1.0101312 2.3251688 2
1.0533285 0 0.0037929444
2.3743045 0.81153631 2
3.5063848 2.5325954 2
4 0.7838881 0.90743768
3.8710175 0 0.060621861
4 0.98843086 0.77425849
2.0231616 2.4258626 2
1.4693364 0.92850524 2
0.29458159 0.55385107 0
1.734197 2.8460889 2
1.2331654 0 1.9700241
4.4653978 3 1.0087024
1.3429542 1.7981144 2
0 2.2993596 0.91016203
2.8388405 0.33260107 0
2.527092 2.6707315 2
0 0.35428715 0.63477993
5 2.389245 0.20353626
0.46813795 1.6739838 2
3.473186 0 1.3220509
4.1531982 2.9862251 0
4.6882825 1.5 1.6234937
4 0.10940647 1.9123749
