# .PCD v0.7 - Point Cloud Data file format
VERSION 0.7
FIELDS x y z
SIZE 4 4 4
TYPE F F F
COUNT 1 1 1
WIDTH 2126
HEIGHT 1
VIEWPOINT 0 0 0 1 0 0 0
POINTS 2126
DATA ascii
0 1.3366003 1.7152817
0.7648105 0.19901852 2
3.325243 2.3813434 2
1.5332656 0.86881483 0
0.16242535 1.1668422 2
2.7052107 0 0.95232558
3.7422407 0 1.6372066
3.0823839 1.654173 0
4.3440537 3 0.24222033
0.483145 2.5722558 2
2.8111627 0.21494351 2
0 2.6662827 1.0524926
2.6678238 2.226156 2
3.9341455 2.0982862 0
3.0637167 1.4227893 2
4.7477293 2.0408058 2
2.562835 1.0044644 2
4.8268414 1.7350304 2
2.4663014 0 0.41785201
2.2365475 3 0.54629809
4.418611 3 0.83271009
0 2.1382256 1.162212
0.18399067 0 0.93867147
2.2553217 0.15295088 2
0.04037315 3 1.0865601
1.6241509 0.02248263 2
1.4769526 1.3589082 2
1.1957794 2.032433 0
2.8423865 1.1298816 0
4.6334615 3 0.21452618
2.7231302 3 0.015830267
0 1.0307256 1.1697214
1.7161812 0 0.1652831
1.0324602 3 1.0145575
3.6281874 1.9601992 0
1.7021365 0 0.97668016
0 2.7241192 0.049583141
5 1.7908471 1.90794
1.1217526 0 1.9358221
3.7195346 2.7822468 2
2.5322437 0.88056719 0
0.61339676 3 1.5996863
4 0.85254538 0.96210426
4 1.0249192 1.8825698
0.36773986 1.1504354 0
1.2598191 3 1.5759494
0 0.44503382 1.1248322
1.2490848 0.21086167 0
3.8571777 3 0.64772588
1.3391229 3 0.40039298
4 1.2080424 0.10203974
3.208657 1.7256941 2
0.27290246 0 1.9761075
0.48913515 1.0474807 0
0.50432009 0 0.46589386
0.25382093 0.090058848 0
0 2.7579494 0.84840757
2.0567107 0.2400168 2
3.780278 0.26886386 2
1.0926971 3 1.2978052
0.59476191 1.7941903 0
2.0131743 0 0.87111849
1.6299546 0 1.4702287
0 2.7819798 0.0087608146
1.4405091 2.9102373 2
5 2.9872835 1.6582826
3.1522167 3 0.69369745
1.8240281 0 0.88035643
2.3412452 0 1.2015471
3.1788151 3 0.10127938
1.8110536 0.97892463 0
0.38221353 0.72457612 0
2.0037551 0.95732063 0
1.1942533 2.9491735 2
3.7853408 2.1373365 2
1.6045014 1.5466843 2
5 2.1453016 0.2038614
4.506444 3 1.3063358
0 1.350158 1.9150274
4.8672667 1.5 0.11026242
2.1910977 0 1.1685704
1.1222415 3 1.389057
3.3621089 1.0969299 2
1.3140674 3 0.53037798
0.23487647 0 1.0574698
3.3563015 0 1.0817915
1.7144499 0 0.8727476
1.8478038 0.67802095 0
1.7934408 2.2824595 0
3.6535666 1.8414698 0
4.9568663 1.5 0.86777741
4.1759081 1.5 0.82011986
4 0.28055894 0.54578656
0.0074703451 1.2113221 2
5 1.5029271 1.9480636
4.9041119 2.2779448 0
0.93791038 0 1.219669
0 2.1712644 0.077169985
1.7776517 3 1.8096386
3.8574541 0.46114442 2
2.815695 0.053115763 0
0 1.6067014 1.7348713
2.6771874 1.5647553 0
0.87079424 1.1048374 0
0.68352479 0.44075608 2
2.1697006 2.9844477 0
2.3579359 0.65177506 2
0 0.87787038 1.4114361
0 0.14208546 1.5996178
4 0.38383487 0.65921301
2.4092391 2.3847108 0
1.7172285 0 0.44868892
4 0.84904355 1.6576312
1.3940992 0.35459146 0
0 0.89391619 1.876428
0.50198501 1.4315045 0
3.4042573 0.24502751 0
4.5658522 1.5991077 2
1.6065879 0 0.45411223
4.1673532 1.6646445 0
2.5527136 2.8611338 0
0 1.8905433 1.768392
2.0957935 0.21151015 0
5 1.9807839 1.2600963
3.2624002 3 1.7244724
4 1.3876693 0.63252652
4.5590849 3 1.3681723
3.9769576 2.8025301 2
3.3112867 0.15816514 2
1.8251659 3 0.3754501
1.2656803 3 0.98999745
1.8590842 2.02367 2
0.94543856 1.052114 2
5 2.5380948 1.2422971
2.4666615 3 1.8773298
2.6487505 3 0.0078365346
4.3688293 3 0.48985723
2.8078382 3 0.24100922
2.968643 0.56196314 0
3.2556067 3 1.2822045
3.7842412 0.7607035 2
0.99902415 0 1.8958448
5 2.8357573 0.2705951
4.2120404 2.810658 2
2.8936548 0 0.6738081
0.19856384 2.4774566 2
0.82884991 0 1.1189338
0.60411096 0 0.42325816
0.15247442 1.9133059 2
1.4605303 2.349741 2
4.3407712 1.5 0.0041526994
3.0995822 1.638743 2
2.1809626 1.2944981 0
2.9277356 3 1.3798065
2.9060469 1.0887173 2
0.86908901 3 0.063914031
1.3465531 1.6991335 2
0.54004776 0 0.92411077
1.825097 1.2179283 2
3.4279244 3 0.37618068
0.13681595 1.3318442 0
4 0.08025898 1.9939179
3.9815917 0 1.1323977
0 0.73863083 1.5864416
3.8828096 0.025193172 2
3.1852524 1.883496 2
4 1.3062838 0.39126772
2.43659 0 1.3153794
3.7479236 0.17115296 0
5 2.5623312 0.18345152
3.3186171 2.6525035 0
0.13518041 0.98655277 0
0 2.1406958 0.52346873
5 2.8326149 0.42089787
2.5832779 3 1.2387273
2.0141015 3 1.4905035
5 1.9135329 0.079614691
4.0246792 2.9154668 0
4 0.86993873 0.6689055
0.098239049 1.0247297 2
2.376931 2.73962 0
1.4980577 3 0.059630115
0.3470163 2.8166645 2
1.3704653 0 1.4193946
1.5904483 0 1.4012784
0.81716293 3 0.28082454
4.0538039 1.5 0.091737486
0.87103766 3 0.18545367
0.33210218 1.6920789 0
0.072031766 0.45189047 0
0 1.4406837 0.27424842
2.0717657 0 0.27854723
2.0262227 1.2500471 0
0.71898299 1.0545722 0
3.1525493 2.8883917 2
3.0685627 2.6832836 0
1.8804929 2.6244545 2
4.9557424 3 1.319639
3.1321304 2.2522902 2
4 1.2795777 1.7126813
3.2338893 2.7443879 2
4.5064888 1.5 1.3168089
2.9968352 0.57910913 0
1.784007 3 1.7591717
0.44209525 3 1.6749333
1.4990084 2.9839463 2
3.2699902 0.77294099 2
5 2.8765728 1.9197479
0 0.59048641 1.4915562
5 2.9826801 0.10437379
3.785321 2.0916512 0
0 0.7698037 0.32136193
3.9801495 0.07515274 0
4 1.3674036 0.98787391
2.8472986 0 0.95634925
2.2438962 3 0.18412371
2.672395 0.99073505 0
2.7186375 0.58165121 0
3.8863449 0.9461481 0
5 1.9053984 0.78293324
0.17155647 0.11383547 0
3.5244193 0 1.0620549
3.9280972 2.2129495 0
1.7030996 3 0.046836115
2.9452288 0.79422259 0
4.9125295 3 1.8443146
0.79205 2.6711254 0
2.7798145 3 1.1265746
2.8870747 0 0.34048858
2.2478409 0 1.7236317
2.5020022 0 1.0303942
3.3427937 0.3354851 0
1.0477355 1.2338796 0
1.4467036 0 0.8425985
3.7674167 2.0842273 0
3.574584 0.53347033 2
4 0.059060015 0.58005673
0 1.3732224 1.3847963
4.8635888 2.0998685 2
3.3840082 1.3038909 0
4 1.1978021 0.19194575
2.9986925 0 0.60864818
3.7519279 2.0276599 2
0 1.1291978 0.83970767
3.4052155 2.7945602 2
4.1289515 3 1.4524482
1.9787714 0 1.2272602
1.2146215 0 0.11727814
0.34836808 0.90848458 2
1.7602373 3 0.65074158
3.7889452 2.7230895 0
0.91254884 1.63705 2
3.031754 3 1.3313752
2.5136368 0 0.44817311
5 2.386471 0.026960254
1.5530478 0 1.824582
2.5972626 3 1.463872
4.585988 1.5 1.6175103
3.0386381 0.94377726 0
2.2224119 3 0.44977769
3.6950424 2.404731 2
4.5588398 1.848369 2
3.1399729 2.2676947 2
1.4979537 0.19169161 2
4.5659971 2.0473676 2
0 0.2162476 0.10710225
1.9322556 2.0839038 2
0.048205405 1.6967236 0
0.047918797 2.8761692 0
0 2.7654278 0.1080449
1.3573655 2.1976042 2
1.5630133 0.29162675 2
2.4388909 0 1.2718103
0.83009934 3 1.6423378
3.5056751 3 0.17255335
1.7517004 0 1.2462249
3.9042947 0.80034328 2
3.8826282 1.6377652 0
4.2094955 1.5 0.16925389
0.54612464 2.2791069 0
4.7231922 3 0.46198156
0.80791706 0.71772707 2
2.749537 3 1.958971
2.5432105 0 0.0059469631
1.2131335 0 1.3986957
1.0933038 2.5698931 0
0.16793624 1.1900491 0
1.9128222 0 0.89939958
2.5420213 0.79300493 2
4.2086611 2.778878 0
0.94729578 3 1.6628326
5 2.0210569 0.28446278
1.8054214 0 1.6440597
1.908672 0 1.7568315
0.59874469 2.8603852 0
1.6532574 3 0.58320349
4.6728945 2.8175712 0
4.211628 2.343576 2
2.0869765 2.3022916 0
1.2932622 3 1.2467999
5 1.7147982 1.4385602
4.8188438 1.5 1.3338172
4.1828413 3 0.99160147
3.5342023 2.6213176 2
1.858582 1.7103207 0
1.0603865 2.9749634 0
0.70103437 0.28020051 2
1.098866 0.80896646 2
2.9263551 0.25175568 2
0.38818613 3 1.9493999
0.7654888 1.6761023 0
1.8033969 0.53969502 2
4.6604953 2.9829178 0
1.9630194 0 0.10348903
1.5534116 2.4192097 0
1.3984212 0.39475042 0
0.53071195 2.2936995 0
0.68937939 2.7685018 0
5 2.9054296 0.14672092
4.9450011 1.5 1.0853369
1.0578558 2.3609266 0
4.6369629 2.9572475 0
3.8007898 2.8036191 0
0 0.43476945 0.4165228
3.5262678 3 1.9567974
4 0.52004129 1.5594287
2.7935903 3 1.7520616
2.5513461 0 1.6069425
4.6164861 3 1.6831515
0 2.702455 0.034470569
4.1260667 2.12714 2
1.6287178 0.60868758 2
1.1818465 2.7078142 2
2.7777944 2.793664 0
2.4141989 2.6315434 0
3.4363334 0.590554 2
2.1415858 2.9389193 0
3.9200606 0 1.3523849
2.1299083 0.42404798 0
3.8216946 0 1.6591816
4.8691716 3 1.5491517
1.1536767 0 0.84595495
4 0.58211201 1.7837766
0.36930048 1.9103687 0
1.7905934 0 1.5134155
0.81852937 1.986185 0
4.8719387 3 0.42718986
1.8485677 3 1.7442647
3.8773592 3 1.1141282
0.60472661 0.029922049 0
1.9422734 0.06074499 2
1.2932297 1.8352531 0
2.1969762 1.7825618 0
1.3361696 0 1.8109425
3.7839284 1.0021287 0
3.4973447 2.4290957 0
3.7890825 0.37072653 2
5 2.4808648 1.306419
0 1.6032517 1.361901
0 2.9487894 0.11261363
0.2047458 2.0964079 2
0.72267026 0 0.62701428
1.4849926 0.5396772 0
3.3091934 0 1.2366215
4.1009326 2.2288399 0
3.2732506 1.0292052 2
2.5635707 2.1007123 2
1.3615912 0.26258051 2
3.4477599 1.6824665 2
0.95730132 0.22852144 2
0 2.0081439 0.61378223
2.930089 0 1.3649311
0 2.4098475 0.88452685
4.3018203 2.5295563 2
0.39207208 2.777688 2
3.616833 0.39584726 0
4 1.477425 1.5581868
2.1947229 0.077436998 2
2.9394727 2.9509215 2
3.3142829 2.1726828 2
2.937654 3 1.3840934
0.61688399 2.4149969 2
4.8407311 2.6736789 2
0 1.216284 0.57520264
5 1.8587236 1.7036275
0.97348374 1.8036606 0
2.208637 3 1.7686504
4.638721 3 0.19507554
4.2953243 1.5 0.032598644
0.75400662 2.7848964 2
0 1.7581794 0.59744549
0.75628048 2.1934617 2
2.7753556 0 1.8325897
0.98399901 0 0.1644154
3.3896983 0 0.78255659
4 1.1369816 0.86024779
4 0.0171223 0.61442262
4 1.3155023 0.40163279
0.16622137 0.64957321 0
4.3247838 2.8035729 2
3.5561917 1.4837637 0
4.9961157 1.5 1.9182972
2.029002 0 1.1941355
4.1135426 2.066813 2
2.6995957 0 1.6107481
3.4855785 3 1.0386913
4.6130576 1.5 0.55745834
3.6430089 3 0.59932834
3.3094659 3 1.9721103
1.1445372 2.5640209 2
4.5537767 2.3895142 0
3.0960004 3 1.1036694
4 1.3876474 0.49104118
3.576041 3 1.5902171
0 2.6216404 1.7449042
1.6617699 3 0.21741226
0.50177914 3 0.95870608
4.4132295 1.638626 0
2.8035839 0 1.596854
0.0090614147 3 0.96932375
4 1.0996442 0.37706122
0 0.94178039 0.38243183
4.9795542 1.5749426 0
3.0708909 0.031286161 2
0 2.4101696 1.117205
3.7368841 2.6110277 0
0 0.33014825 1.3778759
3.6543539 3 0.5435515
4 0.44032663 1.3163288
0 1.5804785 1.6734681
4.4900475 3 1.1651959
4 0.6558767 0.66617817
4.3631983 1.5 0.29740861
0.35047349 1.041514 0
0.68433893 1.8503948 2
1.7180414 0 1.7935785
0.30266327 2.4217517 2
3.3883343 1.4566935 2
5 2.5149443 0.32968965
3.6895106 3 1.2465237
1.8644774 0 0.59592754
4.8978443 3 0.5137946
2.087379 0 0.081902251
0 1.4417726 1.7040949
2.1315467 3 0.33793968
0.6129275 1.7302556 2
1.0728103 1.3527458 0
1.979306 1.792945 0
0.67093575 0.91476381 2
2.0524364 2.4103422 2
3.9486368 2.4973621 0
1.5676709 0.88301593 2
2.4873366 0.66594875 0
3.4227569 2.806951 2
0.62492472 3 0.8252067
4.3092165 1.5 1.6578412
2.5010741 0.074597269 0
5 1.5779483 0.083693229
0 1.0488466 0.70362037
0.80176765 1.4045545 2
5 2.4627743 1.2468293
1.7119474 3 0.21081291
1.615827 0.99302512 2
3.326766 0.28438014 2
4.7099218 3 0.95029312
5 2.5978529 1.179381
1.5350695 0.42659396 0
3.8132803 0 1.2802452
1.7806988 1.0504187 0
2.8569422 0.1558295 0
0.92366743 0.84089595 2
2.6121006 1.74813 0
2.9888065 0.94485223 2
0.14335945 0 1.7048407
3.2670364 3 1.7066101
0.2357251 1.8878288 0
3.8346756 1.3886625 0
5 2.5709934 0.91957504
5 2.4926293 0.32275268
2.991379 0.0017395599 2
4.1815248 3 1.7897249
2.77263 0 1.8969508
0.53775764 3 0.12892362
3.2839942 0.95767093 2
2.6237314 0.72591764 2
0.62760019 0 1.1766014
1.0425576 0 0.57791358
0.23892958 3 1.7831665
1.9837184 2.3153718 0
0.12952051 0 1.1330341
4.2329087 2.4510586 2
1.2704717 1.3231833 2
1.4849712 0.26557717 2
1.7076162 0 1.828751
4.2263651 1.7451985 0
4 1.1495123 0.039757989
4 0.22432539 1.6215646
0.55068225 2.6430781 0
0.2701371 1.8245484 0
0.71956187 2.9029896 0
0 2.8494854 0.14870615
4.5903792 2.5426078 2
2.8861258 0 1.2301198
4.9034963 3 1.2723092
0.30784675 3 1.021347
0.67841244 2.7439108 0
4.7590599 1.5 0.7174679
4.0783257 1.9938083 0
1.3296543 0 0.018801268
1.0871676 0.35679573 2
1.5957263 2.052829 0
0 0.57830036 0.27916268
2.1806228 3 1.8051467
2.70503 1.3657606 0
0 0.51014262 1.6563061
0.42067853 3 1.7747487
2.926316 2.6595309 0
1.3424392 3 1.3547157
0 2.4982398 0.82455522
3.6377363 3 1.4610709
5 2.6305299 0.48099458
4.5158224 1.8500757 2
2.7679172 1.9369805 0
0 1.8704776 0.37439567
1.1285201 0.40848765 2
0.69899338 2.8832917 0
2.8428407 2.6078453 0
4 1.4818666 1.1017723
0 1.420554 1.3602207
3.2533023 2.4492123 0
0 0.062976532 0.15017417
5 2.2327502 1.1950641
0.074722484 1.1237319 2
4.6900673 1.5 1.2202724
2.4100728 0 0.36723453
1.6840177 1.1396908 2
2.8066013 0.85776681 2
1.862555 0.72667342 0
3.113235 0 1.5863219
3.3088467 1.3181829 2
0.34604514 1.8061812 0
4.8110485 3 1.331809
4.8238378 1.5 1.8422638
3.1355944 2.2611318 2
2.3483639 3 1.1635287
1.6039447 2.9582279 2
0.39458054 3 0.27393198
1.7953786 1.6406304 0
3.3758256 2.3351245 0
4.8643379 1.5 1.3689942
2.3444374 0 1.7734464
1.401317 2.0562336 0
2.6547716 2.9114206 0
4 0.57687289 0.38298416
0.73875332 0.43627998 2
2.2705483 1.1463758 0
2.549005 1.9608701 0
0.76936102 1.1316667 0
2.3010099 0.51612055 0
2.2721069 1.5436951 0
5 2.2074547 1.6034906
2.5681286 3 0.16655442
3.1409276 2.253437 2
0 1.7396424 1.4117625
3.5383904 2.9561179 0
3.6430943 1.9491875 2
3.53953 2.2138402 0
4 0.93552142 0.91129494
2.2974126 3 0.85998994
4.0772438 1.5 1.9226197
3.306788 2.5313931 2
3.8580806 0 0.79871154
4.01928 3 0.52364486
3.180573 3 0.8553828
3.3642502 1.4035349 0
1.9317485 2.0575411 2
3.0179284 0.45515108 2
2.5490179 2.8196194 0
5 1.6827933 1.2365375
3.0402892 2.0302684 0
2.0297682 0.46654594 0
2.1245625 1.4257166 2
1.6654284 0.19406334 2
3.6679478 0.85200387 0
3.1513674 0.92797053 0
0 0.40518418 0.83718818
1.3507105 3 0.63417053
0 1.2044543 0.38354826
3.9585989 0.44734845 0
3.2158058 0.5796138 2
1.0477549 0.56738919 0
2.5764267 0 1.027126
4 0.73421401 0.58052075
4.6393876 3 0.838947
3.3949351 0.70845926 0
3.5946019 2.7768073 0
0 1.8477205 1.1005313
1.1049811 2.4501276 0
5 1.5626731 0.32457629
4.834476 3 1.7313082
4 1.0116796 0.53508484
2.3944776 0.092421316 2
4.8640561 3 0.25565484
0 0.98422557 0.80682445
4.908988 1.8928229 0
4 0.8425808 0.31102324
3.8077834 1.069767 2
5 2.882411 0.11292689
4.4157071 1.6169126 2
1.8427352 0 1.8118154
2.4022593 3 0.92487496
3.3170226 0.049537338 0
1.261345 0 0.26160905
2.4091871 2.9727907 2
1.3830545 3 1.8990291
2.4320567 3 1.2784723
3.4449668 1.8906046 0
1.5877148 0.62279946 2
4.4630923 2.9267592 0
3.9469233 2.5859628 2
0.2286424 0.29656312 2
0.25861993 2.9384084 0
2.4468217 3 1.6938815
1.80356 0 0.00016040634
2.3080137 1.4002099 0
0.084506869 3 0.71383905
4.2566972 2.0592704 0
4.6774273 3 1.3508306
0 1.4565508 1.5561107
0.83864903 3 0.81918609
0.95472014 2.1492155 2
0.99271333 2.4926996 0
0 0.06527327 0.58645457
2.2756567 1.7714891 2
4.3226748 3 1.8506534
1.4014012 0.99306136 0
4 0.70250034 1.9287475
2.9839823 2.5965867 2
3.8126957 0.10165158 2
2.6699142 1.7447641 0
0.20374656 2.3652112 2
0.35767058 0.97286946 2
0.085202247 0.35088336 0
0.086102061 1.8488539 0
2.4940472 0 1.0023879
1.6774389 3 0.38321614
0 2.6451025 0.99720234
0 1.2702299 1.1933755
5 1.6474096 1.1651024
1.688315 1.5072602 0
0 2.3606453 0.62211692
0.23195031 3 0.064879939
1.7786833 2.9419067 2
1.840371 0 1.9146165
4 0.36434186 0.23230448
4.9118772 2.9656909 2
0 1.5609548 0.1676884
4.4359794 2.794174 0
0 1.8344944 0.63786608
3.0965343 0.78367484 2
4 1.3293438 1.2473141
3.9880371 0 0.088721916
3.9059167 0.51523179 2
0.6386565 3 0.86642069
0 2.7983255 0.0046399748
0.21286242 3 0.93823594
3.9904256 0 0.3626821
3.9928033 2.3214684 2
0.5575965 0 0.51271391
1.6023651 0 0.62934595
0 0.36529309 0.42733964
0 0.023392113 1.9660795
4.8581724 2.3381014 2
1.6781107 0.2467332 2
4.1496849 1.5 1.8606647
0.93062663 0 0.72629195
0 0.31673983 0.13938177
4 0.49759996 1.1136978
5 2.9212191 1.860572
0 1.9102196 1.9485402
0 2.0993073 0.94149834
1.7429645 0 1.845758
3.9979961 0.79332834 0
3.6319492 0.60336345 2
2.029916 1.8620614 2
4 0.64504969 1.3843962
4.1352782 2.6307793 2
1.976613 2.789768 2
4.1220326 2.0964754 0
2.6146121 1.1024928 2
2.5414226 2.4400499 2
2.2736077 1.5907173 0
1.2259905 3 0.30054832
2.8011744 3 1.5024786
0.59603679 3 1.8846438
4 0.13418622 1.3687805
2.4412498 1.1469405 2
0.0069825705 2.9175444 2
0 0.79167098 0.5261656
0.39747736 0 0.017711215
4.9039798 2.8772948 2
3.5715833 1.956848 2
0 0.72149491 0.84879065
0 0.28126806 1.9710073
5 2.080513 1.7600974
0 2.166214 0.50207812
1.883412 0.45590496 2
1.3912153 0.092515141 0
3.064374 0 1.3409983
3.8722498 0.4369188 2
0.5112437 0.57801509 0
1.718812 0 1.9885807
3.4958754 3 1.9439006
5 1.7812634 0.67449015
4.1104736 1.5 1.1309158
0.70411605 3 0.49408495
0.34966522 0 0.87314731
0.79698932 1.6206057 2
5 2.3245876 0.071676001
0.024799932 3 1.9162413
0 1.0482394 1.7402463
0.55501688 2.0295663 0
4.9831171 3 1.5444367
4 1.4881381 1.1970974
1.6369572 0 0.42036211
2.1443903 1.9120058 2
0.4654693 2.1699851 2
2.4025991 0.58051759 0
0 0.46785259 0.98978156
0.069265515 1.832224 2
2.9643955 1.3875135 0
1.1171066 0.11825036 2
4.734427 1.7597368 0
4.6038918 2.0263717 0
4.6168175 3 0.35943154
1.9208622 1.3806343 0
2.2030966 1.0506566 0
2.5011487 1.6574303 2
3.2083251 2.2799456 2
0.18596227 0.71012688 2
3.4655578 0.76443535 2
2.748383 3 0.17478532
3.8047245 2.097698 0
0 0.92123896 1.4284256
4 0.18121466 1.0939279
1.7049981 3 0.64417875
0 1.2205918 0.92095417
4.2511339 3 1.9545443
0 0.50638443 0.71774375
0.84284556 0 1.7539444
5 1.764385 0.46915263
0.094538197 1.7540808 0
0.73718691 0 1.6483694
1.7248825 2.168519 0
1.8083848 0 0.48640746
0.91849595 1.042984 0
4 0.99185234 0.532754
2.0517609 2.2243342 2
0 1.48536 1.9743032
1.2593336 2.4289684 0
0 1.5492052 0.99345922
0.96872866 3 1.9933124
4.7940106 3 1.9676877
4.6466484 3 1.6391529
0.48807001 2.3788955 0
2.8727167 3 1.0064139
0.032518141 0.7221244 2
4 0.46177498 0.45492354
2.3537173 2.6969097 2
0.68072385 3 0.89598185
0.46138135 1.8689625 2
0.66589981 0 0.98973167
1.4513675 1.7431886 2
0.59536493 0 1.7753288
0.66819978 1.3211366 0
2.7924831 2.01021 2
1.8047518 0.37845492 0
5 2.0767448 0.9428072
2.4119146 2.5534842 0
0.85217828 2.4219422 0
2.4122725 0 1.1617428
0 1.9851143 1.8141294
3.0812821 1.082428 2
5 1.9378574 0.41882187
3.7082074 0.98232561 0
2.8921242 1.7560732 0
0.77635354 2.2423704 0
4.9586949 3 1.3151919
2.4999955 0 1.4562334
4.733417 2.9258142 0
0 1.8001032 1.1160511
2.8297403 2.0419254 0
1.2159683 1.201744 0
2.6068184 0 0.3561992
1.3874069 0 0.6898194
1.3592557 0 0.66259336
0.46248695 3 1.380362
3.0289156 1.3441292 0
0.39449772 0.049470536 0
1.9277695 0.55704772 2
0.67613721 0.80941039 0
3.466332 3 1.8145221
4.9106994 1.5 1.0218384
3.4795978 0.48363742 0
3.1968646 2.2410188 2
2.7656133 2.8869977 2
0.96600306 2.2128181 0
3.3288622 1.0648732 2
4 0.10983326 1.1079569
1.1593152 3 0.90869129
4 0.14101958 0.85842896
0.42347434 0 0.5587365
2.9710648 0 1.8412738
5 2.6922731 0.86036175
0 2.5813463 1.0415089
1.4250786 1.6348455 2
5 1.6294074 1.2552625
1.1638018 3 0.45607844
4.4697609 3 0.9954102
4.5247769 2.3816156 2
3.0529227 1.0653993 2
3.5444634 2.9827962 0
3.4079442 1.1600258 2
1.3350583 0 1.7424023
3.398572 3 1.212292
1.5724992 3 1.5925055
3.4596646 3 0.3632634
0.92454356 0.29083282 2
5 2.1914694 1.7332727
5 2.9869745 1.9829944
3.5522137 2.3663952 0
0.61435539 0.21758007 0
0.069854058 0 0.34782988
1.3558798 2.1966665 0
3.0596981 2.8018727 0
0 2.4288733 0.65746439
1.2658869 3 0.74770981
4 1.28211 1.081275
1.3510926 3 1.6579492
1.6019073 2.358784 2
1.1040623 2.2494516 2
2.6738529 0.80246001 2
4.7470241 1.5688361 0
0.00040426105 0 1.9806175
2.0842409 1.9387822 0
2.4508536 3 0.21931449
4.6610413 1.9164696 0
2.1529405 3 1.6469036
0 0.42129979 0.35097885
3.9614675 1.6464624 0
0.1897479 0.47155926 0
4.9980154 3 0.29364303
3.7201831 1.1037185 0
3.7745543 1.8407317 0
4.7757692 1.5 1.2690687
5 1.9455125 1.7132864
1.1807262 3 0.6325863
3.1789184 1.7009733 0
2.5927732 0.045153607 2
0 0.58761579 0.58012164
0.35845491 0.0064215567 0
2.417021 3 1.8040075
4 0.44542503 0.19082494
4.3415394 2.0670326 0
0.73293477 3 1.9377428
1.2418002 1.3965908 0
2.1121526 0.11217893 0
0.96225303 0 0.028478339
2.3418415 2.1303942 0
4.3114104 2.241734 2
4.0488086 3 1.8440993
3.3687186 0.46525908 0
0 2.1151364 0.49802217
1.6914744 0.59858352 0
1.4777697 0.99292368 0
3.3028331 2.1764286 0
2.1952536 1.8156763 2
2.1480505 0.539612 0
4.4061666 3 1.5661316
1.8533969 2.439368 2
3.0607634 1.6322674 0
1.7032149 3 0.39453167
4.3900824 3 1.5804724
2.4544568 3 1.2874511
2.2709811 3 0.37937579
2.5339859 2.2282929 0
3.7306697 0 1.9787019
0 0.14648952 1.0679497
4.4626927 3 1.9060524
5 1.6734598 1.3407153
2.9872642 2.9110482 0
3.2230723 0.29594499 0
0 1.7467742 0.086645275
2.4932871 0.49135432 0
4 0.24401392 0.59990829
2.6629128 0 1.2277426
3.1850481 2.5507629 2
0 1.965708 0.75223541
1.0409503 3 1.1114912
0.21182373 0 0.81970459
0.64464027 2.5497975 2
1.0711612 3 0.65641731
1.1916327 2.6564012 0
1.7575196 2.372375 2
0 2.4333725 0.54270309
0 2.2391746 1.9582602
3.3518493 2.326674 0
3.1178572 0.85106474 0
0.57617766 3 0.69255549
4 1.0969375 1.7433356
0.12485754 0.18153742 0
4.5438814 1.5 0.21270961
2.2706251 3 0.72228289
4.082067 1.8203228 2
1.4978871 3 0.19468106
0 0.3245596 0.25546965
3.642462 0 0.31226143
1.4977818 2.5644896 0
0 0.87366098 1.1120394
0 2.0327287 1.2092124
3.8730054 2.5598745 0
4.9728537 3 0.66506964
0 2.7480118 0.63897657
0.49505115 1.9879093 0
3.9178977 1.9331515 0
4 1.2711915 0.07301832
1.7681627 2.8312972 2
0 0.65378708 0.60518432
1.7245305 2.5215693 2
3.2391126 0 0.96273839
1.6111454 3 0.92204654
2.7069263 2.8528528 0
2.0219288 1.5649495 0
1.8748189 0 1.7733508
0 0.72035372 1.9488626
2.8421934 3 1.3540169
4.0255022 1.5 1.8332802
3.8774467 2.1963446 2
3.2550049 1.087219 0
0 1.8333659 0.0782208
0.4472 0 1.1545707
3.332057 0.49141425 2
5 2.6909678 0.83093596
4.9201126 3 1.4139962
0.58958423 2.8023851 2
4.8332162 2.4627905 2
1.3721094 2.3704698 0
0.22058299 1.4236476 0
0 2.2663968 0.27361125
5 2.1016779 0.7820133
4.1480622 1.9413252 0
4.3977246 3 1.9897143
3.6025078 0.75552493 0
1.7807187 1.1517085 0
4.1559887 1.5 0.95253694
5 2.5167081 0.90788233
1.4760791 0 0.16027251
2.3600295 1.2140625 0
2.3243172 2.7273808 0
2.5294743 1.971315 0
2.3681345 1.3020426 0
2.3721917 0 1.8282589
1.2735583 0 1.3673716
0.5335198 3 1.2081822
0 1.288008 1.197699
3.5800447 2.1176224 2
4.8841858 3 0.33763474
0 1.1255032 0.9443962
0.38540977 2.3495238 0
3.34654 0 1.9041885
4.965188 2.9201546 0
0 0.97551268 1.4867352
4.214386 3 0.96678323
1.0598451 0 1.392333
1.7280625 1.3710445 0
2.9939067 2.0980515 0
2.1417983 2.5011601 2
0 1.3624934 1.693534
0 1.7654673 0.25054666
0.95746493 0 1.0653819
1.4060731 0.55582494 0
2.6130624 2.2747459 2
2.1262348 1.1873109 0
0.47754934 1.2331272 2
0.32879701 3 0.72961271
1.1652092 3 0.95496976
0 1.0550494 1.3719193
2.37573 2.6926489 0
0 1.0697989 1.7413979
4.6489973 3 1.9618876
2.8040626 3 1.8222069
3.5716856 0 0.23072949
4.4514565 1.6649765 2
4 0.12048347 1.0935624
3.9432688 0.85737431 0
0.40692323 0.89026493 0
1.8448699 0.94857144 0
1.2266026 1.3547286 2
4 1.0370308 0.099946216
1.9288762 2.6608317 0
4.6973815 2.7401013 2
3.4317219 0 0.19430532
1.492684 2.8671627 0
5 1.6972526 0.54923683
5 1.8520671 1.2041059
0.033853486 3 1.7134316
4.5854645 2.6917675 0
2.2402236 2.1234398 2
1.9261676 0.88521034 2
4.4019728 1.5179023 2
3.2677631 1.1883135 0
4.7258949 2.1043546 0
1.1976256 0 0.99965966
1.1450636 3 1.9685451
5 2.5339842 1.9097012
0 1.5431575 0.73939627
1.4376128 1.222594 2
2.6319425 0.087975621 0
0.12286258 0.14284109 2
2.5339334 0.63603765 0
0 1.1044781 0.93552226
3.4622676 0.18576267 0
5 2.9854088 1.2822022
1.9096495 3 0.68093741
1.123971 1.4742172 2
3.5167961 0.44719237 0
3.2774992 1.1463783 0
2.4198298 1.6965477 2
2.8315239 1.8611208 2
4.7392511 1.698248 2
0.89143664 3 1.6029484
1.6449425 0 0.52470326
5 2.8584952 1.7727436
5 2.6846042 0.052460365
0 1.2626057 1.5234306
1.1248953 1.3040987 0
2.268862 2.3855302 0
4.8143477 3 1.4008206
4 0.018748511 0.19669124
0 0.42271265 1.5681098
3.7659123 2.809938 0
1.2256529 3 0.39420259
1.4439937 3 1.9923826
0.67383021 2.5066347 2
5 2.9545968 0.05618703
4.1616907 3 1.5617694
5 2.0871577 0.23996796
1.0270171 1.1889149 2
2.1051483 2.9125054 0
1.92968 0 0.45325893
5 2.7651937 0.25781381
1.6639807 0 1.4698061
0 1.7432749 0.89100909
2.4428096 1.5096906 2
3.6124847 0 0.5726465
0.2081551 0.84459579 2
0.51884949 3 1.3398963
2.8657489 0 1.0975498
0.32470828 2.0711901 2
2.3057559 0 0.65969837
3.2472565 1.049522 2
4.8720794 1.5 0.86193097
1.2108831 0 1.1866663
2.7732544 0.033013344 2
0.40335882 3 1.339381
3.0576167 1.0022156 0
2.9055092 0 0.31232008
0.24397658 1.998257 0
1.5005654 2.2277548 0
4 1.4813452 0.83604288
2.1686308 1.965703 2
1.2385045 1.7010696 0
0 1.2954403 0.93548959
2.3719378 0.96902281 0
2.7068875 1.7821833 2
2.9275095 0 1.2013265
1.4628544 2.1024728 0
3.4246092 1.8987527 2
0.94795293 1.2962353 0
0 1.5889392 0.21615936
0.70833308 2.7196214 2
1.2470558 2.0138834 2
2.0995903 3 1.1430621
0 0.26554248 1.7641169
1.6838001 2.417712 2
4 1.0842773 0.11220364
4 0.16970894 1.5330671
4 0.29743588 1.6718881
2.2448268 3 0.98854828
2.8656385 3 0.37592968
0.17265914 0.012686713 2
4 1.1799201 1.3460405
1.4522417 2.97651 0
0 0.44597307 0.32125625
2.0586095 0.22242942 0
2.4686763 1.9574581 2
0 1.1475017 1.1171026
0.72083908 0 1.4670725
0 2.0762646 0.57589221
0.4518429 1.8584728 2
2.187773 1.0623448 0
2.4272482 2.174413 0
0.97716981 1.5280386 0
4.151598 1.8991802 0
2.4762564 3 1.0177934
0 2.4145441 1.0246643
2.1544585 1.64404 0
3.9107125 0 0.80368811
4 1.2903136 1.5543497
4.1006227 2.6272047 2
4.92103 2.4433727 2
4.7049417 3 0.080482788
3.3611231 3 0.76555556
4.1420088 3 0.82311809
3.0099928 0.34390745 2
0.26310042 1.0519882 0
3.5601106 1.0590746 2
0 1.2093287 1.1624849
2.4805377 1.7226934 0
1.9583875 3 1.0942712
0.82019156 3 0.51278275
0.28058302 0 0.75946379
1.4604887 0.53298646 0
0 2.9547563 1.7175062
2.3163135 0 1.7275518
4.2699485 1.5 0.643538
1.95767 0.86463672 2
4.4261141 3 0.57870919
2.3951771 0.96087843 2
1.6581089 0.37110129 0
0 1.6554626 1.4660279
2.7074172 0.7358619 2
2.0404072 3 0.59713298
0.36344814 3 1.1243638
1.2705498 1.1278719 2
0.28769037 1.4085402 0
2.9019296 0.41997787 0
4.1349835 1.5 1.980918
0 0.94038373 1.5476776
2.7531996 0.69179499 0
4.8631349 1.5 1.863499
0.20072761 3 1.8614408
4 0.22404057 1.8451794
2.2614124 3 1.9665632
2.0972381 3 1.5478225
2.3935385 3 0.17343386
2.7479362 1.5984155 0
0.016792042 0.030217279 2
1.0380017 0.56178224 2
1.3508108 0.66196716 2
4 1.0006044 1.6312417
1.5936593 2.167439 0
4.3851552 1.6253258 2
3.665818 0 0.18576704
4 1.250283 1.2484107
2.6851077 2.1101763 2
4.1889744 1.5914698 2
3.6948409 1.5982239 2
1.0292485 3 0.8430593
2.1667531 1.6519833 2
1.2852198 2.3646278 0
3.8212507 0.70495981 2
3.9543223 0.88151765 0
1.2692795 2.192822 0
2.5448344 0 1.5479995
1.640568 0.3162604 2
2.5208087 0 1.2541169
3.149864 0 1.3204938
4 1.0666312 1.962272
0 0.9196794 0.76417929
0.353567 3 1.1786071
3.1223745 0 1.2196555
3.9560804 0.79831427 2
4.4306197 3 1.4224302
0.074317887 1.2477118 0
1.1989092 0 0.25583807
3.085124 2.7313457 0
2.9713638 1.1342354 0
4.9792943 3 1.3345731
2.4122539 2.300494 2
1.8006922 0 0.81261313
1.3683593 1.7799946 2
2.0201063 3 0.68497473
4.31284 2.4915147 2
1.5712775 1.0458367 2
3.5019982 3 0.93435973
4.351819 2.6270807 0
1.9679582 1.1198403 2
2.1542466 1.3400906 0
3.6424909 2.5226853 0
2.6355517 3 0.08323054
2.4928167 0.37655485 0
4.4629588 3 0.026144661
2.0405087 3 1.7883723
4.7843823 2.1165385 0
4 1.443254 1.3888857
2.5439403 0.146982 0
0.21729149 0 1.0577234
0 1.5595863 0.91825312
5 2.5155604 0.34079531
4 1.3381885 1.0560641
2.2516179 1.2786407 2
0 0.040634125 1.966207
3.5182199 0.042871576 0
0.18651804 1.4785225 2
0.85282278 2.6531978 2
1.3642888 2.9654679 2
1.9040407 0 0.86030817
1.5498188 3 0.30920655
2.3337436 1.2360021 2
3.3577793 1.5245668 2
1.8729234 0.41356584 0
2.8286209 0 0.35938054
2.9048445 3 0.73533309
4.9979243 3 1.2214732
1.934652 2.6092491 0
2.639359 0 1.0593876
0.876122 2.6589308 0
3.2977607 3 1.2788376
0 0.012120286 0.42290074
0 1.708411 0.051176943
3.9887381 3 1.5164804
1.2246498 2.0300136 2
1.8381613 0 0.45864934
2.7703199 2.8014894 2
0.73480123 0 1.2629714
1.51227 0.56979692 0
2.0696564 3 0.98327285
4 0.14340001 0.59006774
2.1745486 0 0.15415734
0 0.27775425 1.4144267
2.6610217 3 0.037468631
2.3854837 1.4050037 0
0 1.1615028 1.0385722
4 0.46928638 0.17951196
1.0345668 3 0.42442641
0.11822195 1.7000729 0
0.80248272 0 1.0381564
4.669868 3 1.7909873
2.0432129 0.028717959 0
2.5748887 0 1.5784287
4 0.028442545 1.4133053
0 0.4581663 0.30741197
2.5857098 2.8586764 0
5 1.8279485 0.73362124
1.3350285 2.5427434 0
2.4744542 0 0.87125909
0.047276266 3 0.40850335
0.73716635 0 1.2399017
2.463517 0.5124771 0
0 0.82120025 0.30733028
1.5121161 1.1438005 2
0 2.7621434 0.243476
4.0946779 3 1.9317776
0.29844397 3 1.9200011
0.049784087 1.9479766 2
4 0.090786278 0.02351464
2.1878271 2.7409306 2
5 1.6503986 0.37373477
0.041844033 0 0.71986133
0.75592566 0 1.9867938
2.7650232 2.2099745 2
4 0.88542992 0.15412863
0 0.69046253 1.9593689
2.7059417 1.6706988 0
2.2251248 2.5825083 0
3.6184886 0.0040479628 2
3.2165365 3 0.99159288
1.3335458 2.1679096 2
0.19495246 2.3245502 2
4.9732347 2.9064286 0
0 1.7618716 1.536401
2.3731601 3 1.6066662
1.3656734 0 0.11875048
0 2.4399211 1.2281704
0.87782198 1.3084565 0
4.3728185 2.0671906 0
3.4616916 1.3339759 2
2.8313928 3 0.49417487
2.003931 0.23082124 2
4.1257739 3 0.54330009
4 1.4960033 0.096438348
0 0.44029912 0.54504335
0 2.0278561 1.7415738
4.6607714 2.0497067 2
1.4476519 1.0088557 0
0.83219767 1.2185076 0
5 1.5934122 1.3014902
0.18165511 3 1.0181026
5 2.4236045 0.35806262
0.67042053 2.2214437 0
2.2331662 3 1.2272826
0.79055667 1.7419933 2
1.8515439 0 1.5641891
4.0179791 3 1.8009764
2.3179476 2.3564801 0
0.32287896 0 1.4106526
2.1923873 1.1206166 0
3.3810868 3 1.7845381
2.499934 0.76670605 2
5 1.9961147 0.011668314
0.12110753 0.84255546 2
0.86786062 1.0195122 2
3.2511208 3 1.5914816
0 1.3457859 1.8029451
4.2489858 3 0.83283687
2.918303 2.0018759 0
2.2968647 1.2495736 0
5 2.4589238 1.3066838
2.6851518 0 0.54091161
4.247498 3 1.8042893
1.7709026 0.706361 2
0.79831934 0 0.81974703
1.2329544 1.3735844 2
2.6025515 3 1.9641877
2.6923184 1.9579582 0
2.0772986 0.31948993 2
2.2297111 1.0632838 2
1.1970764 2.2198505 0
3.2793822 0 0.08093819
0.56527889 3 0.11629409
4 0.41247389 0.26202065
2.1232281 3 1.4011046
3.3126054 2.113811 2
1.9638036 2.7386587 2
4.668973 1.5 0.33026528
4 0.91541505 0.51991725
0 1.2775739 1.0463568
2.0019815 0.16337404 0
0.46178401 2.742528 2
1.3802001 2.3202388 2
0 0.21565641 0.95871675
0.078217641 3 0.9771933
2.8377359 1.3998559 0
1.5956852 2.5058143 2
0.02176166 1.8136641 0
2.9424591 1.5902833 2
2.8094356 2.5803812 0
3.5155816 1.8052722 0
0.19314867 3 1.290022
4 1.0525622 0.11315233
2.1018515 0 0.011917779
5 2.4511328 0.53988093
0.57090771 3 0.4331466
2.8529215 0.45371625 0
2.887449 0.47885644 2
2.2799363 0.57460672 0
4 1.4299397 1.3945612
4 1.1166991 1.4091518
2.2062502 0.61574435 2
3.452379 1.5484446 2
4 1.0463685 0.60218722
0.29404032 0 0.56605744
3.9351037 0 0.25357023
0.11420979 2.4447088 2
2.726244 0 1.1546896
3.2079554 2.6860957 2
3.4641094 2.2979107 0
2.257684 0.31842589 0
0.063773744 2.9490335 0
2.2711573 0.43489608 2
1.9955878 2.9377062 0
0 0.52067327 1.1639318
4 0.77874154 1.0725062
5 2.7240572 1.3525842
0.87227792 1.0812421 2
2.768297 1.4052567 0
0.198668 2.8665321 2
0.11644932 3 1.870382
0 1.5008723 1.2642152
0 2.6223476 1.919304
2.580467 0.73096776 2
1.8222239 3 0.13411039
3.736414 2.0308809 0
1.1151736 0.84834695 2
3.165436 2.0259695 2
4.463923 3 0.21884257
3.7740774 3 1.8213664
4 0.98427087 0.54230011
0.21185882 0.62825555 2
3.9268546 2.4623711 2
3.5996246 0 0.036430605
4.7362547 1.5 1.8801068
1.1221128 2.9872372 2
1.9556315 0.96940863 2
3.0508058 0.02143674 2
4.7084146 1.7346103 2
3.501756 3 0.26256329
0.43779671 1.3179148 0
1.0285305 2.7984426 0
1.2827954 2.2999759 2
0.14065607 0 1.3371879
3.0856082 3 0.718126
4 1.4437819 1.2067904
5 2.6386576 1.6914018
3.5742016 2.5438592 2
2.2388017 3 1.7151502
3.3232095 3 1.1703329
2.3482566 2.4432349 2
0 0.23879938 1.7128094
0.94655544 1.6332338 2
3.2843249 1.4943985 2
2.5676024 0.14477369 0
4.2370753 1.8683461 0
0 0.5028401 1.105094
5 2.7259862 1.4243119
3.7162335 0.44895533 0
0 1.8102728 0.67385083
1.4879019 2.8270354 2
2.3511026 1.7022527 0
1.1767195 2.2382612 2
3.1998265 0.51580238 2
1.6036119 0 0.65173566
1.8735739 2.674619 0
0.6456691 0.51772469 0
4.312366 3 1.4550432
3.3087375 1.7260841 2
0.041452229 1.0129501 0
3.5879319 3 0.094730362
1.7235804 2.6896932 0
1.7791741 0.48080564 0
0.19402325 2.6800618 2
0 2.9214654 1.4611243
0.69544595 1.0141501 0
2.897274 1.1108053 2
3.441277 1.5681812 2
4 1.1020582 0.86451834
3.7683527 0 1.3837796
0 2.1039073 1.9325378
0 1.0770912 0.86704546
4.2286105 3 1.8087336
3.3394938 1.5770091 0
0 1.681474 0.68795073
1.6002907 0.37616688 0
1.3287404 3 1.4380774
3.9149747 0 0.92965049
0.18829638 0.57294768 0
0.73110932 2.2623434 2
3.0426731 0.25636226 2
1.2246661 2.0279922 0
4.9136796 1.977494 0
0.38715643 0.68253016 0
0 2.4046941 1.1164019
0.20459776 1.0882398 0
2.9619009 3 1.9020581
1.0141656 0 1.2463806
3.4796424 3 1.2852012
0.079715356 1.0156219 0
4.0887403 1.5 0.01088199
2.6391938 0 1.0489435
1.1703365 2.6509485 0
5 2.7538495 0.55401081
3.2639751 2.9615912 2
0 0.015197998 0.11369845
0.67251319 1.6581658 2
3.9620914 2.448283 2
1.4504853 1.0359937 2
4.0352187 2.5338597 2
4 0.64332294 1.9020191
4.2963896 2.0932682 0
0.97370648 2.6667752 2
0.8440392 0.32375482 0
1.869916 0 0.61784923
1.7144674 1.1791627 2
0.67083055 1.6155189 2
2.8127348 3 0.25257811
1.2144129 0 0.69762576
1.2810221 3 0.63966805
0.4100706 2.6677542 0
0 2.0504222 1.8768773
1.4805753 1.436785 2
2.4699781 0.14401956 0
2.322535 0.0068670781 2
4.4601045 1.5 0.49465814
0.23401213 1.8503873 2
4 0.62655139 1.110456
3.2960923 0 0.3112222
5 2.3233874 1.7741855
0.39453691 3 0.12091564
3.7957702 1.0778707 0
4.577497 2.319654 2
3.4214466 0 0.15305962
2.2853074 2.8315315 0
0 2.8713572 0.80866259
0.77250147 0 0.84889692
3.3307905 0.38009799 0
2.721729 3 0.89088774
0.27442881 3 1.5007025
2.8803692 0.76002699 2
3.9634345 3 1.6701331
3.8020053 2.4659414 2
0.66718602 1.0782642 0
5 1.8864709 1.2319126
2.1805556 2.7747118 0
1.2508696 0.11720058 0
3.2398875 1.6542661 0
4 1.2788311 0.020200539
4.4152589 2.5713415 0
4.8147116 3 1.0598001
0.58972144 0 0.064987913
3.5845525 0 1.6005142
4.9501662 2.3727283 2
0.27968538 2.6688097 0
3.6127222 3 0.91169953
2.515846 3 1.0367886
1.1233641 3 1.9508519
2.8391047 0 1.4648449
1.0117939 0 0.6915924
0 1.2269254 0.20502886
0 0.73674858 1.9167838
2.3064165 0 0.48945543
2.1005666 1.504851 0
2.4947219 1.0061482 0
0.8242206 2.3584545 0
1.155135 1.1981665 2
0 2.659601 1.3695101
0.14490847 3 0.048162214
0.17291091 3 1.5015167
0.32425776 3 0.95174146
4 1.1261141 0.02918357
3.0329523 0 0.74732196
4.9445848 2.7692986 2
0.4757247 0 0.75622219
0 1.5231887 0.04057648
0.093528233 3 0.61178869
4 0.57617277 0.99819767
4.3822532 2.5785244 2
0.1673336 0 1.0234832
0 2.7614524 1.7941256
1.8759154 0 1.8984344
4.1653733 1.5 0.52191234
0 0.7686134 0.77696401
0 0.97390848 1.4438778
5 2.133081 0.90950996
1.9027776 0 1.5712577
0.14742611 0 1.7811511
1.4794136 1.3165666 0
1.5759195 2.1402903 2
0 2.9075685 1.9739702
0 0.8745212 1.4825842
4 0.89458776 1.8057311
3.3575506 1.4421624 2
3.1946099 1.4181652 2
0.75771034 0 0.41959777
0.29966271 0 1.884145
1.307234 1.92979 0
3.1143258 2.2687125 2
1.5027385 0.82390159 0
3.6227465 0 1.5613656
1.6802658 0.11806185 0
2.4927869 0.25635868 0
4 1.0635463 1.6386967
0 1.0119325 1.5468667
0.61744827 1.8983607 0
1.841122 0.90631121 0
4.0868392 1.5 1.4013339
0 1.4612213 0.53584296
1.9786298 1.0286609 0
4.7469678 2.7741542 2
0.32516012 1.4658273 0
2.6449845 0 0.081870459
0 2.1834693 1.6679661
4.3042116 1.5 0.57615846
0.88028932 1.4308976 0
3.9593158 0 0.078563586
5 2.6654692 1.0050511
1.2586243 0.36689463 0
4.2334018 1.5 0.6248281
2.7373891 2.2694106 0
0.95661086 3 1.2954842
1.2083004 0 0.69585967
4.7323861 2.7953691 2
5 2.5395944 0.82247698
4.1065149 3 0.8384589
0 2.7647049 1.1973439
3.6332781 0.85164565 2
2.7994304 0 1.4748431
1.86339 3 1.817178
4.2049494 1.5 1.2783644
0.48969045 0 1.1250089
3.192282 3 0.94643468
3.7839262 2.8043993 0
2.661499 0 1.7274884
0.65922946 0 1.6649383
1.4018562 0.45323265 0
0.61393815 0.22499618 2
2.5983989 2.6874352 0
4.7310119 3 0.97242081
0.076205663 0.60461468 0
5 1.9786146 1.4044315
0.38453898 0.90591764 2
2.2853413 0 0.41657859
5 2.8699608 0.47185597
3.5561926 0.54368609 2
0.10674272 1.8762491 0
3.1249852 2.2834439 2
3.4611342 3 0.25321901
0.36377135 3 0.51940387
1.3730981 3 0.91955161
2.9192181 0 1.7562301
1.0088379 0.16855988 2
2.9102712 2.2728629 2
2.0671732 1.4418796 2
0.9091301 2.4838071 0
1.2762995 1.4806613 0
0.33443564 0.031652544 2
0.93480682 3 0.80410606
0.58087325 0.2708694 0
3.5616579 2.8395898 0
0 1.9774843 0.1529166
0.19112976 0 1.7863728
1.691125 0 1.9941802
1.574368 1.9077642 2
1.75304 3 1.5045304
1.5924833 2.099714 2
0 0.87610233 0.94532442
0.2557663 2.6074238 0
5 1.7232203 1.9780846
3.9144878 3 0.41090563
0.81147546 0.3876898 0
4.7028208 3 1.3308351
2.475214 1.0993068 2
2.4047911 0 0.7684474
4 0.81627208 1.5537977
2.215836 3 1.8958056
3.3301015 3 1.9000089
4.4051976 3 1.3105661
0.28065088 3 1.8084025
4 0.26010966 0.5842784
2.6414359 2.3187132 0
2.351717 0 1.4954954
4.5502486 3 0.61200821
0.13914728 0.89525908 2
3.9199376 1.408416 0
2.7246194 0.4997268 2
4.3582973 1.8175223 0
2.539799 2.164907 0
2.7148244 1.7771872 0
3.3746283 1.002129 2
4.5035739 1.5 1.0959457
3.2654245 0 0.11563313
1.3725823 3 0.3602148
3.5373263 1.9875771 2
0.80458105 0.84386849 0
3.9751134 0 0.25904787
2.0106192 0 0.35965663
1.3127456 0.42869911 0
0 0.94992512 1.8511636
3.7674658 0.75694722 0
4.2190347 1.5 0.84708184
3.8775506 2.9038858 0
0.86988771 1.5681461 0
4.7219329 3 1.7011139
0.27843395 3 0.91106904
4.7229271 1.5 0.099901512
0 0.65041047 1.8588951
0.68532783 2.7210567 0
5 2.3616364 1.4217561
0.29125604 0 0.86375004
1.5366794 3 1.7928193
2.612072 3 1.9372385
1.2814745 0 1.1942544
4.6577563 2.4295905 0
3.4197166 0.71884841 0
4 0.88877958 1.5655376
2.2765651 0.2822473 0
3.2931836 1.2374562 2
3.211468 3 1.4431367
5 2.7484269 1.636336
0 2.7631812 1.4201252
0 2.6035864 1.6270677
0 2.9563053 0.48688367
1.9174641 2.0273237 0
0 0.0939252 0.48291114
1.0517526 0 0.83450121
2.4883506 2.9264431 2
3.9691062 0 0.4146271
4.0540199 1.5 0.70337534
3.127691 1.7386323 2
3.1951008 2.0940225 2
1.0774441 2.601388 2
3.0104506 0.12473884 2
4 0.024277514 1.7924482
0.94292241 0.37557626 2
0 0.72706372 0.50627929
2.74544 1.667327 0
0 2.4276512 1.9652753
3.7489586 0.88893229 0
4.7686853 3 1.7680722
0.12286438 1.4946928 2
4.8454103 3 1.8262907
2.0891364 3 0.72362548
0 1.076823 1.72189
1.584448 3 1.9264294
0.35968035 1.2454764 2
0.80018747 0 0.011081554
3.2124696 1.8252398 0
5 2.9061496 0.60774803
0.87258166 3 1.9157122
3.9492946 3 0.36874178
2.3208432 2.7456622 2
0.15985963 0.63137984 2
3.0004356 0.63092244 2
4 1.1193956 1.7214518
0.18168704 0.019078569 2
4 0.38995177 1.742269
1.3396913 0.75444341 0
3.2158709 2.465323 0
1.369966 3 1.680932
3.6869428 0 0.67578357
0.43198368 3 1.6930526
1.6711607 0.84620136 2
4.3130298 1.9733539 0
2.2299805 0 1.469961
2.637568 0.49658796 0
3.909143 2.82618 0
5 1.76993 1.506621
2.080065 0.040557586 0
0.14924243 1.4658533 2
2.1049855 1.0798008 0
1.0448301 1.3905318 0
4 1.4701974 1.7670077
0 1.2969189 1.9063464
0.7295875 0 1.8540605
2.1588373 0 1.5580651
3.0965996 2.2244177 2
2.5413954 3 1.381362
0 2.0398569 0.90728456
3.6157308 1.4936535 2
1.1594344 0 0.97084814
4.9502316 1.7728027 2
3.8158288 0 1.6572193
2.6033044 0 1.874904
4.5626674 2.8619952 2
3.5768061 1.6302679 0
0 2.2179015 0.7931124
1.2379227 3 1.2918683
0.59049606 3 0.63857424
3.3007119 0 1.2300576
4.164464 2.7760158 2
0.57181907 1.15109 2
2.7138169 1.409577 0
1.3963711 3 0.84612632
4.1764135 3 1.1966523
3.3680778 3 0.38880947
4.1034198 3 0.54754132
4 0.85846275 1.2277468
0 0.42200658 1.7548094
0.77517164 1.2111125 2
1.500774 1.4339039 2
3.9770865 0.36487353 0
4.030427 1.9273826 0
0 2.9169745 0.66675395
1.1349006 1.3588353 2
0.67411661 0 1.9976813
2.7422814 3 1.8659983
0.16537912 3 1.7164406
0.68055546 3 1.3841673
2.8956902 3 0.49696168
3.633322 1.6881528 0
0.36916456 3 0.55305481
2.6229737 0 0.26447052
1.8058031 3 0.63614237
2.3582819 3 1.6820949
2.8122656 1.7486564 2
5 2.8809927 1.4933698
0 1.5092003 1.1463248
0 0.076370388 0.87919313
2.6063855 3 1.5699548
2.2089503 2.0364611 0
2.5492272 0.32809928 2
0.13211165 0.51687151 0
4.0580997 1.5 1.3473276
2.6394103 3 0.78781068
0.79217154 2.5177617 2
1.4132917 2.5754526 0
5 2.7807586 1.8501103
4.9427114 1.5 1.7961676
1.088836 1.1444371 2
0 2.3140612 1.4983212
1.5948502 2.5207016 2
2.6822553 3 1.2512859
1.0280366 0 1.2833191
2.4654825 0.67734361 2
4.468636 2.9306376 0
4.387064 1.8305717 2
0.028177062 0 0.81258333
4.4365363 3 0.18115912
5 1.9946581 1.0782917
3.2049189 0 0.84133351
1.1142284 0 1.1376135
3.019953 0 1.783469
1.3816209 1.8776426 2
0 0.85000205 1.9085274
3.8215747 0 1.3521115
0.36633283 1.6652892 0
0.17706648 0 0.58621472
0.19106369 1.5619476 2
3.4860628 0.16150497 2
2.0918427 0.88007736 0
2.4647524 0 1.5993055
2.8975229 2.9446495 2
3.9717646 3 1.4466356
2.9037471 0 1.6722355
2.4288447 0.92610395 2
2.6814446 0 0.76242489
0.75628084 1.5849603 0
5 1.5900155 0.25840652
2.215389 2.8060002 0
4 0.42690516 0.48021194
3.7688057 1.5420433 2
0 1.7174824 1.5215782
4.9968033 2.9153318 2
2.5548315 2.3744497 0
0 2.1503572 0.8486433
3.7243345 2.5794976 0
2.1354649 2.7661815 0
2.6519864 2.9349179 2
2.695719 0 1.0026149
2.8345835 0.9143737 2
1.9118009 0.029913247 0
1.1317803 3 1.2912686
0.71438736 3 1.2401878
3.819392 2.8391435 0
0.12195159 3 1.7095611
2.828814 0.23357122 2
2.1036205 3 0.60111409
2.4554901 0.89819992 0
4.1645532 2.1225207 2
1.2717208 0 0.80224341
5 1.5545616 1.2699034
3.3165715 2.8061922 0
3.7947626 2.0051963 0
1.653617 1.0186542 0
3.8810804 3 0.62750435
0.98999906 3 0.10055229
3.2402501 0 0.94895166
0.83466452 2.7489722 0
0.22316362 2.777554 0
1.9810098 3 0.3107931
0 1.3746976 0.35512826
2.5138128 0 0.64707297
3.6058633 0 1.4908834
4 0.018173466 1.0347673
0.09393122 0.50191069 0
0 0.34882742 1.8919238
1.9430418 1.1955755 0
0 0.59633267 1.5804403
4.4813056 1.5 1.2668843
1.0784385 3 1.2520167
4.7147794 2.390784 0
2.1350324 0.59022659 2
0.75207394 3 0.22313768
1.0805763 1.6138345 0
3.5625322 1.5954353 2
1.17413 0.16758884 2
3.6485353 0 1.0602391
3.7056179 0.40079701 2
5 2.6618695 0.44536456
0 2.7982666 1.1110759
3.0889153 0.67646796 0
1.7786745 0.98776913 0
0 1.895488 0.19880275
3.4635873 0 0.28208667
0 1.1424212 0.54780346
4.0011797 1.7884483 2
4.4891815 1.7471648 2
1.5006951 0.30732712 0
3.0498645 0.46148124 2
3.7868533 0.12075227 0
5 2.5449955 0.50901246
1.1189377 0 0.97718114
3.4462931 0 0.24279307
2.5895193 0.7155453 2
0 1.2891508 1.2417823
0.69778949 0.62144309 2
0.72020155 0 1.0826256
0.061584152 0 1.7949127
0.2640726 1.8781501 0
0.058045648 1.5763344 0
0 2.6345162 0.61673826
3.7419808 0.94439256 2
1.6553788 0 0.52933973
3.019877 0.3881205 2
3.877202 2.0791261 0
2.1081882 2.8213556 2
4.3093033 3 0.76796305
3.9601092 0.51970476 0
4 0.8985396 1.2286563
3.98545 1.4028413 2
2.5758262 3 0.27624705
2.1703722 1.0678751 2
0.61155957 1.1685094 2
4.2031274 1.5 1.6565838
3.7679987 1.2731637 2
3.4165261 0 0.4071939
1.4274638 3 0.47475755
2.6587002 1.1345348 2
1.5801346 0.20811054 0
4.8704534 3 1.3576818
1.6890533 0.31464905 2
0.10968803 1.6130394 2
0 1.508557 1.4824094
2.9702537 2.0534599 0
0.57632864 0 1.2028353
1.5998505 1.4959826 2
0.4059937 1.5289599 2
0 0.86551851 1.2190276
4.903017 1.5 1.8692225
3.4922917 0.0304277 2
0 1.4735417 0.70086378
2.1682889 0.86451489 2
2.3789337 0.43251216 2
4.9977775 2.6910503 2
2.9075749 2.5331116 2
2.2949004 0.88990301 2
4.8441057 2.6211536 2
2.6481159 0.59918731 0
2.1553903 2.0509484 2
4.3805923 3 0.16012894
2.931159 3 1.3048356
0 2.3491647 1.1813262
0.30973518 1.7872807 2
3.7633238 0 1.925699
0 2.5390828 0.25288603
4.2115655 2.9684198 0
2.9334872 0.74989879 2
4.2169533 2.6746681 2
0.091360711 0.69937611 2
1.0926602 0.16614518 2
4 1.2191473 1.4783896
0.91567338 2.5806782 0
0 2.9668105 0.96944851
2.7044058 0 0.61544871
0.64470512 1.7975954 0
2.6744349 0.14728637 2
5 1.9755727 0.35107338
2.451802 1.9725631 2
0 0.13991003 0.32565445
4.9560652 2.845401 0
0.93331176 3 0.58127272
0 0.70076048 1.3148677
2.2718906 1.1424104 2
4 1.4720944 1.5921862
2.3580451 2.2385707 0
0 0.52407974 1.4301428
1.1007985 1.728485 2
2.4914489 0.03928481 0
4.3035216 3 0.34881747
2.5189097 1.0552779 0
3.5373538 0.34369773 2
4 1.1096673 1.4100692
5 2.055799 1.6648906
0.55987865 1.4332076 2
4.3225155 1.5 0.83960575
5 2.0409801 1.0736995
2.941211 0.84519535 2
4.1911883 2.2949235 0
1.9251529 1.1949072 0
3.9945779 1.5995045 0
0.0044161119 0.46324617 0
3.8763223 0.21327333 0
2.2735684 0 1.7197129
1.7572107 0 1.0544704
5 1.7179625 0.78501087
4.882668 2.6996727 0
4.5595951 3 0.68612593
0 0.070477434 0.7870093
1.9915075 1.9725865 0
5 2.232343 0.61915171
3.2249248 2.6057994 0
2.5103874 3 1.5539416
2.1788435 3 0.72474712
0.98883826 0 1.8579224
3.9571087 2.881321 0
1.1325248 3 1.653595
0.61765808 0.11876506 0
1.236232 0.016016679 0
0 1.5159723 0.87718141
5 1.6703172 1.8925704
1.2745702 0 1.5153275
3.215508 2.8543961 0
4.4415126 2.4972734 2
1.9645599 0 0.54410303
3.7661262 1.2649446 2
5 2.3421915 1.3935471
1.2377039 0 1.81976
1.1014271 3 1.9860964
4.5304871 1.5 1.7171347
1.7483864 0 0.3318224
0.34364057 2.4741223 0
0.90811181 1.4725565 0
3.6830232 2.9102051 2
1.1224878 0.62404925 0
1.1090415 3 1.0931907
1.4390484 0 1.4066445
4 0.012255408 1.9695283
0.28186384 1.4526582 2
1.2153283 1.3766207 0
0 1.9215792 0.16358133
3.7646837 2.1799099 0
0 0.34791592 1.5924879
0 0.83046722 0.73100364
3.6237631 3 1.1700377
2.4819143 1.5917138 0
0.67139959 2.2339859 0
4 0.9431383 1.6129422
2.3305156 0.98909944 2
3.495717 2.2170651 0
0 1.4858891 0.56166852
3.2616084 1.3264717 2
0.99711657 2.3625798 2
0.41163903 2.8817806 2
5 1.5922414 1.5574822
0.13761285 0.46798688 2
1.183405 0 1.8027188
0.49211133 1.7834057 2
3.8929925 0 0.30244398
1.6091614 1.5423499 2
1.0494983 2.5222616 0
4.7365103 3 1.9239944
0 2.0561745 1.5567616
4.4080663 3 1.9204723
2.4875174 0 1.6274331
4.4321542 2.4880793 2
4 1.3639395 1.1899067
2.3260922 3 1.9198463
2.4648738 2.0382369 2
0 1.4391915 0.59220648
3.994828 3 0.56288737
0.52138019 0.95150149 0
2.5335371 0.024780167 2
4.8855128 2.9290931 0
1.147323 0.90241945 2
3.8902907 1.414681 0
3.0678256 0 0.50499129
3.1637952 1.8379449 0
1.659253 3 1.4581101
0.20204698 2.6167126 2
0 1.380428 1.3052857
0.74887484 2.619199 0
4.9001489 1.5 0.89038712
0 1.6694841 1.7709385
4 0.033899497 1.7233143
3.1353776 0.45528257 2
0 1.1153623 0.088760875
2.5361431 3 1.9650571
3.1209764 0.31570163 2
4 0.28220493 1.1013306
4.4610672 3 1.2645355
2.4064801 1.2850376 2
3.6310263 0.23556411 2
1.5343839 0 1.2366257
4.1954012 3 1.7964276
2.222389 1.7984197 2
2.5495691 0 0.39040512
2.2409391 1.8605883 2
4.7645841 2.6747632 2
3.3362455 1.6969639 0
3.4779272 1.2085717 0
5 2.0199146 0.78511387
2.2393315 0 1.8738649
4.8737936 2.9298327 2
3.292031 1.3418145 2
0.38652971 3 0.31985918
0 0.73696434 0.18558776
0.50045109 2.1827064 2
2.8678544 3 1.0645349
0 1.5057212 0.89957184
4.1588969 3 1.6251786
3.5413334 2.9917598 0
3.8560593 0 1.9301596
4.1047015 1.5 0.60723472
5 1.7816924 0.5146091
2.3246455 3 0.21447818
2.6420386 2.3104451 0
0 0.92961431 1.9900044
3.7333801 3 0.52368748
3.9723346 3 0.17665547
3.4080873 1.2525413 2
1.9456874 1.8262458 0
5 1.8569195 1.3272927
0.41912633 2.0063367 0
4 1.2218003 1.45565
5 1.78651 0.16196501
1.2675164 2.8782983 2
0 2.0780742 0.47976366
4 1.3782248 0.085478865
3.0957334 1.367215 0
3.0290673 3 1.2730048
5 2.3700645 1.4737264
0 2.8885422 0.6433199
2.492528 2.8966036 2
2.4558771 0.96902227 2
0.95354563 2.2177794 2
2.4644942 3 0.38670209
4.3123932 2.4851286 2
5 2.5260751 1.6255565
0.6658802 0.058585603 2
3.8885491 0.063998565 0
4 0.14630339 1.7650754
3.2095759 2.912293 0
0.80622238 1.0348642 2
2.7897742 3 0.72509229
2.1023216 2.5363052 0
0.79375327 2.9913821 2
4.6234107 1.5 0.6534369
3.2401495 1.0703608 2
2.3338223 0.79590046 2
2.0971127 1.4131199 0
3.378994 0.76886171 2
1.494046 0 0.41315687
0.12777115 0 1.9410372
2.7020502 0.80708867 0
1.3493043 2.8241348 0
1.003704 2.486496 0
1.6835779 1.568296 2
0 0.13656259 1.8716499
2.744729 2.5700314 0
1.365268 3 1.7148622
2.780467 1.2179018 2
3.517168 2.685384 2
2.9740398 0.46178117 0
0.90008599 0.58198392 2
2.3466022 1.1453687 2
0.57073301 3 0.55259269
