# .PCD v0.7 - Point Cloud Data file format
VERSION 0.7
FIELDS x y z
SIZE 4 4 4
TYPE F F F
COUNT 1 1 1
WIDTH 1509
HEIGHT 1
VIEWPOINT 0 0 0 1 0 0 0
POINTS 1509
DATA ascii
4.6146078 1.7120603 -0.010339671
0.12888564 1.5684667 1.9870821
2.241689 1.4045235 -0.0037521827
1.1003926 3.1279426 2.0081916
0.58096373 0.80075979 -0.011723753
2.5457847 2.5438912 -0.0021998025
-0.0044713989 2.4835153 1.0864854
3.9892569 0.76287329 0.59681284
4.0157952 0.78209382 1.016184
4.0032473 1.0379534 1.9245439
3.5263314 2.1679499 1.9912528
3.9831994 1.6193687 2.0108812
4.9003754 3.809675 0.14946719
1.6916506 2.7246187 -0.0030903586
4.3491569 3.7258537 1.111981
0.7542159 1.6460869 1.9926368
3.3999159 0.003334332 1.5324683
4.4583721 3.7302287 0.48432288
0.19598979 0.93316054 -0.013467105
0.0013473345 0.013393251 0.19267288
1.3457965 2.5075119 0.0076591214
0.75335759 2.5281217 -0.002524677
1.0816079 -0.023088979 1.7868479
2.9542634 3.2907047 0.014013398
0.049681246 0.010057526 1.921272
5.98207 3.9880521 0.76246077
2.3235562 -0.011601086 0.40851191
4.8560023 1.5107573 0.62988001
2.5376327 -0.01299242 1.7170914
3.2920911 2.9000239 2.000519
5.5672669 2.8858659 0.025928214
0.0014299749 1.1734381 1.9806768
0.0011352538 2.6648583 0.42383042
-0.005425829 0.30614254 1.0702131
2.2187412 3.3412938 0.76113629
4.8136086 3.8057065 1.7363641
5.2699518 2.3425612 0.0046789623
2.0857956 0.003374709 0.043935131
0.58874357 0.0072938954 0.59225237
2.0768185 0.68249381 2.002707
1.6605474 0.012509362 1.2878209
3.2902536 3.5513535 0.50698262
2.6532142 0.094861008 1.9919375
1.5404041 3.2676013 0.68173146
3.0666068 -0.0035458265 0.98119885
5.8088746 3.5137947 1.0043489
2.9785254 -0.0045629852 0.8628903
2.6851261 0.014061823 1.1079594
3.87591 0.28402543 -0.0060118008
5.8859739 3.9669125 1.9988728
3.0937119 3.4441035 2.009367
1.121461 1.9979357 1.9809844
0.0033512814 1.3677609 1.1545815
2.3649721 3.1844742 0.0013938493
4.5667477 1.5179002 0.54507667
3.9801648 0.38452968 0.29177257
1.4656748 0.28762186 0.64680958
3.1973791 0.59795803 1.41221
4.4354601 2.8680317 0.0061772666
-6.9306996e-05 2.5158119 1.1257854
4.579988 1.757259 2.0007074
0.074190333 -0.0022093349 0.68378174
3.5711739 -0.012601046 0.71326679
3.9079068 1.9551644 1.9992975
1.6926883 0.32466999 0.88879824
3.9061003 2.8649323 0.0036083569
3.6713657 2.5023468 -0.015495548
0.81087661 1.1401296 -0.0013661477
3.7715182 0.45683375 -0.0029721104
4.540226 3.029093 2.0147991
0.23390077 0.03857911 1.628675
-0.016960464 0.094671436 1.7591393
3.2858081 2.8450513 -0.015152973
3.2752521 3.5398078 1.4179758
3.9360547 3.6455605 0.14808513
4.4018245 1.4966905 0.091501191
2.3286231 0.17872785 2.0112348
3.4388151 3.3505559 2.0000405
2.7072558 0.50432521 -0.0063437517
4.0028343 0.039771151 1.151297
3.6041894 0.6685307 1.4146032
2.387737 2.0115061 1.9953519
1.591783 0.30192158 0.27944383
2.33357 1.5782368 1.9962027
-0.012295616 1.9642341 0.070303939
2.0792661 0.44270426 1.9979746
2.6238012 2.879091 -0.012416378
0.49621803 2.0597572 0.0065686842
4.0239668 1.5071341 1.4269893
2.0841122 0.0067863073 1.6158216
0.12480126 3.0048578 0.064252719
4.2709284 3.3807769 0.00041944577
3.0130885 3.0425177 1.9930069
1.1303792 2.3943577 -0.014031528
1.2176782 2.9077127 0.0042967503
4.5139709 3.7561939 0.46243444
5.8871055 3.6734056 1.8860688
5.5339403 2.8079569 1.5354054
0.46780777 0.002645313 0.14509861
4.0040388 0.46756634 1.3168234
4.0111084 1.494379 1.4658163
2.4362833 2.7054729 -0.0090545285
3.7236338 0.70227629 1.304461
2.4281037 3.3834703 2.0042055
2.2789931 2.5551031 0.014890213
2.2506649 1.0869204 0.0074371733
4.3552632 1.5090387 0.0038057843
3.6726339 3.6092355 1.3193165
5.7638888 3.4151928 1.2076226
4.7078948 2.3383722 1.9967299
1.0743356 3.1785111 0.59007746
5.1142306 1.7978579 1.7048063
0.001837389 2.7454858 0.71813357
5.0497074 3.8027961 1.984392
2.4393857 1.9403582 2.0001714
1.4654554 2.3708596 -0.0018515608
0.047859773 2.4090023 -0.018281206
0.64549482 3.0917459 1.498862
3.3024228 3.0613911 1.9968766
5.4609923 2.6688337 1.6927984
2.2446063 0.60770321 1.9987346
1.4120774 0.27972218 0.22998884
1.2588023 2.9009964 0.0016891268
4.0095105 0.29416329 1.6688274
0.38990214 2.8408859 0.0013158295
2.0817072 3.3289497 1.26824
0.98501366 -0.0044371653 0.14828236
-0.0032304586 2.2582777 1.548417
5.6342959 3.130281 1.2214012
1.1562524 2.1566215 -0.011283806
0.16778336 1.2821506 -0.01271072
3.5215909 -0.017211348 1.2970665
-0.011646778 1.7484244 1.8130789
2.9835749 3.0054131 0.010731667
4.0041618 1.2097801 1.2578168
5.158875 1.9574521 1.2077826
1.404846 3.2323906 1.6664999
3.5725718 1.4039973 1.9942122
3.8175201 2.6223323 2.0071685
1.6252729 1.311882 0.011463735
2.5349514 3.2160418 1.9979118
1.5418489 3.2568161 0.5308131
5.1804881 3.8476751 0.21155854
3.4921403 -0.0083218282 1.8188778
0.94494182 -0.008652688 1.9808592
2.0746274 2.2058735 0.0010955816
2.510551 2.2622681 1.995138
2.7817211 2.8976462 2.0021734
1.9532092 0.021993883 1.9941126
3.6891499 0.63292843 -0.0036262404
2.8744431 3.4148467 0.0056666266
5.3479967 3.899236 0.94564766
3.9990771 0.47168285 0.70177066
3.4068036 0.5988884 1.9992175
3.8727088 0.0097581884 0.30377764
5.1094818 1.766264 0.43821368
3.3140745 2.7361317 0.0070929909
5.0543194 3.4068689 2.0165215
4.2628794 3.4203963 1.9994601
0.66145641 1.1005856 -0.00057849626
1.530769 3.2455316 1.0993733
3.1003034 -0.01541934 1.1644139
0.75935864 -0.0039280765 0.29824206
3.2726476 3.545409 1.1899879
5.0555859 1.6199389 0.68262106
3.5475645 1.6504899 1.9987001
4.9296851 1.6139917 2.0137627
1.4780614 0.7052688 0.0023635852
0.57453555 2.7374556 -0.003345957
5.1555061 2.950012 1.99616
1.2055802 0.090984635 2.0149508
3.8747098 1.6936444 1.985942
4.4281054 2.1901796 0.020583151
3.626204 1.1499557 -0.011684593
0.97576207 2.8000185 2.010344
0.3037599 -0.0094194906 1.1420794
2.0857427 1.2701603 -0.0010467207
1.5040275 0.25249818 1.6293145
3.9904165 0.84427643 1.55742
3.2524281 -0.018454116 0.028571721
1.0449793 2.7239377 -0.016662367
4.8320742 1.75036 0.001590326
5.9613323 3.9874582 1.2263461
0.11996806 0.022052778 0.78034353
2.7525322 2.4713216 2.0195625
3.3018558 0.61083686 0.82315266
3.9414711 0.72870708 1.1422231
5.7724967 3.4229057 1.7829838
0.03485835 1.549083 0.25446603
2.0602622 0.40487269 1.870091
0.0096743135 0.68089783 1.693403
3.7366095 0.70684922 1.9425548
2.5406938 -0.0034542137 0.55038494
2.3695302 3.3954484 1.424981
2.2439849 0.0010896495 0.47752893
5.9856915 3.9706826 1.5751814
1.9138128 2.4141343 -0.0067446167
2.2874002 3.125293 -0.016016053
0.0089255422 1.293179 1.453714
2.0685329 3.3471797 1.7659378
3.2747586 3.5623896 0.38699064
1.8227509 0.83692622 -0.009816776
2.2437479 3.1026011 0.0073769679
0.7248612 0.14527886 1.6516531
5.8827643 3.717145 1.0512284
2.7386842 1.00614 1.9911848
3.3974104 2.815033 -0.014145822
1.7919331 3.3146491 1.6937889
0.66964221 2.9983661 1.9863166
1.9425727 0.84184808 -0.010515447
0.87227732 0.16048206 1.3250977
0.077244811 0.0088663371 0.63507706
0.61002719 2.9113033 0.0077686934
-0.0066091069 2.1177688 0.41646045
2.8074968 3.093087 1.9970523
2.2495406 1.2284162 2.0132308
2.066932 1.1781261 0.020315772
0.41170889 1.5116018 0.0018079922
0.96123123 2.4459038 2.0113947
2.0055642 0.37668741 1.7741172
4.1874342 1.6143349 2.0044587
2.0466146 -0.011342029 0.26929522
4.6459084 3.7598865 0.18042611
2.4917574 0.50830114 -0.015021126
2.328907 1.3766904 2.0167418
0.0073777493 1.7311417 1.5877033
5.6534519 3.7800326 1.9888879
0.50243121 2.589395 1.9823922
5.3291845 2.3509021 1.4045024
2.4530177 2.5558 0.015405819
4.2064128 3.7045906 1.8184696
0.37168467 0.60400617 0.0098734479
5.0446119 1.6712558 1.5940082
4.8255424 1.5844529 0.0042288145
4.276896 1.5001659 1.9777009
1.8239845 1.5469439 1.9962193
1.8524408 -0.015214182 1.6510727
5.5079761 2.7653596 0.026542343
4.6681581 2.7612486 0.00016360884
2.6354055 0.50003767 1.5678034
4.0022955 0.083938405 0.75055754
0.31236985 1.0428225 1.9947219
2.2821598 2.8951635 1.9992779
5.0713792 1.6510123 0.27508107
1.3070158 2.7935174 0.0026384327
5.3269477 3.15852 2.000921
3.3789232 1.5196645 -0.001070432
5.0517211 3.8429863 1.7878242
1.0944412 0.0041240333 0.44255599
2.9158227 1.9140267 2.002188
1.7493093 3.2854469 0.99884355
4.977097 1.5392849 -0.012325337
3.1311867 0.58106124 0.72330958
3.994421 0.13674127 1.8904955
5.1055098 1.7615559 0.64150608
4.4844766 3.7527764 0.25943443
1.0852331 2.3136225 -0.015151107
0.17190565 -0.022985641 0.39880162
0.3684999 2.2164583 0.0024767152
3.2788291 1.0835074 2.0029669
3.5573452 3.5867639 1.9640764
0.49346486 -0.013125675 1.3534632
5.2036066 2.0382476 0.465776
5.7423439 3.4086261 0.88592136
0.6245138 1.6597577 2.0041006
-0.0091424836 2.1957946 1.5909653
5.2068515 2.936424 2.0026641
-0.0025191088 1.6533614 1.4827366
3.109659 0.59673727 1.2724
3.7980945 0.00063755881 1.6015068
0.017294319 1.8176482 0.82960862
3.2556391 3.5444579 1.063359
3.0522799 3.3061254 -0.01194234
4.2583694 3.7069232 0.88422793
2.1055157 1.8501582 0.00043596057
5.3631482 3.3189268 -0.00081573066
5.0260959 1.9764398 -0.0070926086
2.9057827 -0.00042765192 1.7841589
1.0090708 2.2699461 1.9943986
0.87774915 2.7046225 1.9986293
4.2956815 3.7305427 1.0150195
0.89723235 1.1668483 2.0042589
0.0037817953 0.15143852 0.0038988893
3.7672551 1.1372561 0.0056529548
0.81915498 -0.0014156373 1.1307985
1.6411918 0.67770541 0.0015572724
-0.0047600614 0.1855562 1.8697145
1.8054749 2.9646928 1.9895587
4.0044608 1.4817159 0.45213282
1.0317355 0.90457565 1.9951055
-0.021010576 1.5920862 0.57400876
0.28266427 0.058132075 0.93766361
0.62763417 0.12893014 1.0486341
1.4169269 3.2244129 1.031882
3.8866494 -0.0081504472 0.27984372
4.11131 2.5539384 -0.00531046
4.6580949 1.9377998 0.0033564083
5.8408141 3.9751222 1.7946885
2.9687526 0.54178655 0.2234837
2.6016235 0.47696313 0.7471177
5.6151223 3.9242997 0.61323643
0.015942341 1.0647253 -0.0012533357
-0.014371704 2.0234759 0.98433596
2.1936257 1.8037694 0.010338712
3.0842743 2.3165812 0.026571432
1.593362 0.30202958 0.8125211
2.9146941 0.0092745824 0.57276887
5.2552524 2.1696508 1.3902808
4.1599283 3.0671837 2.0030758
4.0024824 0.68490052 0.48661906
1.3413486 2.3752871 1.9955156
2.3523548 0.43474206 1.9645232
0.68246746 2.4093227 0.0048341723
4.507484 2.5002613 1.9757929
2.9709198 2.1470437 2.0015476
4.5124583 1.6750079 -0.0022058133
0.0038898867 1.0242913 1.2829671
3.3751149 1.9067183 1.9974302
5.9148932 3.9752736 0.79275191
1.8067954 3.3107352 0.98361218
5.2927051 2.2434247 1.6482943
3.4148862 0.45320308 1.9864684
4.9377279 1.503208 1.8185011
3.4570477 3.5792522 0.41049108
1.7247015 0.31995994 0.10789873
0.0018760737 0.58048731 1.3495635
5.2848644 3.5278187 -0.018297164
0.74670208 -0.0067989482 1.2774346
0.54009974 0.25364381 0.0023922522
3.9933834 1.4909745 0.44607353
3.4808748 3.5925219 1.4436586
2.8809552 0.84550089 -0.012289115
2.5301967 0.16232182 0.0019190859
5.1265345 1.8210613 0.50548494
0.38076919 3.0668306 1.4694608
2.9685588 0.53897166 1.2135952
3.202291 1.342263 0.0059649204
4.6553888 1.721949 1.9836885
2.5337629 2.6716678 0.0025655807
0.0027482188 2.0187445 1.1664222
-0.008309897 0.35359326 1.6724343
2.4188859 2.2519636 0.00068286626
1.4252169 3.2334416 0.67871714
2.3542938 0.71626896 0.0047123758
5.8383923 3.8759921 -0.013499942
2.2811005 0.055191174 -0.0038346713
5.4275875 3.9120216 0.31179741
3.9950302 0.91483593 1.0124532
0.076995127 0.0050033904 0.62864524
5.2698541 2.1869628 1.7858832
0.76372367 3.1262882 1.2135334
3.1947484 0.015920894 1.7945461
4.0111313 0.6154213 1.9777321
3.6737604 -0.0044153393 1.807032
2.6677051 3.0962799 2.0002115
1.3147383 0.23012935 0.33414763
3.7276504 0.35132489 -0.002919971
1.3752412 3.216125 1.7196352
0.0056042681 0.67187637 0.55566341
1.7411785 1.8172512 1.9885951
3.7593336 3.5594082 2.0066538
4.6600628 3.7728488 0.063866444
1.9365212 0.35168564 0.13890789
2.8907309 0.1561207 -0.00042693573
1.0256833 3.1676917 1.2843298
1.1852474 3.1727397 0.41838276
2.4406178 0.40923011 -0.00081089092
2.9245484 2.9449961 0.006812498
0.28805885 0.04813078 0.950535
0.018002277 0.48790538 0.015878109
5.1745391 1.9388818 0.83962476
5.6359649 3.936367 1.9937438
2.029258 0.35894209 2.0024145
5.8545184 3.9940658 1.0463679
3.9878056 0.22678387 1.898944
4.1042747 2.8044157 2.0046775
3.0028961 0.0039831987 0.011927146
5.2951102 2.1567416 1.4365515
2.4322219 -0.00069725449 0.43054518
1.6624513 2.8237114 -0.0055521377
4.9303184 3.8230388 1.1271173
1.6794269 3.2837653 1.1190701
1.7673013 0.3418698 1.9505007
3.3561487 3.5521944 1.5810436
0.97653759 2.9011166 0.013468774
5.8492651 3.6223404 1.6145509
4.0044255 0.17108099 0.080563657
0.37982854 0.0042819716 1.27254
4.4672031 1.500133 0.68773276
5.8080192 3.5427737 1.0869281
1.8823993 1.4500066 2.0072505
3.986629 0.94727504 1.85119
4.8128304 1.5209061 1.780804
2.4884665 2.5473359 2.0100965
3.4887547 2.22805 -0.0055218115
0.79632145 2.8737781 2.0059924
1.0586505 3.1648498 1.9286401
4.5738306 1.5090024 1.8223161
0.069134809 3.0165563 0.83847219
4.565496 1.9723306 2.0085046
0.61708397 0.1069332 1.1639142
1.7848278 0.11382213 0.00082630018
4.4497814 3.7284122 0.82310086
5.0500607 1.8678873 1.9995965
3.2104661 2.6295786 1.9893118
2.5328929 3.0641527 1.9966588
1.7320117 3.2709632 1.6012912
5.0111332 2.8333325 0.008071186
1.798058 3.2974029 0.38461247
2.1030719 0.39729977 1.875106
2.1162858 2.5155029 0.004380309
2.5106192 3.4237382 0.0092232488
3.9871535 1.3098254 0.36335343
0.63241857 -0.0011711587 1.2662959
0.83827209 2.713521 1.9950141
0.4599658 3.0806251 0.95106393
1.9241048 2.9009697 2.009599
0.71150947 2.7131186 0.0038765916
0.05999399 1.1026151 -0.016704859
3.4328992 3.4339213 -0.016438687
3.6393263 1.4482224 -0.0083489669
1.110036 0.21434239 1.5792602
4.0062318 0.77253067 1.9772696
2.0589528 0.38661459 1.61885
0.20723058 2.71505 1.992563
1.1734129 3.211019 1.9428604
1.4568943 1.8006618 -0.0017253782
0.77914196 3.0910387 1.9923649
5.1764603 2.3429806 1.979435
0.93056703 2.1284294 1.9893231
3.8717752 2.2026274 1.9958218
-0.004561902 0.24236386 0.36432567
2.3399582 3.3897052 1.3386183
0.052040029 3.0122008 0.526577
2.1927667 2.3330996 -0.00024443504
3.2843668 3.561094 1.3671873
3.6246247 0.67346966 0.64908415
2.9226177 2.9649568 2.0046475
2.5405231 0.48262471 0.32522571
2.1633451 1.4978091 0.010184782
0.67713571 2.8378282 0.007215342
0.93292165 1.6901811 2.0047569
2.4724886 0.0039928746 0.89887291
2.2031004 0.41350698 1.3668913
1.4373658 1.5659229 1.99756
0.14580083 0.019651482 0.77436775
4.032001 1.5082585 1.2196611
5.6654353 3.9502001 0.67741883
0.39995208 0.012503327 0.1545123
-0.0062914495 1.115454 2.0105984
1.1987078 0.23959601 0.0097677493
3.6181912 0.41647044 2.0053687
5.4181123 3.8967404 0.4267911
5.1995997 1.9603244 0.9923085
2.2314451 3.2268622 -0.005074752
4.6954756 2.5168602 -0.0029103416
1.7604674 1.0757126 2.0002863
0.5379858 1.7214172 2.0137954
5.0126381 2.4616396 -0.0044827424
4.6785321 3.7751293 0.5214867
1.6558744 3.2689617 0.922683
2.1484277 0.41765448 2.0066023
3.9904897 0.80039936 0.9991675
5.5859327 3.4938047 2.007154
2.3331921 3.3929117 1.5170466
3.9439313 1.1917192 -0.0039144526
0.016973106 2.7309654 1.1500878
5.0051818 2.0266843 1.9812282
1.2932781 1.2209342 0.02397063
5.6572299 3.1921287 1.9492838
5.0348096 1.6115611 0.1528683
2.3628421 3.414505 0.70203555
4.1561909 3.6867929 1.3737068
3.7363391 0.6859138 0.10391619
0.5873242 3.0923378 1.6118165
3.679019 0.27101946 1.9988436
1.3846916 1.3637434 1.9955683
3.6747093 1.7801673 -0.0076724938
5.3555274 2.3565681 1.8807902
2.0617027 -0.0028485903 0.35112956
1.4867799 2.6396708 1.9759225
4.4680467 3.7297127 1.0170758
4.1618414 1.4979 0.52528149
0.65765941 0.0022313402 1.9889127
1.6223109 0.0025625073 0.46632448
3.8245599 1.6002856 -0.0048316997
1.7871783 1.5526034 -0.013150495
2.9750733 1.1201088 1.9873435
0.5817948 3.05796 1.9954094
4.8429003 3.7961864 0.45005167
2.3484216 3.3863871 1.7123944
0.13491829 0.45035228 2.0027752
4.7629395 1.5007902 1.6207912
3.5722842 3.4322879 1.9923548
0.40747938 -0.022556365 1.9566814
0.24222328 3.0429215 1.6267785
2.907861 1.5336485 0.0016689439
0.42652944 0.13956679 2.0169179
1.2398808 2.7071598 -0.0096035441
3.3457115 3.5700359 1.8031503
4.2463388 2.7619085 2.0157857
-0.0054550483 2.8994894 0.82890767
2.4737594 1.4181496 0.0040962375
5.9226451 3.7653072 0.96306235
0.0031727727 2.6184301 0.82903171
3.9142001 0.00021879715 1.2298495
1.6420381 0.30141252 0.56983262
0.65914458 0.010047665 1.9015585
3.9953215 0.38588554 1.8785883
4.6447086 3.7888703 1.3897407
5.9104643 3.816607 0.3038559
1.2312634 1.6151175 -0.0153336
3.9901497 0.55826122 0.92321181
5.3781233 2.9435086 1.9938242
2.608866 0.48049006 0.89358324
1.5970217 1.8096942 0.0061870432
-0.0033983474 2.7911804 0.35274166
1.612659 0.30388743 1.000948
5.1698003 1.944586 1.804991
3.6805243 2.1736629 1.9930004
4.0503483 1.5073675 1.6015151
2.8725543 0.5387094 1.9435033
1.6086402 0.0010017535 1.9955448
0.26237696 -0.020005664 1.8222505
0.96129006 3.154808 1.2053657
3.5439031 3.2488017 -0.011327356
2.4744136 2.024627 1.9848027
5.6451492 3.1339424 0.16295722
1.8622832 0.092806041 1.9851593
4.9420485 3.5177398 1.9951057
3.9864123 3.1722081 1.9964724
3.8595874 0.45972109 -0.0061359531
1.7564853 0.86771691 1.9947404
2.0685382 0.0049014324 0.97482377
5.8529749 3.6523218 0.18684657
3.9841287 0.6795612 0.37658823
4.0097032 2.4455261 1.9994249
4.3268218 1.8033842 -0.015706658
5.7968464 3.4719758 0.23011018
5.3929343 2.4860811 1.1100633
1.877377 3.3171947 0.63632172
1.1423174 0.0014812771 0.90475011
2.5018382 3.410816 1.162643
0.72105008 0.0068772226 0.0020057373
2.3866653 2.8865089 -0.012333667
0.85721666 1.0607992 0.0095320493
3.5230923 1.1513721 -0.0008943642
2.4475095 -0.020841708 1.3935535
3.0240231 1.4396123 2.0073304
1.2424777 0.23140599 0.36461085
4.706018 2.7204797 1.9810497
2.03947 3.2516513 1.9996862
4.0033593 0.95408016 1.3973216
1.1716729 3.1584938 1.9858371
1.4838579 3.2522378 1.7747046
2.5442879 0.11987993 1.995432
1.9186295 -0.016804988 0.62883109
1.0422485 1.3135537 0.0060825963
5.5711865 2.9340861 0.47614795
1.2406034 1.8478658 0.0050143581
3.8110573 1.9510131 1.9962324
0.11706459 3.0164945 0.28627643
-0.0055574561 2.123385 1.1528373
2.76472 0.8655355 1.9883472
3.9755564 3.6555736 1.1112705
1.9059974 0.34341782 0.5314756
2.4055965 2.4068692 -0.010994768
2.9288893 0.5493654 1.9229019
0.0024507346 0.59317476 1.6064252
0.40533975 -0.0007635699 1.7027206
3.5474751 3.5886254 1.2281694
0.0060570468 1.4087949 1.8581749
4.0214171 0.1097194 1.5138094
2.0185628 1.6816535 2.0042784
1.5102091 2.5355904 -0.012382119
1.9006517 0.0042964364 0.062623024
2.7796772 0.52003491 1.1315731
4.1701899 1.8199567 1.9990733
4.0877595 1.4956609 0.070084371
4.4107075 1.5049874 0.73673534
3.1427045 1.1512446 0.007470828
3.7248628 0.69187248 0.13108997
3.7472239 1.9643369 -0.0056749927
2.5350468 3.4449308 1.6308054
5.6647568 3.1687346 0.83863097
4.1532035 2.7599022 1.9973692
5.3264985 2.3472595 0.75927526
1.2681991 0.24543592 0.34502676
0.72560126 3.1274986 1.036099
3.1107776 1.0165374 1.9937086
0.010149663 1.3999583 0.24559028
1.1475053 3.2149086 1.5065907
1.4572306 1.3389587 2.0018849
3.7062867 2.2202606 -0.0044763754
-0.0058728037 0.50057375 1.9193987
3.2668839 -0.0046706051 0.28056487
5.3156266 2.2847669 1.5366023
1.7127301 2.6419408 1.9983037
5.7161436 3.2349329 1.7288158
0.064056233 3.0043106 1.2912992
4.0056305 0.83527982 0.73137265
0.09810023 2.7214136 0.0082577346
0.95627666 2.4335234 0.015689807
5.02913 3.8257961 0.4568201
4.7102237 1.505258 0.90282756
-0.0066608582 2.0130196 0.28443393
3.986129 1.0203198 1.6785613
0.010295298 2.6420641 1.6641492
3.9502671 3.6591303 0.45714
1.3801609 0.26365748 0.35363495
0.51221901 0.095118195 0.14661509
3.0578072 0.26878294 -3.5989899e-05
5.7629814 3.3667684 1.1190101
1.8756266 -0.0073995912 1.8391505
0.98505813 1.0888017 -0.0050958735
0.0035977671 0.46484417 0.43917751
0.25594783 1.3447297 2.0083199
5.8100309 3.9172583 -0.0077445661
2.557354 0.010536002 1.6706113
2.081913 3.3557365 0.15556325
5.0936847 1.7435697 0.82121229
2.3086054 0.24828863 0.0075289118
0.71183378 2.2007053 2.0012555
2.1527579 0.40676934 0.60332501
3.6187918 3.5981362 0.96396923
2.1568453 1.6346047 -0.007546986
5.2721071 3.8878715 0.51203197
4.0398331 3.6932907 0.1348912
5.9231548 3.8493121 0.94724458
4.1938653 1.5639179 -0.0087658521
-0.00058737694 0.2526308 1.4250772
1.7172413 1.1135058 0.0015171662
4.2614398 2.4956379 2.0010998
3.3042412 0.62305021 1.30874
2.2907021 0.43644065 0.31196144
3.7778716 -0.0014980217 1.784415
4.238853 2.7598116 1.9941268
5.6302328 3.0949507 0.84476209
1.9859828 1.2591504 2.0068743
0.018186428 0.71128249 1.3762689
3.2722991 3.2315943 1.9956172
4.0004182 1.3628128 1.4301628
1.3368646 0.25446048 0.93497103
0.49607933 -0.0074297236 0.14686877
2.5961027 0.0074396152 1.40885
3.0812435 0.96440583 0.0017870273
0.7236526 0.13805595 1.21185
2.9668233 -0.017243994 0.97595692
1.3282613 2.9338839 0.0097082704
1.0669703 0.21369177 1.4617155
3.9912236 0.31401923 0.9668712
0.71424389 1.7668629 1.9973935
0.95509064 -0.0013143868 1.0100746
0.57599533 3.0990474 1.4337096
2.2420921 2.2216787 -0.021617444
5.0445108 1.6364413 0.042184096
4.8722339 1.4869728 0.59251338
2.9908228 2.7203097 -0.0098023312
0.80097103 0.85534447 -0.017415743
3.7270122 3.5390663 2.0290456
2.1267791 0.0073666228 0.57389235
3.366616 -0.0016785478 0.1757503
5.512526 3.9278951 1.383536
0.49194095 1.4268868 0.014557606
0.063145109 2.993408 1.0237275
2.1738396 3.358896 0.88046986
3.2499499 0.35762578 2.0095184
5.5096855 2.7346768 1.3482069
1.2746367 0.95742369 2.0067546
3.9828813 0.29617095 0.63337469
2.0876634 3.3602958 1.7758441
-0.021705905 0.76437116 1.3877245
5.9308362 3.8198407 1.3661467
0.49328673 1.2732556 -0.016274774
3.8050981 -0.017592184 0.029779233
1.0232501 -0.0077935243 0.37779605
0.036970146 3.0067611 1.8201489
0.0089021623 1.4982667 1.8429883
2.6956637 2.6115952 2.0188763
1.7580333 3.2841349 0.947074
1.0232165 0.18960421 1.2151756
3.3481393 0.90447301 0.014470394
0.46962574 2.4118261 0.017495368
3.4120941 2.9739413 -0.0055250963
0.35122928 1.3547852 2.0049689
5.58428 2.9288087 1.3404516
1.1732447 3.1135259 2.0059929
3.6330674 0.7104947 0.95422196
2.4169583 -0.0015207792 1.3704352
1.6696458 0.72029805 -0.0043208003
3.1533966 2.3495562 -0.00815106
0.27537271 0.054661158 0.33382571
1.4003695 0.2758359 0.73735541
1.6818181 -0.0039567705 1.541279
3.294487 1.9376351 2.0020568
0.87851351 1.5720304 1.993963
3.5031581 1.7323569 1.9952171
0.37560102 -0.0051004402 1.38664
2.4311185 1.5568384 0.0036640996
5.6321244 3.1029038 1.6699525
5.0010972 1.5187938 0.3592957
4.6494398 2.5820079 -0.007988859
0.013354037 1.686195 1.5558298
2.4126968 0.44294348 1.6549544
3.8962052 0.89581615 0.0020896231
2.0455768 2.3895452 1.9769049
3.8246276 0.71855396 1.2642597
2.8188593 3.1793976 2.0077577
3.0842133 0.90460902 1.996471
1.3752475 0.67054629 2.0112324
3.8846722 3.5713012 0.012249017
3.8547807 0.72979754 0.52179813
5.5110769 2.9082651 0.00051293575
4.2248001 3.6983798 1.4371424
3.602113 3.2021811 2.0041354
-0.0015847604 2.1681874 1.3370153
3.403537 3.566968 0.67775768
5.438602 2.5517371 0.99150401
0.15369403 3.0414572 1.3974757
3.089422 3.5181885 1.7216158
3.9931808 1.2846396 1.7045188
1.1119311 2.9735658 2.0026295
4.4198985 3.1801338 2.017051
2.6991692 3.4487202 1.486113
0.99332118 0.51879895 2.0131922
3.5830798 3.5988684 1.5612134
5.0932527 3.662735 1.995772
0.24841823 0.076797374 1.9896955
2.9507015 1.6420227 2.0038154
2.6422329 -0.0077174371 1.4829792
4.1642089 2.252836 -0.0044875946
0.34621924 0.59240514 1.984048
2.5716176 0.45479125 -0.0053960895
3.9953334 0.85677373 1.2179064
2.2233109 -0.0050725364 0.62366772
4.5284796 3.6546116 1.9883418
1.6334387 0.31520358 0.21375541
1.7680515 0.31870696 0.23342188
1.965281 -0.0039004791 0.51806551
3.9962196 0.55286068 0.15815316
0.83679402 0.025373748 0.0016872134
2.1706536 0.52266419 1.991292
0.61196071 0.11920703 0.2712315
2.0946736 1.5669556 0.014847908
0.72075754 0.77448469 -0.0087714167
3.7702432 3.4716108 0.010601585
2.5006287 2.6575587 1.9972661
3.9760075 2.0153012 8.2692874e-05
2.4677615 0.48303154 0.096841179
3.5574031 0.0013292492 1.5835981
2.8468211 0.98549289 1.9909954
3.3429644 3.5624306 0.77875811
3.741688 0.26044136 2.0052474
-0.011027317 1.744308 1.3347034
1.7188649 3.2898204 0.77326649
4.5247111 1.5064218 1.6245108
1.9114273 1.1304363 1.9856665
0.010622698 0.010181974 1.9644524
2.4239502 0.0058618905 0.32163864
2.5340157 0.0043593128 1.8066142
2.1927564 0.011756568 0.0027331486
2.5108414 2.3254907 -0.0075511755
2.1451576 0.40214294 -0.01521848
0.026855437 0.012008226 1.4380927
1.2243404 0.47849652 -0.017640471
0.61226761 2.8490047 -0.0043036076
5.541141 2.8835065 1.5265646
0.32935396 1.1277138 2.0159299
1.4800279 -0.0047826157 1.5608451
5.7155828 3.2674978 1.7278883
1.5994749 0.31080002 0.99085379
3.1395826 0.62336618 1.9999025
1.5464408 0.017924087 1.4360805
4.2796936 2.9756444 1.9986593
4.3799338 3.713064 1.993251
2.217057 3.3533609 0.67775774
0.026159225 0.70460486 0.27838892
0.052971866 0.53763509 -0.015744774
0.5202927 1.83623 -0.019692104
2.6515546 1.9864931 2.0104492
2.9737959 3.497508 0.67025357
4.5171595 1.5067866 0.5040769
2.2989776 1.6433473 2.0029802
4.4376402 3.4497547 2.0050147
0.6697219 0.49450979 2.0001612
0.17901205 3.0238965 0.98846465
4.0000787 0.73335797 1.2641289
3.6040599 0.6757043 0.52624178
0.0049103731 2.7108054 0.19408102
0.5033735 0.00027109231 0.96547937
3.2478371 1.6052128 -0.0057169972
-0.023875473 0.9489513 1.6959242
4.2438011 2.1999636 2.0071507
1.6889721 2.1507504 1.9990845
1.1181743 0.21320499 0.94998395
4.3519869 2.2795849 0.0022849366
3.0153618 1.0388565 1.9972768
3.3440895 2.5753343 1.97229
0.26361945 3.0403173 1.8678045
2.7361088 0.72946584 -0.0042479974
5.3693156 2.4468629 0.29499018
5.0022459 1.5148816 0.44260389
5.9192781 3.9921377 1.0837499
1.5942608 0.30229706 1.7014976
3.9519663 0.10364599 1.9975146
3.9844899 0.28839949 0.9327848
2.6062438 -0.017559107 0.075646356
5.0132256 2.6538026 2.0175576
0.2390926 -0.010167037 1.3027523
2.6494417 3.4465826 1.1404656
3.9324634 3.1831038 2.0190654
1.8691729 0.33995748 0.92592764
3.7764862 1.9466654 0.022331741
2.6284688 0.10690504 0.0069016539
3.145874 3.5271027 0.25275701
0.14246349 2.4377694 1.9899822
5.2620893 3.6383567 2.0034614
0.40086395 1.8392129 2.0049779
5.6143765 3.0500555 0.90329164
0.0090998746 1.1395541 0.19898649
0.75703347 0.14077602 0.01410538
2.41833 3.4077663 1.8223703
5.6137352 3.9257257 0.12777595
1.2757643 3.1980779 1.8235445
1.943235 3.3081682 1.2843765
4.3969755 3.6688778 0.01235545
1.8428366 1.8090369 1.9924654
0.43814814 1.4767542 2.0117695
5.02562 1.5514051 0.37482071
0.30537346 2.050045 -0.0010321678
1.0219418 0.30950248 -0.0016501873
2.3229768 0.44572598 0.84022284
4.0279903 3.6770294 0.79038185
0.66892153 3.0924056 1.0992804
-0.016895194 0.50353462 1.2817999
5.615593 3.0603309 1.3866124
0.99959016 0.0038768025 1.1643969
5.8641348 3.6654143 0.77187949
0.46255007 0.8583374 1.9936734
3.3755312 0.0040328898 0.36448273
2.9389455 3.4985867 1.1102568
3.3084106 0.0039748396 0.20461652
1.5443939 3.0926602 0.010157275
0.89371204 1.6258218 2.0007391
0.30567643 2.2993929 -0.007464062
0.3375251 2.9601014 -0.01005578
4.5129104 1.4814146 0.46597469
3.9987161 0.6455946 0.93396813
3.7793167 0.56210697 2.0052385
3.4774175 0.64030081 0.67749351
1.0934707 0.49608889 1.9981006
3.6275854 0.0081992224 0.33549193
1.100656 0.012382456 0.60183519
0.66417068 2.5435331 -0.00097948941
1.9132792 0.76512909 2.0072
0.020799322 0.94409072 2.0028732
5.8120255 3.5355639 0.81953198
5.7025862 3.6306138 1.9982268
-0.014805046 2.9138033 1.9105556
4.1627016 3.6917071 0.58630031
2.9319718 2.7856526 1.9979317
2.2706835 2.6900313 -0.0073914663
3.9742267 0.64232242 0.87078124
1.308235 0.1413905 2.0006642
-0.0062888558 1.9449779 0.01474276
0.016392313 2.071821 0.24059315
2.6213126 2.8676941 1.9835516
1.5962515 0.29550344 1.431906
4.1517596 3.6866398 1.86422
3.1786661 1.6776179 -0.012535985
0.11203068 1.850637 1.999604
1.5621279 2.6715682 -0.0030508642
5.1300864 3.8400528 1.4811045
5.8714709 3.9614692 1.0645986
4.855453 3.8078313 1.3484799
2.6032479 3.422215 1.3388495
0.84640801 1.7455934 -0.0095192157
3.9967716 0.19818665 1.9893698
-0.0092481924 1.8085588 1.2317514
1.9962903 -0.005362079 1.355783
3.582572 1.1493437 2.0073314
1.3923424 0.246851 1.3390681
2.7467489 3.4534855 1.7006253
5.0868192 3.4826548 -0.021492608
0.36085179 -0.0060614343 1.8790032
3.566129 2.6320162 1.9982992
0.72092539 0.64757454 0.0032555247
0.0055595241 1.3342335 0.72573113
1.0236908 0.95118839 1.9956065
1.3974034 0.26456055 0.48217201
2.3657255 2.5005302 2.0025947
5.4390941 2.750288 -0.0089007951
4.9220047 3.7874522 0.17925413
0.67487973 0.12445263 0.012305131
4.0106497 0.71919852 1.8040998
3.9263513 0.0074283723 1.1925702
0.10878219 2.6396861 2.0123544
5.0709481 1.6385157 1.3492289
3.6586866 1.364314 0.0052322363
2.9200163 0.19517548 -0.00050941494
1.0648878 2.4608514 1.9959162
0.88674676 0.16766012 0.10015717
2.0958493 0.37159315 1.1398132
0.99637133 2.1402605 2.0038583
4.744863 3.7756109 1.0091633
5.9562492 3.9789135 0.33023381
0.56874758 0.11763307 0.11111002
5.5579247 3.9296484 1.8391883
4.0281048 1.4728961 0.11874595
3.1964872 -0.019517245 1.5720272
3.8657496 3.3670924 -0.029304121
-0.0069082789 2.7632122 0.24029176
3.994468 0.91777742 0.45775422
5.7112312 3.950105 0.98901355
0.092151001 0.02141056 0.95149684
2.7159734 3.458226 0.6231454
5.4061418 2.5493889 1.2502655
0.84512818 3.1527209 -0.00050802762
3.9914405 0.15031305 1.2102635
4.9019756 1.9496933 1.9913607
2.025599 0.033811513 0.0088280058
0.032256953 0.0091346158 0.70051408
2.7197659 -0.011140337 0.71512544
4.504014 1.4959999 1.0934523
-0.0077815307 0.0027169576 0.02445483
2.5503383 3.4359322 1.3373094
5.9622269 3.8870466 1.5078363
4.5198393 2.8694818 -0.0061824215
3.280453 3.1055174 -0.0010185025
5.7074623 3.2555838 1.5987729
3.3481984 0.61465418 1.6376846
3.0783968 1.3733077 2.0054023
2.2799037 3.3626151 1.6388566
1.1130061 0.4384543 1.9909004
4.0754671 3.4305754 0.0011983936
3.1422498 0.00074772642 1.8766636
1.3150712 1.8238674 1.998469
-0.0026192432 2.9183555 0.30389282
3.7006891 0.31878459 -0.0075630196
3.564064 1.6402452 -0.010170654
5.1573772 3.8508589 1.9627317
3.4466031 1.9181088 -0.0015917687
1.277272 0.69855142 2.0138652
5.0961766 3.8574564 0.93261403
0.67252433 3.1098528 1.102789
5.2821965 3.8468363 0.002301676
3.9951861 1.043171 1.5514578
0.048937041 2.5976055 2.0146592
3.0810094 -0.002491493 0.24807552
1.1319164 0.21333906 1.0085281
2.2472012 -0.0046098456 0.52284563
1.3263385 1.3986938 -0.02871309
3.4638393 3.5859292 0.60000873
5.0088048 3.8219321 0.42710498
4.8385386 1.7625819 0.011950376
2.8468657 -0.012121611 1.6281325
0.76099807 0.00911343 0.048800968
4.5614142 1.6642203 -0.016954826
3.3577471 0.0031352884 0.82993758
5.1114464 1.7377001 1.492303
4.9747906 2.7756538 1.9949089
4.6385446 3.3565483 1.9828984
3.9909551 0.27170339 1.5443555
0.9702732 2.2109818 0.014055064
5.8219438 3.5389228 0.36509216
2.983186 -0.0023511741 1.2557653
4.8119483 3.7983079 1.0998007
3.6426034 1.6180372 2.0101562
0.0013569158 2.1539884 0.97181684
3.9807112 1.4981043 1.2045249
1.123162 3.176017 1.9801943
5.8980803 3.7589421 1.8287094
3.6519449 0.67681825 0.51911193
3.1358213 0.4213365 -0.0082001602
1.7585124 0.3381038 1.3828273
2.4041228 0.57236868 0.017433407
4.8028169 1.5193013 1.9904075
0.020263668 1.9000609 1.2414818
2.0224521 1.5960277 0.0046523241
3.2256768 0.61989051 2.0081232
0.61783975 3.1003039 1.924105
0.074235111 -0.0069675008 0.76258075
2.8863702 3.4964752 1.0419778
4.7959414 1.4942422 0.86158699
4.0133924 1.1793529 1.9940126
1.8209922 3.3059795 1.5679244
3.3279545 3.558779 0.77831692
2.7274823 3.4713337 0.8811906
2.9209569 3.4767656 0.099137835
3.2041636 0.0016989012 0.41914111
1.3689692 0.0072035613 0.13020264
5.3887339 3.8831666 1.0918885
2.0815916 0.39099607 1.859019
3.857233 0.076513603 1.9813004
5.4906402 2.6733248 1.0506719
4.9327946 2.2122169 1.9882106
2.0554464 -0.00063230679 0.638291
0.78220433 0.30619001 1.999927
0.60593659 1.0440558 0.0063761724
2.316613 3.388576 0.77396083
2.348736 1.6351498 1.9932035
5.2792764 2.154825 1.125972
2.7524722 0.52313292 1.6701778
-0.0012816089 0.14361551 1.5392215
0.33676323 1.8973922 0.0034749538
-0.0095036635 2.2948537 1.9494249
3.292659 3.556881 1.285346
0.71248543 2.6169002 -0.011037719
0.60635418 -0.0078946277 0.23277642
5.4348001 3.9060507 0.94103295
3.2438819 0.001703016 0.75746757
0.94003165 2.5863371 1.9968897
0.13503492 3.0170131 0.93566614
2.6192887 0.0019906154 0.53139472
2.7458472 2.704237 1.9997531
5.3789387 3.1016343 0.012244056
4.3121238 1.4734889 0.95220286
3.2490394 0.42442214 -0.00054118375
2.1390378 3.3839388 1.55502
3.8779266 3.6558533 0.98070246
1.5858279 0.30460712 1.6350083
0.23012926 3.0321286 0.73921275
2.3821261 1.0912982 -0.0035796573
-0.00030342516 1.3976865 1.3093845
3.9990506 1.5053606 1.9185627
1.7743819 1.9388335 1.993355
1.4777075 3.2311482 1.2313027
0.23603348 0.82993436 1.999354
1.3850583 3.2425187 0.10825386
1.4974345 0.29155475 1.0342498
1.1411079 0.21961728 0.98478609
2.6022582 2.3055961 0.012398897
2.4106076 0.78809935 0.020225128
1.2625221 2.3277948 0.0040649013
1.9698259 0.0036799056 0.85384595
3.4193652 3.5599878 0.57806474
0.48077595 0.013474871 1.2869564
2.7486391 0.92498899 1.9981058
0.5105623 1.3312514 -0.024072094
5.9875612 4.0065479 0.15543142
0.67876035 0.12833993 1.5924306
1.9176917 1.2285326 0.0013385876
3.1789536 -0.015075709 1.8692038
0.40509972 0.010989455 0.15793578
2.7371285 3.4481683 0.83747029
5.8929162 3.7699883 1.6192961
0.026129331 0.35145694 0.86053431
0.5081315 3.073169 0.028230054
2.7726431 0.51240844 0.26481166
0.6611954 1.1870861 2.0042605
2.860688 3.3590853 -0.0042782212
2.588531 0.48817289 0.13764298
4.4812756 1.5756946 1.9827671
1.8862244 0.98834372 -0.0018447937
4.0571699 3.0458839 1.9889162
3.3388724 -0.0043390496 0.5438385
2.3200302 1.5727253 1.9990163
0.40184382 3.0657814 0.16596946
3.2969418 0.4423326 -0.012588525
0.37333784 0.0081339255 1.503175
3.1005483 2.3729975 2.0078647
-0.0065442803 2.5072272 0.22461231
5.3327298 2.3186696 0.55592138
1.1867836 0.2249942 1.6259552
1.5438727 0.31359217 0.52629614
2.391685 0.4313826 1.4339508
1.324793 2.3627045 2.0155177
2.6512985 0.26138037 0.0028545288
3.0773742 2.0503721 0.015578027
2.4536562 0.70285773 2.0023999
0.0097055277 1.0143563 0.99902564
3.1604686 1.7226201 -0.022341071
5.3204975 3.0922291 -0.003200474
3.1311653 3.513767 0.23789515
2.7949617 -0.006801459 0.70948797
2.1409335 0.65642679 -3.2379659e-05
0.60333157 1.9403203 2.0037329
3.4056149 3.5648432 1.4566547
4.0121875 1.2856873 0.80596018
2.1076844 1.6599333 1.9830494
2.9502163 1.697084 -0.0064487429
-0.0059773484 1.9480706 1.0613658
1.7555423 0.30772102 1.3125091
2.0979946 3.3285489 1.1634642
1.9637526 -0.002283931 1.8300327
0.016705446 2.5477939 1.6912817
3.2641034 -0.0084495675 0.31888577
0.0021710473 0.61943692 0.9042694
1.006864 2.1189528 2.0044172
2.548315 0.0018437029 0.21565971
2.8727288 3.4701924 1.1950604
2.0656319 2.6306131 0.03436929
1.4214702 2.1348748 2.0284631
0.66451997 3.1198273 0.092769705
3.9818041 1.8799955 1.9956926
5.4225597 2.5354209 0.44282043
2.6358633 1.7872128 -0.008479096
4.5793934 1.6901115 2.0053232
0.58283925 0.69493651 1.9935648
1.4946364 3.2465172 1.5254626
3.4651618 0.64261627 1.4630953
4.1323481 3.6925061 1.4203632
3.8792214 -0.0046507511 1.5008132
3.2534995 0.2624512 2.0018401
1.6194155 -0.0091871675 1.3658086
4.23348 3.7029626 1.5049654
2.8248997 1.0492381 2.014581
2.4249651 0.56406027 -0.0058598695
0.052725747 -0.0052544144 1.5521774
2.1936605 0.87740844 2.0022793
4.0169678 0.7597878 1.7284336
3.4242578 0.56668264 1.9963709
0.21834035 3.0330539 1.5435126
3.8898456 3.6033378 -0.014132435
3.9967113 1.2521207 1.832872
4.3673706 3.7281408 1.7200402
1.6955667 2.2941732 1.9867502
0.0091015948 0.31738192 0.82765508
1.416827 -0.0066710212 1.987968
0.00074186613 1.6119874 1.6410086
3.8623686 0.74123323 0.59379935
2.3404577 2.6496105 2.0071955
1.2600572 1.0677409 1.9988614
3.66152 3.6170969 1.8205621
3.2159355 3.5175195 2.0166533
2.0974982 0.59388232 2.0024109
2.9115462 3.5033994 0.90200019
1.4749547 0.97858757 0.0055291541
0.62377191 0.7987175 1.9864303
3.4019623 0.001926951 1.1845661
1.0012641 0.19210002 -0.019898394
0.12921162 1.7531102 1.9904802
1.924903 1.0128616 0.012243156
0.81632358 0.017363848 1.4067036
2.4278853 3.418453 0.69163203
2.3596902 0.44790077 0.35028446
0.35347602 2.3506129 0.0012425043
4.1407194 1.4944639 1.1236514
4.5635672 1.5131502 1.0884111
3.1644106 0.12748456 1.9983789
5.0341997 1.5135149 0.56595409
5.0569453 2.1947114 0.0029463079
0.15601043 2.8401959 2.0068121
1.6621131 0.0059887418 0.78234428
0.59309947 -0.0035270646 0.56848902
5.0637088 1.645979 1.1190535
2.9442682 3.0812943 2.0027814
2.7071359 1.7619187 1.9863106
4.7235732 3.2685843 0.0032288078
4.2461939 2.7430263 1.9899964
4.0403161 3.6821504 0.55603963
0.60931247 2.1434193 0.0052811294
5.9337015 3.9620614 2.0064352
1.1521336 0.21710271 0.25373057
0.78146279 2.2617037 2.0002704
3.6108918 0.66344351 0.97293866
0.009553914 -0.013685786 1.4626991
3.1412423 3.5024595 1.4791145
3.7602723 3.1707573 1.9923586
0.003177166 1.238777 1.4838921
4.1930528 2.8620379 2.0006402
1.177469 0.20680428 0.92859715
2.3310459 1.8559569 -0.0051327995
1.6745738 2.4062469 0.030089052
2.4446459 3.4098299 1.9477408
5.6501751 3.1075954 0.083640695
2.6494513 0.11185529 1.9999926
1.722683 0.0013197524 0.43940508
2.0775516 3.1907077 -0.008031928
0.7227152 2.4830532 0.013979283
5.7545009 3.3690236 1.7540461
1.0123777 2.0225327 0.010133014
5.6068997 3.936877 0.24720599
4.7339163 1.9196399 -0.0096987197
3.7541001 3.6406958 1.5406212
2.9294431 0.5357191 1.7815182
0.83016139 0.0041952953 1.2411925
2.3540881 2.3448777 2.0043828
2.1016068 0.14817561 2.0173919
2.6719453 0.50493878 0.62078166
4.026608 3.6688402 1.8899102
2.3059702 2.7267926 2.0132177
5.7734466 3.7322125 2.0025165
0.36059976 0.0094809923 0.43365735
5.1800547 3.8681955 1.7566153
3.5654023 0.0047609191 1.2383518
5.6688581 3.1591344 0.98590505
5.2316241 2.0814536 1.3166794
2.0363226 2.6167078 -0.0051435432
3.0344605 0.84760517 0.014680738
2.4591391 2.4252212 0.0032095902
3.051286 0.5674271 1.4829143
0.6398192 2.5278289 0.0096948221
2.5663891 3.18135 -0.01732916
3.6617696 3.6237776 1.3130378
3.8887916 0.8015458 1.99473
-0.0098656639 1.0415417 1.4314224
3.6363907 0.36046627 1.9985486
1.3611085 2.75863 0.00042475574
4.5873117 1.5020726 1.8501951
1.6614418 1.4939138 0.0005514035
3.0165727 1.4703659 -0.00062807102
2.8433797 0.54378164 0.55373937
1.5475619 -0.010929558 0.02049179
1.9944144 0.37388963 0.21484362
1.0779948 3.0378139 1.990893
2.8059185 0.014663845 1.3081996
3.8062918 0.0042082155 1.747301
1.7742857 3.0461795 0.028267821
5.8480916 3.9858186 0.3087118
4.4120622 3.7391555 1.7245235
-0.012581572 2.0130074 0.52690864
2.2164671 3.0123687 -0.00030073238
1.3651137 2.1619639 2.0173383
5.4096947 2.7195845 -0.012641655
0.00020103969 1.300315 1.8372083
2.3172727 -0.0032033438 0.64557528
5.9970398 4.0090346 1.8657845
1.0608077 0.80223989 0.0053495443
4.2338347 1.5002105 1.8669829
1.85004 0.51990288 -0.0041383873
1.3168976 2.2954185 0.0091736717
5.2725425 2.181437 0.56499267
1.381224 2.410162 -0.0010321835
3.9918003 0.66358113 0.55564445
1.7148654 0.32378483 0.67849612
1.3247106 3.2344058 1.6010981
0.022495491 1.6522164 0.030610129
5.0222087 3.8508551 1.0870749
3.3064733 3.0986292 0.01244769
2.501307 0.0028622104 0.49234012
4.7555256 3.7753325 1.1892425
4.211597 1.5095179 0.75837988
0.51533264 0.86821312 1.9877642
2.6130986 0.0032482096 0.012907758
3.1520274 -0.00093366933 0.49732065
2.5227981 2.3964736 1.9861273
0.89424181 3.1243947 2.0036428
5.0393214 3.066323 2.0122852
4.6042862 1.5184857 0.70257026
3.7231126 0.69066477 1.6706905
5.4541798 3.9064581 0.71357763
3.9916673 0.22596501 0.8337965
2.5985532 1.0105374 -0.015974754
2.0260909 1.8980924 -0.0072448985
4.7946634 1.4899874 1.942318
4.8991661 1.5084102 0.52114153
3.4536259 3.5444317 2.0019095
3.9963722 0.50330508 1.2143993
1.0290933 2.1334803 2.0147121
4.9284091 1.5041388 0.21471031
4.5337114 3.7645776 0.45638904
3.9496312 3.6515343 0.012662732
0.99467295 3.1626391 0.63237005
5.8956046 3.7600346 1.4101135
2.5476346 -0.010852608 0.19034429
2.5373139 3.106838 1.9838521
2.5854535 3.3886905 1.9945846
3.688556 1.7487048 2.0086737
5.454936 2.6359117 1.2541163
3.3717046 2.3397875 -0.018336091
3.5275941 0.57876188 2.0099986
2.2516522 1.2863148 -0.004054185
0.27247646 3.0432057 0.93478078
2.3448176 0.23992695 -0.021657333
1.2020886 3.2193406 1.0761703
4.74475 2.9739039 -0.003533744
1.5411838 3.2514205 1.2922263
2.1457059 3.3560171 1.1328572
0.10271455 0.018298144 1.2756128
0.14478773 0.2564742 0.0059014922
3.7500467 0.71975929 1.3336433
4.353096 2.5242419 -0.0040231156
1.7701485 3.3114939 1.3593765
0.88378018 1.1940103 1.9798762
1.0868967 2.2394462 2.0088794
4.5389738 1.5059119 0.48717463
0.78149259 0.073014259 -0.014029569
3.9984062 0.46336994 1.9308015
4.3091297 1.8208902 -0.0067124069
1.7824761 3.3077035 1.2305369
2.2871814 0.270504 2.014713
1.4123862 2.6053677 0.0013175092
5.0515575 3.3629527 0.0067384886
2.988256 0.55893922 0.91364294
0.97052103 0.017121801 1.0306786
2.1180558 2.765708 0.0083059827
5.0548315 2.4210026 -0.0011389474
3.2418299 0.0071398038 0.0042420751
0.0034225273 1.2172972 0.94633389
-0.0058167377 2.8062575 0.99539077
4.0038753 3.6619954 1.1281649
1.7765089 1.1412783 -0.021759817
0.1845811 1.9208972 2.0036433
1.4150573 0.32453433 -0.020497806
-0.0081356149 1.3559778 1.303412
0.76685387 3.1351004 0.4201152
1.6413921 2.4913764 2.0080299
0.88852811 -0.0038933356 0.60744965
0.8119387 0.15121835 1.4578149
0.78939873 0.13999356 1.2584938
2.6178949 0.00056284427 0.89727265
1.3077761 -0.014413272 0.20944875
3.9459286 2.8878889 -0.003048114
3.6778626 2.2906165 1.994362
0.18508598 0.049294878 0.084259681
4.7697253 2.5967197 2.0076766
4.6018806 1.5565307 -0.023308184
5.0744801 3.8407993 0.99095029
5.2851963 2.1868606 0.69691777
1.9004506 3.1090469 1.9948941
3.3644569 2.9506249 -0.0040301345
5.7290721 3.3511689 0.0047227489
-0.0131043 0.6893841 0.078381076
3.5833464 0.01166564 0.79077536
3.1073122 3.3690965 2.0010841
0.1808774 0.042735063 0.43079707
0.81660509 0.00762509 1.0573931
3.472738 0.87509108 -0.0086266128
0.24329507 0.040777914 1.9423859
0.23010279 0.10094893 0.0047707232
0.00036837408 1.4604218 1.6482744
4.2494125 2.9108527 -0.015932653
4.0100741 3.1485612 2.0032406
4.9348812 3.8302486 1.0963389
4.8821201 3.595911 1.9944217
2.6789587 0.49662048 0.43649095
3.7677646 0.00034017809 0.70057011
0.24963351 0.67596906 0.0015814676
2.5444093 0.044961959 2.0016828
0.37111381 1.8974768 1.9890041
0.95938975 0.16097833 0.73348606
4.1813049 3.4292531 0.0017643023
3.2868025 0.59458089 1.8401272
1.2706559 0.5410949 -0.0057568145
2.5340912 2.0184593 1.9922558
0.16562645 0.017301094 0.75687039
2.4613416 1.0843842 1.9923079
3.7923081 3.6366491 0.49576512
3.3785853 3.5572736 0.2120872
5.2521544 2.1526601 0.26491514
2.6186688 3.4463954 1.7231398
3.9375136 3.4631045 2.0048809
2.6149323 1.3732567 0.0019678404
2.3336759 3.3929815 0.071774602
0.62594658 0.00011618698 1.7465388
0.14918184 3.0258524 0.68956816
3.0773911 2.3488936 1.9951301
3.7137694 0.13319677 2.0022912
3.7922478 2.9813495 2.0005744
2.5152135 2.2914293 1.9991634
0.20236355 1.1104943 2.0062807
5.841783 3.5422199 1.3634121
5.2929616 2.2048812 1.1745528
4.7559552 1.4961149 1.3674927
3.7956703 1.2801193 0.0021251813
0.17293416 0.27794239 0.016167
5.1295509 2.7176907 1.9992591
0.83359283 0.14701132 0.34634379
3.8776884 -0.0064319531 1.2766652
3.4584911 0.6638521 0.020732179
4.0200953 0.37385607 1.0738859
0.41179571 0.085623518 1.9057583
1.7567711 3.2833049 0.42215392
2.6917508 1.0807178 0.0083860913
4.4439011 3.7489877 1.1285355
1.5667207 0.71992135 -0.018605379
3.6163802 2.2288201 -0.0060750241
2.279773 -0.0031642949 0.57026762
0.0017144888 1.3812629 0.3036375
1.7521162 3.2998416 1.5055978
3.7721622 0.70628041 0.024165524
4.3579464 3.7084868 0.63879848
3.1727982 -0.014286284 1.4358308
2.7791038 0.50961918 0.98027796
1.8032409 2.5790133 0.0053751352
3.4531779 0.64415807 1.272347
3.1063948 3.5022566 1.6589949
5.2376547 3.2282341 1.9951522
0.0035423585 0.20401941 1.7963363
0.16040388 1.1224264 -0.0089476239
3.8115785 0.09769889 -0.00077945669
2.4629796 1.7931349 2.0012019
2.8374114 1.99696 1.9914536
1.6555839 2.7107415 0.020078914
2.4901707 1.2844954 2.0083258
1.6123259 0.28398147 0.61055958
2.8505144 0.53552967 1.450309
2.6866014 3.4431601 0.13397263
1.2818288 0.25028914 1.2305839
1.3431737 3.0290101 2.0041859
2.3982632 3.4234009 0.67587793
2.5470181 0.47647655 0.52388942
4.5393677 1.9684479 -0.017142538
1.9551187 0.014203943 0.66343141
3.1912756 3.5050218 -0.017435061
4.9845686 3.0483541 -0.0042115352
2.1376185 2.7873907 1.9903162
5.3928366 2.4760532 1.4019303
5.9221354 3.8034987 1.6855893
4.9714894 1.503309 0.54063404
2.7472386 0.50974381 0.19406551
1.3392531 2.3147233 0.017851168
1.0062426 0.1832945 0.6186251
2.2829845 1.2356356 -0.012462666
1.2475293 3.2066753 0.64139539
0.23842879 2.5145376 -0.011938109
1.832069 2.9700546 0.0079686763
1.4526068 3.2377014 1.0810373
5.2853036 2.5599937 0.00069757091
3.4805446 3.0052407 -0.0046093655
4.2122574 1.4985538 0.35959175
3.8228984 1.633294 1.990728
4.0030727 0.086608149 1.55604
2.1700475 1.2423372 2.0106673
0.29440162 3.0493908 1.1020795
1.190925 3.0672536 2.0025351
4.3824759 3.3966885 0.0011020656
1.0021083 0.19192111 0.8968026
4.7622676 1.4852676 0.88173568
0.1502244 3.000608 2.0032113
-0.009191364 1.978879 0.39445806
5.2993793 2.2563248 1.6879421
4.032701 1.5023069 0.38464081
3.4164155 1.6693827 2.0133307
4.7398314 2.5095713 1.9909886
4.0087714 3.6604109 1.7738554
0.014570318 2.4004889 1.1573362
0.99845952 0.2007276 0.46624932
5.3171487 2.6670198 0.0053939973
-0.005531393 0.18685326 1.5666083
4.3853598 1.5170649 1.1204487
0.5127871 -0.0075975861 1.5490795
1.0874767 3.1955535 1.1213665
0.78309101 3.1284864 0.19664425
5.4221497 2.5608881 1.8629234
4.6836395 3.1325197 2.0034792
4.8420801 1.9079394 -0.00055793155
0.17573087 2.7239692 0.0029709321
4.1680593 2.5997498 1.9994853
2.4044323 1.5626557 0.0013777415
-0.012875188 1.8435817 1.6790994
5.4149861 3.9178624 1.3295645
0.56626421 2.2566526 -0.0052632773
5.3456507 3.8863032 0.16932477
0.36141518 -0.0089373169 0.83935148
2.3648274 2.6171668 1.9890903
4.29601 2.1599092 -0.0019129205
3.3474753 2.3361912 1.9902074
0.0039324956 0.81729323 0.37035432
2.3966506 2.8742402 2.0052373
2.3090963 1.944854 -0.0098500699
4.5743055 3.7582595 1.613176
5.1978216 2.4539692 -3.6594083e-05
0.87633675 0.0072237519 0.29456866
3.0367322 0.40261874 1.9884968
2.9429481 1.309657 -0.0032173125
5.7141533 3.2613101 1.9451399
3.8909967 1.0262969 1.9907641
1.4546432 0.21220711 -0.0013949341
5.0665088 3.2130105 2.0025487
-0.018428151 2.9759414 0.60686064
0.97583824 2.8794916 2.0138981
1.070785 2.0159786 1.9853243
4.420629 1.802935 -0.0078275064
5.1588311 3.2441225 2.014703
5.922049 3.9865034 1.3373486
0.014333601 0.99347669 1.2572662
0.0080837477 0.16135237 0.22402312
2.9719489 2.9675467 0.0097454162
4.0064955 1.1980892 1.0555508
0.58801776 0.011017707 1.9861974
2.1202524 0.16261604 -0.0053271609
2.3881178 -0.0034221075 1.8512
0.86963117 1.9304804 2.0190959
-0.010407164 1.9785442 1.3028373
2.0095468 0.26946628 1.9862757
3.7151511 1.1154965 -1.420324e-05
0.0065894676 0.93874818 0.42740259
4.1779933 2.5172584 2.0062852
3.4348207 2.5436473 0.0072003081
1.2405552 0.25388089 1.8556299
2.5947406 -0.01143216 0.38004968
1.2513101 -0.0049038567 0.88065851
5.6421599 3.2800295 -0.01407843
3.3712828 -0.019591924 1.975396
1.6191101 0.31042907 0.88417536
1.3149618 3.2089601 0.68390638
4.6575637 3.0285408 0.020165466
5.5754972 3.9210932 0.72057837
0.52012455 0.0072953939 1.2965299
1.1298262 3.1872675 1.2844311
3.5232782 0.28420237 1.9843313
1.192046 1.3553838 0.0079227472
3.0028098 1.4782259 0.0017614118
1.2463143 -0.017742261 0.38505831
2.7579846 1.0438833 -0.020314746
5.8902049 3.9537301 0.005111889
5.7726455 3.453325 0.35549468
5.3410521 3.8930254 0.68856061
5.6593404 3.1200948 0.014411171
4.9455948 2.3076792 2.0275545
5.8559279 3.6225131 0.16943234
4.1814809 3.013639 2.0107329
1.1827512 0.23116191 1.4483254
4.9527397 1.5702144 -0.010614341
4.4387207 1.4898061 0.68550342
0.26325011 0.052275643 1.0140119
2.7561748 1.7975862 1.999377
