# .PCD v0.7 - Point Cloud Data file format
VERSION 0.7
FIELDS x y z
SIZE 4 4 4
TYPE F F F
COUNT 1 1 1
WIDTH 1506
HEIGHT 1
VIEWPOINT 0 0 0 1 0 0 0
POINTS 1506
DATA ascii
2.5303402 3.4267683 1.6965097
1.9281263 -0.005020936 1.1798365
0.64667058 3.1144402 0.56508541
2.695802 2.4348259 2.0083327
2.0040832 0.37456495 0.020083051
2.2353983 1.3690143 2.0042431
0.037192136 0.29724151 2.0025632
3.0798421 3.5185189 0.23507349
0.69709343 0.1249176 0.71596003
3.6953132 0.67829931 0.58621132
2.9205687 2.0492244 0.009616374
4.4383893 1.8628093 1.9956702
1.4768289 2.3710086 0.00016232971
5.3450265 2.3378217 1.6298
3.9659326 0.29159626 -0.0025017736
3.9028094 -0.0028124806 1.927129
3.4086561 0.0029525466 1.6150047
0.67941636 2.6465266 -0.01408514
2.4063621 0.45014492 0.032934584
1.344153 0.25134555 1.0934827
5.3841791 2.444669 1.620959
3.8883467 3.3752234 0.010195653
0.57112277 3.1073179 0.51561499
5.9362326 3.9783492 0.44206309
3.0191789 -0.0053939107 0.51412255
1.5162539 0.33106691 2.0132153
4.0498686 1.5830902 2.0002878
3.4633026 1.0622311 2.0125306
3.968833 3.6536882 0.86419398
1.6620532 3.2687688 1.8120044
1.4441499 0.0021561198 1.5614942
2.6316102 0.26123834 0.018987326
5.9368253 3.8217719 1.9618399
0.052150391 0.011351584 1.9064347
4.1647673 2.0995915 1.9922312
0.028901933 1.7188269 0.51443487
4.221911 3.2712274 2.0027909
2.4724867 2.829495 0.0088805174
3.4444697 0.65820438 1.7280371
1.8344095 2.0710678 -0.0041192928
1.6366185 3.0853839 2.0015736
2.3402588 3.3945904 0.080960825
2.2641444 0.43794379 0.94496524
0.98837471 0.0064397603 1.8127425
3.9964299 0.054513689 1.1899323
3.9898949 0.0043824394 1.1381848
5.8037868 3.4934549 0.44191706
3.8733075 0.72200304 0.036492929
5.5379395 2.8989227 1.0192895
1.639274 0.29898587 0.41468269
2.4804075 0.47055966 0.70008093
4.6772289 1.8779575 0.0036314994
3.6668494 -0.024752893 1.6028397
3.0268397 1.3672895 2.0021143
-0.0038807213 2.9357207 0.96737427
7.5557255e-05 2.054384 1.2015452
1.3305521 -0.0049602855 1.4781718
2.9205339 3.4873765 0.34755313
1.51465 0.0044745011 1.7903528
3.9945953 0.2086616 0.8374396
1.6098009 2.6474447 2.0007255
3.3947904 3.589772 1.8760054
0.1098492 0.0034143499 1.6899993
1.4340161 3.2398982 1.4262898
4.1125727 1.504457 1.8257662
3.1025524 0.58548576 0.74498159
0.87918299 2.5866702 -0.0077399365
4.6552615 1.5124857 1.988179
5.6614957 3.1890962 0.68024284
4.9331322 2.0912488 2.0132284
5.6802807 3.1718023 1.0810906
4.2400236 3.0422316 1.9775889
-0.021619821 0.29161334 1.4358284
2.6398063 0.4183754 2.0054851
1.2510077 3.0201066 1.966513
0.60834819 1.0020226 0.00056078442
1.1671906 -0.0035863786 0.87089461
0.6520642 0.44569662 2.0036976
5.3916221 2.4808238 1.9692073
3.3311918 2.8085361 -0.0021252392
0.55941254 2.7742298 1.9932233
0.11068749 2.1938641 2.004813
1.7153361 0.029980125 1.9905066
3.3100598 3.5370948 1.2201128
1.0373724 0.19266881 0.99997157
1.8987958 0.2237574 1.9939859
4.894877 1.4953502 0.89839482
3.9177766 0.91283035 -0.0055107474
5.5575171 3.9218371 0.82262331
1.5682063 2.1445429 0.0074503236
5.9983354 3.9860992 1.5918558
2.0122042 2.0982504 0.019250598
5.8617487 3.9832551 1.3421314
2.9698119 1.599111 2.0033164
0.23973034 -0.011522111 1.4491698
2.7232387 0.0030600736 1.5996603
3.3352947 3.5492301 0.71917909
2.2399108 -0.010091673 1.0133712
0.23382977 2.0752306 0.0032368076
1.4771261 0.25929317 1.0291532
2.5106771 2.0367818 2.0200346
4.9808974 1.9120479 2.002331
1.6747569 1.3483324 1.9999269
-0.0053871637 0.97497374 0.38968754
2.6939085 2.7018013 1.9958465
3.2145357 1.0243895 -0.017503193
5.5537262 2.8646822 1.1512905
-0.0013897097 1.2082714 1.831624
3.4840584 3.5960867 0.20548978
5.0572071 3.8506248 0.45194495
5.5535626 2.8550968 0.72069442
3.1544175 1.4841559 -0.0057401801
0.0045167739 0.7235834 1.1194683
4.2145314 3.6840994 1.8826082
2.2001677 1.8851415 1.9983358
5.7114363 3.3132527 0.47275522
0.85080564 0.73591053 -0.0012238047
4.3831372 2.2112219 0.0071426318
2.2222574 0.21561049 0.0039420035
3.8828173 2.4104588 -0.0096778246
5.322114 2.6495008 1.9783696
1.7494004 3.2934778 1.7163875
0.62820709 3.0975318 0.798069
1.8661104 0.35102963 1.9703892
3.9873114 0.097416513 0.28769824
3.4142647 0.23092946 0.020326542
4.8058362 3.7942159 1.8893707
0.27870154 2.999151 1.978472
5.5614614 2.9045088 0.57698995
4.4432311 2.5892491 -0.0065922663
0.45985314 1.8680376 1.9875361
4.568922 1.7700262 -0.0008080366
3.1227698 0.41955569 -0.0069653513
4.6028466 1.5057843 1.8328658
0.11166541 0.035347067 1.6659468
2.3859568 3.3695283 0.14793472
4.1342592 2.2095413 0.0030094723
3.353364 2.6229315 1.9940921
2.9348547 0.043253176 -0.0030422166
2.5966492 -0.006382898 0.18534049
0.14556254 0.015827993 0.68815202
0.99582744 3.1546614 1.9383065
4.986196 3.8217635 1.2279235
4.2375393 1.4924767 0.1192975
2.8533525 1.0158918 -0.016036961
4.3829851 1.5700976 1.9943168
0.27742359 2.1792901 -0.0074609201
0.6434629 0.11266182 1.9860938
3.2791965 0.98697269 2.0073962
4.0164776 0.24893169 0.25496563
0.46050158 3.0719676 1.7970538
1.7719885 0.0045708166 0.56336957
5.8869071 3.7179067 0.33029675
3.904465 0.73932993 0.83589798
3.0377374 3.4639804 2.0055041
1.206741 3.1894019 0.63226616
2.9206996 3.4814956 0.97722471
5.0053878 1.5297283 0.92406934
3.9913728 0.63863009 0.94038773
2.3127995 0.42521086 0.57666636
0.64058572 1.9355015 -0.010999753
1.440016 -0.012756935 0.49560857
0.79655296 0.71429807 2.0071156
3.5761936 -0.00019041276 1.0558244
2.2889433 3.390317 1.7746153
3.994796 0.025740491 1.4776011
2.1993194 2.7504008 -0.023344852
2.2732201 2.7613816 0.010924141
5.0545053 1.6227006 0.84504479
4.3662133 2.6235051 0.0059898426
4.0126576 1.1138039 0.26426768
1.3520436 0.4296447 0.016365314
3.9250059 3.0808487 0.013717836
5.4041791 3.400352 -0.010170195
3.0527744 3.4934084 2.001308
0.0016933266 1.9448054 0.96555817
2.958298 1.5434611 0.001683013
4.3860102 3.7227702 1.4447707
3.8222668 0.41635239 2.0100574
2.3890989 0.0049148304 0.47297886
1.4348671 0.80052388 -0.0054499623
1.0368224 0.21410084 0.66431338
0.3330842 0.25277114 2.0142438
3.8963568 3.6480367 1.0114565
1.759508 2.2760835 0.003551115
1.2629912 1.7662562 2.0004122
1.6721058 1.7065071 1.9977119
5.0823846 1.7074878 0.70475245
2.9350779 0.037830777 -0.0046449476
2.3059106 1.3564236 1.9937456
4.0117831 1.2445128 0.24283439
0.5077275 3.0798452 0.16906323
0.25673619 2.6003726 2.005717
4.6189327 3.6813343 1.9966438
1.0335475 1.1476157 2.0063405
0.59182173 0.10095514 1.8198588
1.6370116 3.2507193 0.074526221
4.0023851 1.0138701 1.1691817
2.2052772 0.42493838 0.73699981
1.5178583 0.26755679 0.71805638
1.7760787 1.2041448 1.9991635
2.6620393 0.50259876 0.31209734
0.4561581 0.82651848 1.995347
1.6719152 1.6387305 -0.0067178505
4.9723382 1.4835306 0.26612023
2.3864949 1.5053185 -0.0032030423
3.9882262 0.79446912 0.94407868
5.4312754 3.8378701 -0.0085791023
0.010906683 0.95089632 1.5255536
1.4762568 0.092078611 0.0092304582
0.00042342249 2.4656889 1.4896268
4.0647793 1.7935429 0.0077019688
4.0113759 0.3040331 1.7696354
4.0119452 0.56111705 0.72433478
-0.0022819175 0.72104722 1.8912289
0.8550477 0.11721662 1.9948214
0.48617527 0.077732429 1.6073275
0.044385348 2.4565048 2.0080121
4.6763024 1.5149864 1.4552751
2.9415565 0.0168842 1.9984251
5.5323801 3.9278893 1.2270058
4.0478444 2.8800197 0.0093096243
0.0040880973 2.1589997 1.4519123
5.6315794 3.0839863 1.6399826
3.2633872 3.5395548 1.6092055
1.2037604 0.22967041 1.9540125
5.0654669 1.6677531 0.14319049
1.8513945 3.2954402 0.78088498
1.9088595 0.35364184 1.2179489
0.02228586 0.81417084 1.6445452
0.72406566 0.93688887 0.012516095
0.74701315 0.020046432 1.8997768
2.5506015 3.4444258 1.3992125
1.2013801 3.1978683 0.80389851
1.8999922 0.45169052 -0.015966844
0.046938125 0.020704323 1.8187641
0.0012397903 0.75549251 1.3257637
2.110894 0.0053317836 0.91057432
5.724122 3.7384074 -0.0013106194
4.1380854 3.4094508 0.0020601721
0.66128266 0.1288204 -0.00011235346
1.1152081 -0.00042542594 0.87308592
0.51867127 2.062675 -0.013211979
1.0048318 1.2037024 1.9888169
0.75877607 -0.0035072824 0.56748462
1.4697763 1.558594 1.9870543
0.82695496 2.2749748 -0.011350201
4.711792 3.7946877 0.3842715
4.5728822 3.7470303 -0.0043452517
5.1052818 3.8458102 1.8172442
4.0052671 0.30602574 1.5286827
1.2196088 0.22768158 1.3682063
0.40827736 0.32268935 0.0016905083
5.0475669 2.5532811 1.9938234
2.4228568 2.6926775 -0.0037932717
1.2836882 -0.0035684749 1.6165082
1.4298271 0.24397847 0.077018656
5.765275 3.4520719 1.5491189
3.999928 0.83027995 0.38709232
4.0161004 0.095299594 1.2631217
3.0178332 3.5017312 1.0715568
5.3830843 2.4513116 0.076159336
1.4430473 -0.0064165662 1.3210801
1.051078 0.19459991 0.5533492
5.5142627 2.7846682 0.84473222
4.2085094 1.4916735 0.41018826
1.8834524 2.6848774 1.9939902
2.3153934 3.3884897 0.6625846
3.5553291 3.4482639 2.0037904
4.0076571 0.83108151 1.7529322
3.5466964 1.5989074 0.0020100025
4.9120698 3.1474285 0.010028938
3.2861362 0.60992891 0.8799873
0.85928315 0.15139264 1.9394331
3.021369 3.5235894 0.01824384
0.45817304 0.0066962768 0.90493029
1.5812839 0.6093179 1.9918715
3.2941296 0.87416661 2.0028017
2.9097953 1.7293607 -0.0043069264
0.018063836 0.033718772 -0.011388212
3.9847631 0.027530471 0.20947722
0.0058180639 0.4176434 1.986469
5.0100951 3.8595586 1.5856202
2.1786137 3.3822622 0.5987311
1.5398867 3.2517323 0.53329039
4.5519805 1.8885263 1.9881792
2.2863805 0.42109299 0.70175225
2.0093479 2.4470272 0.019581446
2.3653371 0.020426523 1.2207621
5.2670417 2.1535134 0.10776351
4.1987457 3.3131001 -0.010849969
4.0173349 1.5061258 1.586128
5.08181 3.0179887 0.0020645179
1.4584063 3.2466555 1.5722566
0.005346878 1.9854695 1.1975188
0.57053536 0.19067793 -0.0082499962
0.12700893 1.5136975 0.0031462908
1.6893624 -0.032091547 0.27901262
5.4423923 3.7262373 -0.0010927867
2.5846274 3.4296272 0.98724365
2.0856123 3.3374484 1.199068
2.0682874 -0.02180122 0.21761824
0.58785957 3.0961363 1.5780079
3.4241352 0.65094751 0.30712137
2.1128757 0.002470549 1.2431111
2.1567082 1.387063 2.0042119
4.0058622 1.4088014 0.96945381
0.5995338 -0.0061851409 0.52534318
5.0776949 1.6743654 0.26006454
2.3772798 0.00039402975 1.4746295
5.1812549 3.7257931 -0.0091383243
2.9607825 -0.0036426394 0.12870476
2.0196664 3.3296034 1.3133601
5.8234634 3.5432954 1.3751497
0.00051630242 0.57317352 1.589463
5.8858886 3.7054677 1.6093811
1.6900957 2.8572779 -0.0014830675
3.5867863 2.5539486 1.9915496
1.9180933 0.36375093 0.95169282
3.1033759 -0.0066988207 0.14345981
2.0079248 0.63962722 2.0041575
2.6928484 -0.016154548 0.09972439
4.0157208 3.0157611 1.9963601
1.1936837 0.22367752 0.39860824
3.1761425 2.8038545 -0.0018013638
2.485956 0.012255987 0.37372229
1.9948735 2.5667014 1.9797196
2.9910316 1.3250469 1.9958645
5.0083842 1.5517094 0.053472139
4.1705246 2.7016277 1.9908727
3.5098944 3.2677712 2.0022936
1.4304444 0.011455724 0.11367269
5.4086995 2.518945 0.77585828
3.2558835 0.59496629 1.4953331
5.1292901 1.8756102 1.1256104
0.53058821 1.2779361 1.9901773
0.75417727 3.1437302 1.6188049
1.7806106 1.6415673 -0.0080754943
1.7456429 3.2923815 0.75146806
0.011458728 2.7079172 1.7492
2.6388571 2.5744474 0.0027201711
1.7881305 3.1755486 -0.0025423355
3.9934664 1.1698899 1.5972888
3.9131932 0.016638763 0.55366516
0.00030966778 2.323607 1.8134251
1.312461 2.1740367 1.9879314
1.0688157 3.0918608 1.9896604
0.23253578 0.72226375 1.9870821
5.1675382 1.9591656 1.2643259
5.2615776 2.2169473 0.71689004
2.9223852 2.8864713 -0.011723753
5.2506695 2.1633022 1.9134938
3.2877941 3.5424538 0.81898671
3.1613152 1.2416295 -0.0027208338
1.1901594 1.1905549 0.0089582093
0.0032473293 2.5241008 1.6289747
3.5203824 2.0463004 -0.0087471781
2.7471697 1.9571624 2.0108812
0.43353632 1.9844881 0.0050189481
5.0720987 1.6884297 0.12638
5.9178019 3.7831128 0.081773117
0.73372906 2.9611974 -0.0073631434
3.4562526 0.003334332 1.4813509
4.8909879 3.8023314 1.743233
1.7858478 0.33758783 0.64156038
4.0013475 1.2679062 1.2847047
5.1478686 3.7099211 0.0076591214
4.3331461 1.4928591 1.7176757
2.6359439 2.656687 2.0150898
0.68109637 1.5520095 2.0140133
1.2285529 0.51686996 -0.0027309696
0.40991861 0.087943472 0.3602429
3.4345925 3.5586891 0.22286579
2.4326651 1.9240746 0.00069993467
0.1773977 1.9840131 1.9958878
4.2527781 1.6895758 0.00051898812
4.4624634 1.4749331 1.4072363
0.86581236 0.032078568 1.6182781
5.6506467 3.1102738 1.6692293
-0.005425829 2.9168503 1.1714208
0.10891316 2.989656 1.4069188
3.5454187 2.6340673 0.00079069042
4.1921654 1.5208712 1.1410079
5.7276907 3.8866336 0.0024227554
3.7079031 1.9704891 2.009336
2.3701744 1.4776376 0.0027069801
4.0237613 0.18380754 1.1549848
3.575645 2.6468003 2.002985
0.0026334717 0.71919614 0.99421233
4.6292782 1.6164985 -0.011663344
4.2270913 3.1700196 -0.0025971266
5.3035975 2.2506013 0.13598247
2.1408365 2.8616679 1.9873748
5.6993861 3.2656744 0.7698015
0.023316091 -0.015468089 1.7538601
0.075519614 0.0065112817 0.36550909
0.012116953 2.5364485 0.0093669705
5.1588569 3.8719747 0.98181832
4.8267517 1.7167534 1.9856442
2.1002741 0.41095477 0.93185246
3.5635791 3.2173197 -0.0086682392
4.970221 1.5079857 1.8978248
0.9364329 0.010752348 0.095770314
5.3512607 2.4040759 1.8547117
0.75414288 0.69238919 2.0061772
0.23662509 3.0290651 0.71654063
2.7883825 3.4614272 1.1994034
3.7501965 0.70132327 0.60070997
4.7096052 1.5973785 0.004946325
2.0402949 2.5069897 -0.00070251088
3.3730335 0.00567566 0.67147022
2.6188726 3.1073239 2.0036085
0.065349326 0.0037174874 1.0089443
2.5889316 0.49715275 0.37903231
1.009244 3.0574813 -0.0029721104
-0.016088728 0.66391641 1.8393691
0.88481855 0.16062619 1.8962547
2.932476 1.0185797 -0.00034565156
3.9863827 0.72868425 1.9333782
3.2292435 3.5321398 1.0412992
0.0034012364 2.4338212 0.23043965
5.4326854 2.5417414 0.63425303
0.29169971 3.0476577 1.7521193
5.3966603 3.90574 0.078154974
2.6766465 0.48429063 1.0712181
5.5260863 2.7936862 0.58738899
5.7860312 3.9572835 0.94065315
5.0894494 1.7003635 1.0672914
5.803287 3.5227528 1.5345063
5.3400426 3.8782675 1.2780558
1.3293126 0.011536134 0.95234519
2.5657682 2.7978365 -0.0020254008
5.6878672 3.2651775 1.5090703
0.084723674 0.14733511 0.0065686842
2.8737197 1.1796894 -0.0045320517
0.61546117 3.1096878 0.33759046
1.8556882 3.293339 1.7212132
5.8171678 3.579675 0.43492848
0.90683335 3.1514907 0.017624145
-0.0098635089 1.9574952 1.9853433
0.067014232 2.1372433 0.0042967503
4.450767 3.7456598 1.4782547
5.0286613 1.5272954 0.58431
2.6335802 3.433042 1.1565365
5.9005022 3.7922239 1.5197823
5.1540942 3.6762626 2.0125611
1.9128439 0.0027850633 1.0104995
1.5560801 2.674026 -0.0090545285
2.6392941 0.55114442 -0.012480087
1.9829476 -0.0074298 0.86098188
3.9918489 1.349828 0.51153469
4.8567896 3.2819197 0.0074371733
3.9906876 0.021917379 1.4780934
4.2642279 1.4954004 1.2190489
0.61555773 1.8741368 2.0060921
1.2786559 2.6012299 -0.0032701192
2.3703351 0.44391012 1.611807
5.508585 3.0687902 -0.024368417
4.0602961 3.6322339 0.015899882
2.8657238 0.52746648 1.5481977
2.3440213 0.41865745 2.0001714
4.2904949 1.4860086 1.7047719
2.2391381 0.011394671 0.6020236
-0.008335718 2.7940471 0.52881753
4.6563878 1.5010626 1.3522661
3.9781713 3.3345926 0.019503487
3.1207697 0.60177749 0.17666216
0.2531223 2.0569208 -0.0055948733
4.8698473 1.8247777 2.0016892
4.5290999 1.6059626 2.0133462
0.81375772 3.0366066 0.0013158295
6.0042915 3.9678285 0.53070116
2.1108153 3.3457043 0.55813873
3.6174457 3.5966244 1.9484042
3.9862392 0.52044165 1.0890821
0.28191116 -0.008491491 0.97289515
5.5193305 2.7733872 1.4903013
3.1685867 0.57739305 0.80962783
3.0118613 2.5373073 1.9995748
5.6910777 3.3522036 0.010731667
5.2617388 2.2454479 0.014111222
-0.027521189 1.890079 1.6104189
5.3208723 2.2739098 0.97885877
5.23634 3.7839622 1.9942122
2.6033721 0.96947181 2.0071685
0.92248303 1.641977 0.011463735
3.7953446 0.86125457 -0.0020882033
1.1252404 -0.0020030204 1.8512286
3.4153068 0.62464511 1.1961796
0.00018500646 2.9364123 0.0069464017
1.5900533 1.9847575 0.0052155196
4.5006404 2.0486546 0.0010955816
5.3645573 3.1319056 -0.0048619704
3.9884279 0.4155097 1.033844
3.9948828 0.39473495 1.4058475
5.165679 1.9570918 0.61797053
3.3475037 2.4357095 2.0056667
1.8983725 2.354604 2.010098
4.6718769 3.7698724 0.25483876
1.0982314 2.7584641 1.9992175
3.7048738 1.3919661 1.9926548
3.3629587 1.7350936 2.0038111
4.0030465 0.89679188 0.18663719
4.8364892 1.5157493 1.578254
-0.0077666077 1.1553946 1.8221985
1.3179772 0.23797232 1.6309549
0.0095440848 2.4205334 0.40286908
3.1422107 0.5746085 1.6993845
0.28112778 1.3092947 1.9901313
-0.0034175979 2.462167 1.3606485
0.0094651189 0.73672587 1.3080664
4.8304944 3.6425264 1.9987001
0.62544316 0.72031695 2.0137627
4.9860229 2.3032053 2.0023637
0.67319846 0.92509693 1.996654
-0.0023815457 2.5031769 0.46418178
1.9496447 1.2076827 0.014950647
0.8398701 3.1559296 0.39522839
4.0102882 0.89747363 0.5766862
1.067165 2.6102171 -0.011684593
3.7844238 1.0365362 0.010344102
0.75403565 2.6156223 1.9990518
3.9938231 0.30756348 1.6592146
1.4017549 0.23332205 1.8140932
3.9257138 3.4609599 -0.012688553
2.42173 0.77758282 -0.0038073328
1.5874527 1.6842257 1.9833376
3.0591357 3.5251501 0.65397847
1.8491087 3.3020878 0.79120451
0.93790901 0.0011448152 1.3113894
5.2875462 3.5773766 0.019562377
4.98981 2.1398423 -0.0044058659
4.0107718 1.4358857 0.90063566
1.2337438 3.0267103 2.0024521
0.70963299 0.21132283 2.006042
1.0913738 2.5186079 -0.00019546058
0.0096743135 1.3862982 0.30823749
3.3526647 0.0034532731 0.74165165
4.0200233 3.1934736 1.9963866
1.0199548 3.1705194 1.5884049
3.0263517 1.1235209 0.0026469675
-0.00073877937 1.5501668 0.61334568
2.1036391 3.3374751 1.4415505
5.8379817 3.5458996 1.1574643
5.2777486 3.8170123 2.0051231
5.3004584 3.8319373 2.0101891
0.26203051 0.016146546 1.3448402
3.345407 0.46823585 -0.009816776
4.5675364 3.1288064 0.0073769679
1.8463094 2.998225 0.017864816
0.049256049 0.47158399 0.012690778
0.70098257 2.2199502 1.9911848
0.1923309 2.6546609 -0.014145822
3.4512079 0.66320568 0.88449609
0.93119466 0.00064214948 1.2180761
3.5864646 -0.0022722073 1.1224504
1.8418477 0.31057188 -0.00083545066
3.0243874 0.84047323 2.0031023
3.6171904 -0.0056307623 1.179846
-0.0066091069 0.026130548 1.8167671
4.1377912 3.4758346 1.9970523
1.3225611 2.1215384 2.0132308
2.2022386 2.8173175 0.020315772
2.5600955 3.4326022 1.5141032
1.12519 0.20071238 1.0229511
5.3357544 2.3379395 0.41861033
3.9955771 0.45690584 1.6496593
0.00075929041 2.8202994 1.3966644
2.3784432 3.3819757 1.8459169
0.94909745 0.46654901 -0.015021126
2.6252153 1.1394807 0.016741643
4.3234892 3.7232978 1.4293475
4.0061073 1.0002179 1.8030622
2.636687 3.4357536 0.31890795
1.4723495 0.28064388 1.5877796
2.4792337 0.15022866 2.0154059
3.6787422 3.5634987 0.01012126
3.1401563 0.59953457 1.8793029
2.6608648 1.3434366 2.0006537
1.2467138 0.085893907 0.0042288145
1.0078965 3.1667061 1.8664486
5.1245942 3.8676281 1.1232315
4.4132299 1.4847858 0.33353618
0.4874824 2.6093526 2.0087309
4.8971148 1.8627404 0.00016360884
3.1683311 0.0074347793 1.456494
0.9405002 0.62374806 -0.0041643172
0.01840107 1.4449128 1.5672424
2.0843227 -0.0085996706 1.7471114
0.014108064 2.0441878 1.414783
3.2583816 3.5373762 0.73196054
3.6433566 3.2685115 0.00092105806
1.4021198 0.2654067 1.2344965
1.5560317 3.0517268 0.00046656004
-0.015437474 2.9281206 1.4097406
1.9423827 1.7046262 0.0021880209
3.172771 2.787816 0.0099122329
2.8589308 2.3282342 1.9876747
2.4492726 1.9315363 1.9958991
2.2509069 -0.0080092866 1.4406109
3.0987039 3.505765 1.8914361
0.0077962992 1.8658839 0.65058303
2.8444855 0.41297975 -0.015151107
3.9962256 0.41279498 1.8713092
-0.013671334 0.93094116 0.62670034
4.3270116 2.033639 2.0029669
2.0513246 0.64981222 2.0062423
5.7145271 3.3265233 2.0073073
4.7729163 2.6634054 -0.014712589
0.79376066 0.014316834 0.72448164
-0.011220288 1.0272602 0.77070194
5.287921 3.8783076 1.4651934
2.9510889 1.1911416 2.0026641
2.9624708 0.0014888381 1.1194743
1.0390375 3.0740652 2.0052879
1.2430393 2.5506554 0.00084352389
5.1544724 3.8397098 0.89446646
5.6755304 3.4228282 1.982814
0.0025537531 1.2789687 0.12755775
3.5767407 1.228712 -0.0060468791
3.7623215 3.6333504 1.2382121
2.3421276 3.4010565 0.53850466
1.7480592 0.32995632 0.49017036
1.0814246 0.20091118 1.1182605
4.3306985 1.7967247 -0.0056014168
2.5807495 -0.0038545222 0.32058796
2.2707925 1.3788791 0.0028288781
3.5509045 3.6053495 0.20689271
2.6811383 0.49989539 1.2295487
5.0755301 1.6701154 1.2905078
5.5233331 2.7927222 0.86040336
3.7798541 1.6973999 0.0015572724
0.30060965 1.2024198e-05 1.3204243
3.1352298 0.60429221 1.695767
2.4246945 0.45923382 0.75325131
0.47110349 2.0400281 -0.0048944373
2.9346564 3.3175256 2.0006051
5.2157874 2.0650659 1.875773
2.6800082 3.457695 0.032302834
5.6231675 3.5702217 0.001878401
3.8293111 1.0311986 0.012968577
1.617679 -0.0076073469 0.40615708
2.8702624 1.6423746 0.0033564083
3.2241147 0.60606033 0.4593533
1.2031054 1.5371591 -0.0010785772
3.9903491 1.2716367 0.99163759
-0.0021590716 1.8738155 0.61524522
5.7043495 3.5309384 1.9987466
2.1022978 -0.0022051204 0.38248834
1.1060303 2.9941745 0.010338712
1.1813356 0.5034253 0.026571432
2.8635104 0.0028706659 0.39932311
0.073679045 0.022045413 0.70963424
3.457242 1.732138 0.0032322386
4.8640733 3.8099711 0.72104365
0.41294983 1.1523495 1.9896905
1.3402444 1.6661257 -0.0044844397
3.6038635 0.33600137 -0.0099210599
0.96069771 0.0094831865 0.3110742
4.6679153 2.6751184 -0.024207087
3.106061 0.57940292 0.80096251
0.012432744 0.93067658 1.3584498
3.7683656 0.69806975 0.31459934
5.5887876 2.9714653 1.1373432
0.74475563 -0.012486388 1.2241868
4.603581 3.570312 -0.010753763
1.7766899 0.014439528 1.7261431
0.58431429 1.0621599 -0.013531605
4.217031 3.7071679 1.5587183
1.0928397 0.49583831 0.012808652
5.480566 3.9095914 0.50194514
0.15535586 3.0172923 1.9898578
5.0089345 1.5020961 0.72511685
0.68336564 0.28540063 -0.015019621
2.2929432 3.3740063 1.5250506
4.6035681 3.78003 0.72798949
0.8079716 1.7279736 0.012103044
4.4487677 3.7341917 0.63258743
2.6668158 0.49758938 0.93512589
3.2833273 3.5457995 1.1223562
0.62605172 3.1077111 1.7016488
3.4880254 0.63637161 0.28332806
0.86852992 1.3759062 0.0059649204
1.1028328 3.1927903 0.026818642
5.9328923 3.9726498 0.50155663
3.3514612 2.6684906 0.0095307194
-0.008309897 1.9423711 0.65498531
3.8151016 3.0960448 2.0006828
0.4304361 1.209926 -0.010239546
0.010361551 2.5841568 0.99778795
0.72252005 3.1235991 1.5696008
1.9781271 3.2362278 1.9961653
2.9096811 0.55258089 0.29319271
1.0504736 0.17439196 0.88545835
3.2234819 1.6497771 1.9948655
3.9573965 1.9938099 2.0001028
1.0301633 2.9427154 -0.0078421487
1.88455 0.32809469 -0.0038991971
5.8080769 3.4951975 0.67372352
1.9993831 0.68741137 -0.0005488731
2.4333999 2.0051856 0.00021147111
4.1267052 3.6711881 1.0493754
2.7137837 2.7439854 1.9970801
5.8627801 3.9640484 1.7160168
1.3045728 2.2238843 2.0009298
2.6966975 1.7189801 -0.011404876
1.582935 1.678046 0.0066537061
0.34598282 3.0538354 1.0404124
4.2765355 3.701535 1.6911128
4.0059547 1.1074437 0.86376888
1.097434 1.7179635 0.014504717
0.43290007 3.0473485 0.098116659
2.3971176 0.0087331347 0.43212849
2.4480052 3.4082394 1.6759633
1.4890743 -0.0045091137 1.0980672
2.4804924 2.4169259 2.0158782
2.5451345 1.7132201 0.0045153503
5.657403 3.1337481 1.0666819
-0.025493355 0.99968892 1.142247
2.3129461 3.4038036 1.7689996
2.6248803 0.49437916 0.26319495
3.9966915 0.23665941 1.4314301
4.0112324 0.73879677 1.8694161
3.0138407 -0.013218844 0.71273947
4.1858582 1.4993027 1.9918121
1.1822871 0.020404879 -0.0055521377
5.003077 2.2021346 1.9901842
0.58747405 0.0021719595 1.6793739
0.39529359 0.01256533 0.85235989
-0.028294448 2.1597145 0.29088262
2.2480507 3.3665106 1.5373294
3.7533345 0.69434947 2.0125084
4.3327661 1.4995102 0.28637597
0.99997127 0.1877843 0.81555271
0.93314135 0.00013299953 0.58846331
1.7888 3.2962615 1.8143075
2.063446 3.3487775 0.42137054
5.141861 3.6639481 0.00023571339
1.2962536 0.26532274 0.34797964
0.86660779 -0.0046619731 1.7148687
4.0664496 2.8063958 -0.0055218115
0.048965901 0.67199993 0.0059923409
3.1398561 0.45621276 1.9860181
4.6552477 3.6008124 0.0017472839
0.71312141 0.0053410535 1.6819042
3.0602813 2.0139544 0.0085046357
1.1541753 -0.0073982659 0.44414109
1.0403498 3.1727829 1.1350186
4.8824553 1.6652848 1.9873359
3.3434315 2.9299903 1.9995965
3.9971964 1.3806938 1.8709427
2.9360757 0.54803526 1.213012
4.1009145 1.4822781 0.65498924
3.1385875 3.0611012 2.0080712
0.75851995 -0.0011260742 0.83833677
0.012016434 0.90986937 0.98578268
5.7590404 3.3793938 0.46357727
5.6937928 3.2568331 0.64780051
2.8222849 1.8817 2.0077555
4.9989538 3.8300571 0.2286638
0.9971264 1.5680628 -0.0049859127
4.5504117 2.6997075 0.0059844209
5.5997128 3.0319648 1.6412144
3.1248477 2.7388813 2.0038767
3.9964163 0.36049122 1.9794184
5.3256459 3.8817286 1.3405197
5.346333 3.8929093 1.290997
3.5575035 3.5990582 1.727544
0.25931045 3.0264711 -0.0069977129
0.0089468062 1.1660719 1.2910295
2.5025573 -0.0037220761 1.8503839
1.4100919 0.28005704 1.9563655
1.4804952 0.26982665 0.04548372
0.29537812 -0.015334464 0.5688315
1.9140561 0.34575024 1.2381115
2.6152236 2.9583969 -0.010676863
4.7777476 3.6020768 -0.0041781538
0.78879422 0.13930051 1.3955977
5.1994119 1.9784553 1.4214611
2.9119883 1.1671112 -0.004591357
2.1249883 -0.0033196136 1.1870502
0.21281509 0.75201559 2.0043678
3.5929909 0.66753834 0.57215554
3.9972043 0.61347622 0.98794061
0.023610953 3.010283 1.4102911
0.0087231342 2.5775955 1.0158023
3.8540893 0.0034254175 0.18488565
4.2460837 1.5877399 2.0047569
1.4013706 2.6085138 -0.0044485065
3.119828 0.58539343 1.9534218
3.4780221 1.3688174 1.99756
0.57367951 3.0882399 1.0833722
0.87280941 0.5697149 2.0015666
4.1302495 1.935274 0.011812296
0.37108597 2.7087634 1.9869356
5.1522918 2.181504 2.0105984
3.9045467 3.6467876 1.080157
2.0032253 0.098843805 2.0053687
0.92951328 0.16813157 1.5553174
4.014781 0.0089125214 1.4253666
2.4093547 0.0114766 0.40471128
1.5980181 0.29797921 1.3598744
0.48321134 0.43703011 0.00028634182
0.088759467 -0.0029184553 0.3842862
0.81976765 3.1272368 1.6517215
-0.029044956 1.0022327 0.18575926
5.8305125 3.554565 1.9405237
3.8881431 3.640523 1.653065
0.60032266 0.1534484 1.9912928
1.0358882 3.1767499 0.25479054
5.2276726 2.0983241 1.6314019
5.1810665 3.8596838 1.9114252
2.18559 3.3545449 0.41224095
3.2412214 2.6104724 1.9812282
3.8592577 2.2850184 0.02397063
4.0572634 2.5047572 1.9883299
4.099031 3.6867282 0.88451648
4.0106068 3.6891325 1.6513498
1.3526819 1.4836038 -0.0094186598
0.49102014 1.0494549 1.9946566
2.046972 3.3356125 0.89350563
1.4999719 2.5932815 -0.0011564466
1.8512598 0.22076075 1.9955683
0.28303507 0.15142262 1.9923275
0.95938283 0.18401609 0.99865848
4.2226419 1.8504882 0.0034565723
1.4791098 0.0028670705 0.20939648
4.940721 3.3696713 -0.0028586318
3.2370579 2.3600059 2.0162575
3.5212939 2.3799419 -0.00012127902
0.48504958 1.4101274 0.00042106124
5.9476409 3.9943371 1.2822926
1.1984918 0.47910443 1.9868495
0.53554088 2.1396554 -0.01265641
0.73906571 0.14423962 1.6369563
3.9992177 2.6460135 0.015707085
1.3185703 1.9016656 -0.01115902
0.70978451 0.68654209 2.0027752
1.7687899 1.8993416 -0.002335313
0.067065038 -0.022998448 1.3820858
1.1350977 3.1676009 1.7204382
4.7014656 2.1204979 1.9987016
3.7477942 0.69563419 1.613904
-0.010579597 0.0016412012 1.4936628
0.13311304 0.10560001 -0.0096035441
3.3740239 3.5747547 1.5919816
0.012987006 2.1951659 1.4614313
-0.0054550483 1.1222478 1.6327372
-0.0070343399 0.12011208 1.1964471
4.8776832 2.4500635 1.9916083
2.165081 0.41971186 0.94932997
3.003058 2.2891171 -0.017232647
0.98197997 -0.0071916841 0.71215624
1.2584617 0.36683652 1.9885086
5.6777778 3.9186921 0.0021789705
3.0697463 1.232208 0.0081246076
2.4548445 1.6881651 -0.01369355
1.4113461 0.26619369 1.8888938
1.405529 3.2293725 0.81122845
0.74194384 -0.0017698598 1.0691113
0.018884471 1.5833211 1.3500519
3.4246736 2.2655811 0.0061870432
0.3670285 0.55235934 1.9848168
1.5438192 1.0951514 2.0001476
3.991924 1.3856708 0.77698141
2.4174232 0.99041975 -0.0069996174
0.67445773 1.942006 1.9955708
0.017587177 1.9553819 2.0033295
2.7447495 0.51416546 1.1798403
2.1672258 0.38618931 1.8067096
1.3065811 3.2123563 1.0594907
2.7486985 0.5186795 0.86503625
2.3923457 2.2188742 1.9848027
2.4704244 0.21998668 -0.012674658
-0.011706622 1.3218594 0.50969326
3.0745668 0.81085879 -0.0048942119
3.6711755 1.7660238 1.9964724
1.1934443 3.1977847 0.30134815
0.0087542916 -0.0066086059 0.84803522
0.77822226 2.944967 2.0056019
5.7633672 3.428302 0.22918929
3.9841287 0.86569053 1.2789843
3.4632976 1.5905381 -0.00057504192
0.88275981 3.1553071 1.4909563
5.6146522 3.9272966 1.2133632
5.2385607 2.1001472 0.74687326
0.79422069 2.2501402 2.0062733
4.0977135 1.5014813 0.032427173
2.7226551 3.4476187 1.5872262
3.3904095 3.5700717 0.81369317
0.80765003 3.1387322 1.9797921
0.25246596 1.7156254 0.0095320493
2.7371645 0.026086913 0.11658002
3.8917227 3.6294618 1.9755391
1.8991412 0.071614742 0.0073304651
3.253072 3.540782 1.256512
3.9235129 2.3810334 1.9810497
2.6104548 2.1192093 1.9996862
2.7955689 0.60705996 2.0137703
0.95092922 1.1515285 1.9858371
3.9858522 0.84495997 1.444631
2.2196054 -0.0074121011 0.88182211
3.7965264 0.6959464 1.713906
4.0148439 1.3441459 1.589107
3.999563 0.87743711 0.72452009
2.4144878 2.3200452 2.0050144
0.39315209 2.2764368 -0.0037676489
5.3730431 2.4346216 1.7956787
0.4975183 0.10657801 0.35733151
1.792447 -0.0063966908 1.5853199
4.425137 3.2747076 1.9969403
4.2941971 2.7102811 -0.011449046
4.7401152 3.4201837 -0.010994768
3.9853814 0.63895464 1.4937475
0.76636374 3.1108668 0.89173257
3.48932 3.5804517 0.97562623
3.9987085 0.26453775 0.10548664
1.1951085 2.2495029 2.0161369
0.46150163 3.0805779 1.2286329
3.4225652 1.7943769 0.0042783418
4.1395679 3.6840339 1.249264
3.086102 0.58224589 1.853819
2.0734489 0.24699534 -0.0087344348
0.00034530103 2.0442452 0.0057473853
4.8651643 1.4956609 1.0500898
4.7324872 3.6235194 1.9737606
1.6799212 -0.0070179817 1.7508167
-0.012945231 2.9335983 1.3242162
5.2626476 2.5551548 -0.0056749927
0.37338671 2.1655483 0.0055624102
1.7351482 3.2911038 0.32522705
1.1745148 1.9844552 1.9973692
0.46035084 0.0098758293 2.0061712
5.2365098 2.4377854 -0.014558676
2.0885882 1.3024777 0.0024482403
0.6206516 3.0854602 0.35626119
5.0226707 1.5326507 1.7500234
3.7371175 0.72443169 1.7587482
1.6428024 0.32106531 1.3361585
2.4381423 1.4230878 -0.0044763754
-0.0058728037 0.76373422 1.5879173
2.2919674 2.7247071 1.9984596
1.3486705 2.021733 0.0050881524
2.9995477 3.5105989 1.9844905
3.8550749 2.9992859 2.0052507
2.5842748 0.91046387 1.9893223
4.7542429 3.7950616 1.5492336
5.4738369 3.9330909 1.7648535
5.2575941 2.0839887 1.4361326
5.5195942 3.1685886 2.012249
2.1690998 1.405345 0.00014061206
2.1399767 -0.00078790629 1.6973566
-0.013870999 1.5609732 0.52030748
0.67726314 0.12880677 1.2930981
0.31003556 2.673811 2.0021009
5.3546262 3.8970273 1.5624501
1.8447598 3.0885773 2.0065212
0.11123236 -0.0076016933 0.60906386
1.5719727 0.27927691 1.5963193
0.0039686244 0.024912678 1.3554554
4.3676596 2.2811766 -0.0050958735
1.3060867 3.2137992 1.2503219
1.5765325 3.1918795 2.0083199
0.81203198 2.8291838 1.9922554
2.4523096 1.8901949 -0.0099246288
3.6024632 2.3472712 2.0024652
4.2374783 2.8736558 0.0020889021
3.1865573 2.2544127 2.007529
4.8701987 2.9006386 0.001255495
0.78165698 0.14968792 0.3785792
1.5137373 0.27867991 0.23220459
0.40598622 -0.013840907 0.82983452
3.65731 0.088432305 0.0013515824
5.606308 3.0411072 1.086802
2.6598992 2.8992465 1.9849074
3.0944099 0.11943731 -0.0087658521
2.0388286 1.1429585 1.9910785
0.0020958493 0.94911581 1.4822032
0.31135684 0.0078286277 1.4508291
4.6408248 3.7764673 1.7850121
2.447124 1.9793826 -0.0013646333
2.9407921 1.2812884 0.010833699
1.9495647 0.35890862 0.96176434
1.1487582 0.21814464 0.84304506
0.01728862 1.0521983 0.46907592
0.62498146 3.0216253 0.0042021736
4.6282206 1.5149837 -0.0043828283
1.1711373 3.0849977 2.0126801
2.6145759 0.75932634 -0.0027399692
1.5092182 1.9345419 -0.017184991
1.2004882 1.3959979 2.0039489
3.0548401 -0.016839843 1.7730391
0.019507211 2.189512 0.97442377
0.4633809 3.0368211 2.0165405
2.8075166 1.9543792 2.0097082
3.774987 0.010697262 0.091147877
4.2164392 1.4971949 1.6146064
0.83950931 0.1395395 0.34278533
1.3786299 0.17086655 -0.0047346684
0.2581403 2.6395447 1.9991314
2.6722503 2.8457782 -0.021617444
2.268079 1.8478388 2.0000598
0.29118904 0.04263844 1.1379294
5.274127 3.4554787 1.9901977
1.6654713 3.1850808 1.9825842
3.7846696 -0.0045209215 1.773573
3.3837101 2.7337947 -0.0049989242
1.2434769 2.5334337 1.9913396
5.3460746 3.4651947 -0.0099676549
-0.0027761736 0.91033804 1.8945724
2.1721673 0.38969347 1.0125138
3.8592532 2.7797306 2.022516
2.8936574 3.4665504 1.4940301
2.0578249 -0.013017637 0.85840535
4.2137856 1.5045646 1.9264736
4.6443343 2.031755 -0.017032787
1.9195369 0.79833174 1.9893041
0.66800058 2.4069264 1.9930265
1.0927527 3.1798084 1.5936741
5.2381663 2.0992582 1.7367417
2.3986237 -0.017592184 0.66389209
1.5725703 1.3242943 1.9905692
4.1751585 3.5174062 0.0037356846
4.359158 1.6499467 0.013459627
2.8669899 0.41889459 2.0188763
-0.0064706756 2.5912948 1.8307668
1.918452 0.35746089 0.79660738
2.8063836 2.9419367 0.014470394
2.0759625 0.38417226 1.1550788
1.8257482 3.3077991 1.6570103
3.8080418 3.6310878 0.027359301
2.870538 0.53634316 1.0602971
3.62025 0.67772752 1.8048685
5.0646782 1.7297803 1.9969245
1.4124136 1.8474385 -0.00030797996
4.3894801 1.4913338 0.23065163
1.7416779 3.2970982 1.5756248
2.3935263 2.4538071 1.9857721
4.3778348 1.9626597 1.9940825
2.1258342 0.39286014 0.32129923
1.9534235 3.3240891 0.4504275
2.1696012 2.9083061 1.993963
5.6314063 3.3050017 1.9952171
0.51201546 2.6269991 1.9907259
1.4041293 0.012708089 0.69461542
1.1605151 0.39182922 1.9838588
4.1896615 3.6784124 1.3112477
5.9500928 3.9124482 0.47531813
5.8049855 3.4930358 0.89866483
1.1723301 0.2103747 1.7522738
1.7507046 0.32171309 1.8832914
0.87200987 1.3944002 -0.023095097
4.6177883 1.5043368 0.055772997
1.9097669 0.37673804 1.9104673
5.3216062 3.8861828 0.013887662
0.48975563 1.5318569 2.0112324
3.9910848 3.4096737 2.012249
3.4673269 0.036537889 1.9931918
0.32805669 1.6230265 0.00051293575
2.0861406 0.3854399 0.97754645
0.79582995 -0.00059729745 0.22159779
4.2055802 1.8039305 0.0016429416
3.3512409 0.10558469 -0.016903026
3.1444108 3.1014414 -0.010288435
1.4973747 1.5510439 1.9932561
5.0688143 2.7074144 1.9965073
3.9931808 1.4712776 1.4234096
2.1771963 1.9132307 0.0026296263
3.8316107 0.73548234 1.3458641
3.9899325 2.6070344 -0.0025793477
1.0422316 3.1779113 0.89615047
4.5404987 1.8541043 1.9826612
3.1029735 2.8151579 1.995772
3.5130634 3.6015224 0.86742139
5.2861624 2.226476 0.49959326
2.3851819 3.2875149 0.0039426605
3.3497014 1.4751797 -0.0044875946
0.00068775122 2.4194326 1.2055113
1.3018923 3.2179341 0.27757671
3.0077863 3.5070968 0.051814385
5.3108373 2.2836826 0.93707949
4.5787845 3.6259577 -0.011658196
3.4943984 1.1660693 2.0116665
5.6293602 3.6886125 2.0044532
2.7090003 -0.00179409 2.0187278
0.35450628 0.054971039 1.4286761
4.1702824 3.6860979 1.6938622
3.218693 2.113893 1.991292
2.0072062 3.1283638 2.002563
3.1105936 0.59060878 1.6674688
0.020898959 1.7872258 1.0723547
2.1778727 0.011074894 1.1354191
0.0093926443 2.8631744 0.75202459
1.2271005 1.8431281 8.2692874e-05
3.7984681 0.019819107 0.25064325
0.0021866783 2.6567013 0.71313232
2.3989613 3.3924892 1.2778584
0.76423025 2.0927434 2.0009174
4.9785089 2.8295088 2.0052474
0.64265138 2.8244495 0.012498388
4.0062485 1.3047532 0.36286017
0.81875497 0.16379692 1.9325258
1.326015 2.7494195 -0.014333442
2.2326601 0.37924093 -0.0017348027
4.1602073 3.7001288 0.76456362
5.8203411 3.5661299 0.40571901
4.7090597 1.5117565 0.30185056
-0.013481751 0.98204696 1.4413472
2.6096909 1.0242968 1.9847815
0.83267766 0.1630999 0.035226781
5.645906 3.2907021 -0.017640471
2.0742805 2.0100715 1.9956964
3.4763157 3.5743184 0.8052808
3.2512112 2.2894576 0.015929885
3.4314332 0.34908664 1.9983
0.64765573 -0.016694244 1.2741214
2.503505 0.48030567 1.4780542
2.4932952 2.8133397 -9.7461219e-05
2.4307353 1.6754516 1.9896165
5.8854599 3.7515666 1.8686155
0.49005118 0.010203239 1.1208813
5.9851489 3.9813762 1.0112875
0.026159225 2.3561609 1.7569387
3.5640535 1.0114546 -0.015744774
2.7582412 3.4524238 0.58763343
5.0504379 1.6339779 0.88221502
2.8559077 0.0764722 2.0074768
0.33552945 2.9556663 1.9889901
5.0402355 1.6172128 0.61915541
5.163137 3.5756648 0.0050147269
5.6744466 3.2167611 0.23061785
5.2798405 3.8740344 0.043242402
3.7543635 -0.012285882 0.81023675
5.5212789 3.5451157 1.9925927
2.0518615 0.60248154 2.0038712
3.1860085 0.00027109231 0.22665422
1.4716116 3.2485533 0.56151164
4.7970843 3.6484921 0.0032452825
0.66505992 1.3624656 0.0071506463
1.5892054 0.37513116 -0.0009155054
0.99217927 0.75082642 0.0094352774
3.4093506 2.2827687 0.0022849366
1.5806502 0.27717841 1.0243359
4.1292491 3.1710305 -0.027709987
1.9773812 3.3259442 0.75023067
4.6972017 3.7906132 0.20693512
3.9955547 0.69660264 1.2416289
2.6758785 3.3720551 1.9919565
2.3793893 0.52736336 -0.0092596449
1.0169959 2.8688395 2.0085099
2.6580386 2.5344801 1.9975146
-0.015510091 2.8015261 0.41164693
3.9188688 3.6367719 0.85628641
0.71135283 0.0029360228 0.37650788
1.9229945 0.3508307 0.9572705
5.6265249 3.0781467 1.4012141
4.8020735 3.7944875 1.7370856
3.2899435 2.6890488 -0.012904155
5.3319974 3.8746576 0.66759014
1.0810635 0.21825652 0.96657467
0.37894645 1.7945811 0.016813776
0.017512774 0.11595075 1.7385396
2.6058657 3.4334197 0.6188122
1.881672 2.3176379 2.0049779
5.2746515 3.3782458 0.0045100865
0.0090998746 2.4380727 1.427597
1.7660776 3.3002338 1.6216764
2.5126121 0.51022923 0.001533333
5.9144263 3.7676234 0.6045658
2.7560158 0.50230569 0.94598985
2.2490528 3.3591378 0.60569072
1.1124532 0.20876531 1.3963946
4.1531963 2.1908429 1.9924654
5.3779173 2.4471443 1.0828588
1.3602263 3.2116718 0.70385194
0.0096204048 0.087682314 0.56948268
0.7024709 1.6615412 -0.0016501873
5.1635103 1.9183781 1.8208747
0.99300301 0.0066641252 1.971547
0.099353433 0.13502149 -0.019389721
0.26345369 3.0521472 1.6604973
0.92297792 0.00032377511 1.1040499
2.2951322 0.24501999 2.0049355
1.9396629 3.0847125 2.0074575
1.1497639 0.21857943 0.64486474
4.1438313 1.5040329 0.33522883
3.3319356 2.9288275 0.011149763
5.3263435 2.367254 0.16288917
3.685344 0.6847629 0.25694138
1.5078868 3.2395236 1.6864918
3.3164914 0.63477635 0.35034156
3.5499215 3.4161441 -0.01005578
1.0563962 0.27671409 1.9859716
5.631835 3.3004918 1.9916914
2.9599032 3.4967697 0.62736768
1.6464365 0.37913594 -0.013719813
1.9694024 1.8666898 1.9981006
2.0819306 3.347826 2.0016496
-0.00071841694 1.2599083 1.0045292
2.4703555 1.1111573 1.9990205
4.3250208 2.7026846 0.0072000772
2.3353689 0.13319126 2.0028732
1.5291996 2.1052794 1.995609
3.8496058 0.006700045 1.7594826
1.574272 2.6848633 1.9911292
6.0003676 3.9837067 1.8280274
3.9546385 2.8961995 1.9979317
3.8261206 3.1618593 1.9926085
3.9742267 0.4453406 0.68219787
5.0820203 3.8426957 0.084613964
0.90190649 0.15827766 0.61615109
3.8789277 0.0051952624 0.36971027
2.6469908 3.4457862 0.25029695
5.537137 2.838274 1.7762846
3.5473256 2.7689981 1.9979788
0.80055547 1.7071266 -0.012535985
3.9424984 3.6744614 1.7970104
0.84628361 -0.0022319867 0.21970512
1.4527525 2.4782159 2.0147872
2.9797759 0.35911617 1.9837652
5.1584024 1.9042737 0.51533413
0.011971679 2.6516502 1.6634473
3.7676141 2.4557488 -0.0095192157
0.96979189 2.3186972 -0.0074043358
4.567554 2.2143719 0.0034503217
4.003716 0.49769396 0.33541054
0.0060003172 1.2490489 0.0073314495
1.3991265 3.2192044 1.0296227
-0.014664719 1.4138258 0.51779211
5.8738823 3.9740353 0.45698175
3.532161 0.65389442 0.32217306
5.0291219 1.507504 1.4517344
3.3488598 0.6302492 1.8255411
0.0055595241 0.45083141 0.055578284
3.5584455 3.6073244 1.982501
0.014053914 1.1983746 1.445928
5.1199799 3.8762732 0.25499678
0.27799457 0.046530962 1.9458501
1.6184821 3.1930492 -0.0034316808
0.094804011 0.0066796914 0.48055989
4.5665035 2.1098578 2.0025997
0.77884495 0.41034222 1.9964119
2.026078 2.8548696 2.0123544
5.400228 2.4617155 0.32541013
2.834898 1.5505625 0.0052322363
1.3320538 2.6521587 1.9994906
1.9713831 2.2585773 1.9959162
1.1608071 3.194783 1.7583631
0.73990452 0.11735348 0.82084286
1.0498451 0.137125 0.0038583814
5.5194788 2.8053124 0.059577301
2.0660439 0.37345624 1.1284554
4.5620666 2.4285862 0.014392375
4.4883828 1.7830745 -4.0335886e-05
1.1446668 0.35557589 2.012362
1.0593086 3.1553521 0.14033841
0.043432068 0.0090244776 1.31205
4.035274 2.1591187 1.9988928
5.0670919 1.6941514 1.1446192
3.565465 -0.0021383134 1.8272203
2.3460646 0.028332289 0.0013219727
2.6772845 0.0078364955 0.10943319
3.9881349 0.49281684 1.4727194
5.6402574 3.1752808 -0.00050802762
2.9855323 0.93981487 -0.0059299488
0.55654317 3.0946758 0.91725743
1.347693 0.85806584 0.0088280058
3.3275521 1.4810594 2.0011938
1.9596686 1.2274165 0.000951925
3.676816 3.6080029 0.076261736
1.6816369 0.97136915 -0.0024611037
1.1830423 0.009975641 1.7648691
1.4726177 0.27302474 1.5218974
5.1133814 2.4049661 1.9938176
1.0639795 2.9001913 1.9989815
1.820264 2.0914135 2.0059793
1.1283811 0.67484927 2.0145876
4.0694189 2.6174321 0.0054024374
2.2480178 3.3573008 1.8545914
1.8790784 3.3199999 1.4570833
0.63145232 1.2551392 0.0011983936
2.121856 2.4193926 -0.011474082
4.0135965 0.41840073 0.98851407
5.2341671 2.0880382 1.4564008
5.0591936 2.3037379 1.992437
3.5777647 -0.007461153 0.80857193
5.0020118 1.494732 0.17853549
1.0817366 3.1808069 0.31832463
1.6932389 -0.0068300008 0.048028495
4.5604854 1.5061802 0.88458645
3.1985881 3.5308633 0.71809518
0.29069602 2.2418234 0.002301676
4.3154206 1.5048794 0.14412433
5.0506372 1.631269 0.53494549
3.8543303 3.0140047 1.9986689
0.77116197 0.16810718 -0.0044862214
4.1582003 3.6879258 1.9440441
0.56702751 -0.012005135 0.99721056
0.0057740211 2.1458373 0.32184121
4.9669991 2.8068447 0.020772764
4.9571571 3.385463 0.011950376
3.0392032 0.5584929 0.934093
-0.0095469858 1.383847 1.3672218
-0.0018620908 1.0557246 1.2132642
2.3961804 1.4472833 -0.010678957
0.41997042 0.064691044 0.076365188
1.3779949 0.8469435 -0.005091127
3.2416601 3.5466404 0.6713981
1.0519543 2.1075819 8.8903151e-05
0.63572127 3.0436485 0.014055064
0.41020545 2.3669612 0.00082289882
2.9357913 0.71585733 -0.017449992
0.16708016 0.027463909 0.75328046
5.4397869 3.9155173 1.8619301
3.4142854 -0.019131633 0.41653189
2.8415442 0.53621238 0.76876873
5.3975811 3.7075737 0.020615911
4.1846642 2.5280538 1.9999318
5.3030987 2.4923031 2.0096776
4.1944842 3.5683672 1.9917998
2.5155878 0.0038417187 1.4405949
3.3203397 0.62912029 0.9394685
3.9875257 1.2283076 1.6014185
2.684073 1.0697292 0.0021945704
2.0357502 0.39559895 0.0046523241
5.1710615 3.3419313 0.01361328
2.5916128 2.3224418 1.9965386
2.7667813 0.89325345 0.00097063911
3.3939588 0.058283918 2.0040514
2.1711919 0.40230313 1.8672941
4.8767972 2.7848177 0.01444963
4.988348 3.8338721 1.1692889
1.4374509 0.27351478 0.69206059
2.0402238 0.52236551 -0.0033552952
3.3229017 0.61271769 0.4672105
3.4149265 2.9856915 0.0028844781
1.48631 0.0072035613 0.77900517
2.5441587 3.2214868 2.0040503
4.3273754 3.7150314 1.9980867
5.6367431 3.5339231 1.9813004
0.30755299 -0.0059791808 0.60298926
2.3354034 0.17778963 1.9882106
5.117269 2.1772342 -0.0020478857
2.9533839 3.0921774 1.999927
3.0142479 1.075953 0.0063761724
1.6993924 0.32105663 0.45279533
5.1961141 3.8749359 1.7080563
1.0947462 -0.001986207 0.94852734
1.1220472 0.21742825 1.0416328
0.58468497 1.5722787 0.0016405545
3.6849825 3.5363026 0.0034749538
3.3747776 -0.0051795943 1.4994789
1.3222306 0.0095139556 1.8014427
2.814796 0.51940608 1.368597
5.3147035 2.2543521 1.7479796
2.4798803 0.46521851 0.93556237
1.1051778 2.6572654 2.0159662
4.6391964 1.4927276 1.2880936
0.2666218 0.044492844 0.51767778
0.30728465 3.0519164 1.1177132
0.35700169 1.5118357 1.9997531
3.7913935 3.6183789 1.7765917
3.608273 1.4054638 2.0111129
1.0572067 0.47165257 -0.00054118375
1.788476 0.028077047 1.0382
0.54177421 3.0998278 1.8551408
5.3277411 2.3306158 0.28269249
0.24085137 2.7377431 0.015551435
3.398896 0.63930053 0.22163956
1.930167 2.0028262 0.011354933
5.8210006 3.5729339 0.78886449
0.16961525 0.71032637 1.993355
2.2761519 1.6825879 -0.0086832028
2.8816767 3.4668901 0.65361732
3.6574616 2.3840551 -0.012434564
2.8444526 0.98191708 0.0036423814
4.4827232 3.4779274 2.0041087
0.39254799 0.060898505 0.93474847
5.7624354 3.8152981 2.020225
1.0974963 2.3459148 0.0040649013
5.5256963 2.8246176 0.49396148
0.92116201 3.1436205 1.2649658
2.2312007 0.30140436 2.0111217
3.0521629 0.57369781 1.1407723
3.9827094 0.89507633 0.9616788
3.3943305 0.0065660751 1.8263896
5.0615573 1.7663312 -0.0010965554
2.1119592 2.6487095 0.0013385876
3.5968778 0.18311818 0.019995613
0.44798991 2.9029484 0.0057514221
2.31183 0.67099559 2.0138478
1.4350998 2.3350294 2.0090308
3.4519882 0.11034504 0.0083493916
5.4550066 2.6617496 0.71901816
2.0847445 0.38342744 1.9471087
5.271832 2.2165802 0.23591866
3.3917658 0.4122895 -0.0042782212
1.0957465 3.1856248 0.0304858
5.5896902 2.9876111 0.67741877
5.7222505 3.9611712 1.3869098
4.7678385 3.7763262 0.40524346
0.91456568 0.41729355 1.9878104
3.7177396 0.010868214 1.6036447
0.20125395 0.0021223584 -0.0042572659
3.802078 2.9952888 -0.012588525
5.5509129 3.9334691 0.21673939
2.6607566 3.45123 1.8486086
-0.0065442803 1.8054525 1.4749647
4.0583072 1.4902773 0.61278331
5.7627063 3.355792 0.0018854029
1.0934217 0.50068843 0.00012347274
2.8783793 3.4625442 0.98586154
4.6670671 2.2352319 0.015517791
0.0022380978 2.8135331 0.49699226
1.1280979 0.39321858 2.015578
0.55047411 3.0868132 0.6219185
2.8429551 2.2153571 2.009201
0.77161586 1.4495779 -0.022341071
3.8131444 1.9260284 1.9967995
0.50176221 -0.0080205547 0.59779209
4.7867298 3.793221 0.56158781
1.5487422 1.4364709 -3.2379659e-05
0.021380197 1.1654335 0.7198109
4.4426637 3.7376847 1.3246756
0.01218747 1.737794 1.4463476
2.5825524 1.646867 -0.016950583
4.7048235 1.5121624 0.1662081
0.43786955 -0.0095072631 0.37389466
0.017543757 2.1709898 0.19625497
5.8254862 3.5479341 0.19804934
5.9411783 3.8748631 1.4499271
1.8238126 2.1926475 2.0013046
1.2735531 0.23148982 0.51034993
2.8621087 2.0640404 -0.01524103
5.6410155 3.1163898 0.32262784
2.5194426 0.46161908 0.013751368
0.18199806 1.057351 2.0020618
3.981812 0.067828938 1.3765097
4.0068102 0.87215585 1.3140317
5.1090736 2.2798693 2.0028133
2.7786341 1.3820763 -0.004307365
4.3544598 3.2496631 1.992563
4.782444 3.7682712 -0.008479096
3.4437222 3.5816045 1.8268044
0.0029245419 2.1405802 0.26337892
0.020060739 0.32664686 1.6934031
4.0057263 0.90436357 0.8447451
3.8007774 0.71675467 1.1078157
5.6716824 3.186017 1.0694448
4.3105111 2.8128228 2.0018401
2.785852 -0.0091871675 0.59268892
3.3117142 3.549335 1.1159004
4.9152641 1.5146575 0.18248087
1.1694598 2.0238898 -0.0058598695
4.1963778 3.5294001 1.9889966
4.8832021 1.4926058 1.4992309
3.3312778 2.8064291 -0.0014959639
5.6758342 3.1435242 1.8394707
1.114826 0.20537001 0.5600583
3.7013354 3.6108525 0.83869553
2.1069241 0.0066108485 0.55364954
-0.0085293995 0.38325271 1.6655527
3.5117683 -0.0082715182 0.53528154
1.2311238 2.8759644 2.0134499
3.4082317 0.63348609 0.8019138
4.6008124 1.4920704 0.76250529
4.6581912 1.5208194 0.2729097
1.0996697 -0.0065205866 1.5458137
1.8505385 -0.00037753076 1.9619926
1.827871 1.134202 0.00912508
2.6010532 1.706928 0.016653407
5.2786856 2.1858275 0.90443105
1.2590933 1.4427028 0.0015138353
3.3861494 1.8792971 0.0055291541
1.9182497 3.1838458 -0.013569692
0.0051469235 0.53793997 1.9109594
0.45761243 2.7172744 1.9801016
5.9467878 3.8571389 0.1409855
0.39665589 3.0637326 1.2378782
4.9573369 1.5173639 1.8606721
3.0901875 1.3825622 0.0083140321
1.7425077 0.89189762 1.9782583
4.8275375 2.2435186 0.0012425043
1.6725056 0.30584112 1.1643785
5.7372341 3.9680655 0.21859942
1.0338722 3.1845353 0.4626824
2.3634453 3.0442204 -0.0096275555
2.0788774 -0.00093213934 0.29608771
0.069494717 1.2915351 0.0068121199
0.0030681214 1.6699884 0.8419767
2.2333086 1.4491726 2.0195584
2.0547464 3.3439343 1.687889
2.3209302 3.3745217 0.18566579
3.028712 2.165956 1.9863106
2.5962682 2.7125795 0.0032288078
0.32673097 3.0165739 1.9899964
0.015092894 0.031068064 1.4948398
3.091435 0.56855977 0.49664152
1.064731 0.21405354 0.081458785
2.6538556 0.0030816223 1.083003
2.2318771 2.9735579 2.0002704
4.6033406 3.7539515 0.20593803
4.0087061 1.4314685 1.2426288
0.44605061 3.053261 0.043579169
0.15885741 2.4622602 1.9923586
1.426981 1.736617 -0.0025622663
