# .PCD v0.7 - Point Cloud Data file format
VERSION 0.7
FIELDS x y z
SIZE 4 4 4
TYPE F F F
COUNT 1 1 1
WIDTH 1506
HEIGHT 1
VIEWPOINT 0 0 0 1 0 0 0
POINTS 1506
DATA ascii
3.7275174 1.85589 0.0010675804
0.12371524 0.02061934 0.8867721
1.1830325 0.32730415 1.9923137
5.9663167 3.9950297 1.6666064
2.7335052 0.3286908 2.0012922
1.2731214 0.21661557 0.73540169
0.47118032 1.4084723 2.0003078
4.0094008 1.0281247 1.1714888
-0.030241344 2.6849506 0.15077047
-0.001570591 2.3300126 1.105024
1.6440686 3.1646955 0.016795728
1.4469811 0.99970746 0.0010051386
2.0851502 0.069308288 -0.014539837
0.001129196 1.5727242 1.1398429
-0.007148583 1.750326 0.6952365
1.5558951 0.56755233 1.9954977
3.5018718 -0.006965138 0.8788445
3.1037102 3.3828518 -0.016839722
3.6513 3.5999563 1.8246458
4.7666211 3.6764274 2.0067668
3.3832192 3.5671337 1.680976
3.3257706 0.62186635 1.7839195
3.2852688 1.2410083 0.00016470715
3.7351491 1.8647982 0.0024415141
1.3624403 1.20775 1.9940736
4.0103297 0.78291565 0.23405735
3.0500264 3.5059464 1.9632641
1.4867843 0.28314552 1.6912651
5.304678 2.5396972 0.0012393238
3.4312766 3.567265 0.65067732
5.4857578 2.7270448 1.385803
2.6562519 1.8097094 -0.0055574104
9.7129436e-05 2.0678792 0.48560408
3.5483623 2.3098323 0.0050617368
2.4178331 1.2807734 2.0055287
5.7881007 3.9623725 1.7604914
4.4929533 3.7467868 0.23102288
2.6856391 3.4425914 0.8205117
2.6590374 1.5877777 1.9720551
-0.014960969 2.7534246 0.90674579
5.0575566 1.6243868 0.71017152
4.1557517 1.9247309 2.0109632
1.7348714 1.9541197 0.0040017189
1.9445533 1.5044551 -0.0034277139
5.5062704 2.8001094 1.7828604
3.9681642 -0.0005389888 1.0675194
5.5284905 3.7672274 0.0022653085
5.7025228 3.2698042 1.2534121
4.4848247 2.8357086 1.9995896
3.9991984 0.29569474 1.8809708
1.1092862 1.9539125 1.9969134
1.9407928 3.3401511 0.56334633
-0.024920866 1.4535605 0.072356611
3.1891353 0.59367669 1.9943019
1.4306989 2.0806262 1.9810903
5.8518357 3.6794381 0.68476909
5.0894728 1.7656091 1.7133185
2.1806436 2.2645953 1.9885592
0.40876964 2.4256771 -0.0011526927
2.1134963 2.5565393 1.9976453
0.48678073 2.9338653 2.0072002
5.9276896 3.9939723 0.21286078
3.6888337 2.9482973 0.011057447
4.9724479 3.4133456 1.9874125
5.4994421 2.7887483 -0.0084072798
2.096642 1.8714623 -0.0022782029
1.4906511 1.3767078 0.012810768
1.8174044 3.1601057 1.9985278
1.3958342 -0.0009385579 1.3336984
2.296859 2.9224927 2.0105996
5.469028 3.9197953 1.7631558
0.33899865 2.0115573 2.0022426
2.8736677 3.4786689 1.3465289
1.5666294 0.24293296 1.9970121
3.6425903 2.2338014 2.017462
4.5466013 1.4991658 0.78185755
0.72142661 3.1149087 1.9163003
1.2677815 1.1755373 2.0095818
1.1424819 1.7117441 2.0111382
3.3766468 0.30052516 2.0138733
5.2785211 2.2026684 -0.0098708319
0.21508698 2.3792849 -0.013547127
2.2848446 1.6601095 0.010054377
2.4709537 2.2560062 -0.012325304
2.814652 1.8787702 1.9914088
1.8961201 2.3886981 0.00035775694
4.308672 1.5707353 -0.008897623
0.77836585 0.0064257234 1.5535756
3.4838214 3.560729 1.3072971
3.2449582 1.8055404 2.0081367
4.0022659 0.51469362 0.44786665
3.2794785 1.2396697 1.9990206
5.5133915 3.9245985 0.83590007
1.8604048 3.3038239 0.30074003
1.9090681 0.0019905805 1.5002284
1.7102209 0.33537757 0.80306798
3.9975555 1.4262867 0.11846375
1.1252522 0.0016888183 1.504416
0.13291293 2.5082395 1.998099
4.8844213 3.8094201 1.1558959
4.3849835 3.1642466 2.0154386
3.5073862 3.590704 1.4241229
2.7374575 0.51749843 0.21897167
5.2579598 2.1181526 1.8979199
1.6153318 -0.023312366 0.23971403
0.75679481 0.27599928 1.9878583
2.4165037 3.3247676 0.010715969
5.886076 3.7223394 1.3755186
2.7088821 1.5381439 1.9963495
3.1170623 0.58215576 1.4038091
4.73735 1.4885701 0.70444381
1.8008281 1.4036295 2.009057
5.0297084 2.4288197 0.003823275
1.3628014 0.43676013 -0.0029668408
4.6774678 3.7783318 0.56739742
2.4516623 0.46239221 1.8142128
0.64998919 0.11410224 0.96162647
0.0002148037 0.60260183 0.022880387
3.9178901 1.9233538 2.0049827
5.0209246 2.6760466 0.0014143704
0.29209188 0.05050784 0.20383525
2.2412992 3.364521 1.6972374
-0.0072087804 0.54212976 1.3095055
2.8833218 1.5099086 0.0046682111
0.20847149 -0.017629232 0.98368669
0.45445013 0.077223197 1.8543998
1.8212976 0.55772322 0.011143897
0.91982329 3.1612301 0.38870078
4.9856739 3.8250079 0.2643404
3.9836166 0.74188781 0.13014536
3.4990776 -0.0049973731 1.9868159
1.890411 0.36681351 0.21490832
4.9824858 1.4968958 1.157136
4.4521251 1.5027567 0.73808217
4.6354055 1.5071855 0.55201244
3.3736763 -0.0026985814 0.10332432
3.7969067 0.52034402 -0.007597914
1.1867567 0.87045395 -0.003344883
1.4322433 0.15715921 -0.017748781
3.9875255 1.338016 0.3922053
3.9747939 1.740862 -0.017743297
4.3549209 3.7268586 1.6723551
3.495981 3.260149 0.009274805
3.5260634 0.0011984167 0.42842028
1.066776 2.2144175 1.9989394
1.1405106 0.35750839 2.0019333
4.9235449 2.555469 2.0193803
3.1131094 0.59039015 1.5812881
2.187402 -0.0069668 0.087603025
1.0749345 1.0341064 -0.0079419613
5.3350525 2.3408792 1.6703067
4.2719502 2.9379323 2.0205412
3.1910985 0.60886657 1.0985342
1.1531712 2.7450173 0.015012128
4.6107068 2.3579001 1.9854155
3.9854944 3.6613812 1.9654144
0.38159421 1.8500916 0.01887211
0.099849254 0.028475666 1.1413349
1.9981129 0.36210796 1.3272728
1.1583304 1.5351127 -0.0036113644
5.5985913 2.9833968 1.2168474
5.8992496 3.839149 -0.0052626268
4.2128282 1.5133569 1.7115422
5.7372713 3.3555503 0.72884893
-0.010331769 2.4198661 1.396063
5.4501724 2.5773547 0.031053906
5.4320822 2.6074421 1.9996204
3.9768307 1.0202382 2.0043125
0.7217117 0.0044095246 0.32746333
4.1242018 1.4950384 0.31226546
1.3097031 3.2000306 0.37144747
3.2172008 1.3899311 1.9952731
1.0100044 0.034628525 0.0018244323
0.013312525 2.6006632 0.089662269
2.9655232 2.8258729 0.0030638357
2.2644742 1.7981881 1.9722912
3.8772395 3.6335359 1.9274387
1.500791 3.2607744 0.66164768
-0.021964382 1.2845497 0.089634463
3.0102453 1.2402862 -0.00013078097
4.0040097 0.12003533 0.051363509
4.0988097 3.6691432 1.4612709
3.7240558 0.71373802 0.37464607
4.0094919 0.24296561 1.4712763
1.2932884 -0.0040282933 0.041509189
4.6301255 1.5024811 1.0469462
3.9911089 0.22420463 1.5902849
1.4625636 3.2488055 1.2867626
5.5182076 2.7788358 0.82191616
3.4591246 3.3027244 1.9930174
2.7447913 -0.0079415962 0.150471
3.8651025 1.472645 0.0009634241
4.8454971 3.8038769 0.92273164
4.8064055 3.8176687 0.55442083
0.74099314 0.50837189 2.0011969
1.1605868 3.1876335 1.8852806
3.6198282 2.6558874 -1.0012347e-05
1.6091648 0.25407028 0.009616374
5.0043507 2.2517223 1.9956702
1.2642843 -0.012981632 0.2590757
2.2393258 0.009256728 0.64824378
2.551955 0.48561239 1.1699171
1.8360628 0.18194371 -0.0021222348
3.0950823 3.5204852 1.8345274
2.1522012 1.65927 -0.01408514
3.8844137 0.73104763 -0.0054274136
2.7586215 0.39628994 0.010937325
0.16431914 -0.00019037178 0.061576709
3.822124 3.1082308 2.0101957
3.2654655 1.0675821 2.0065618
5.5027618 2.7401912 0.69396347
3.6302278 0.6776315 1.2802973
1.9016618 1.4212797 2.0132153
3.6925998 3.6174107 0.67880338
2.2583039 1.6022146 2.0125306
1.1751213 0.21267116 0.34810117
2.4469254 2.8630397 0.010671782
3.4042583 2.1683002 -0.012134961
4.4899859 3.7355042 1.4046227
3.3968649 3.1705031 1.9877828
3.6401823 0.24791324 2.0133145
4.6285415 2.1091232 1.9922312
0.57969129 1.4993738 1.990218
0.00052877422 1.2896409 1.8869596
4.4113121 3.4005575 0.0088805174
2.0381272 0.37821874 2.0042782
0.62429041 2.6603796 1.9958807
2.5671959 2.218312 2.0015736
2.3251905 3.3920791 1.8562809
0.0090240519 2.4939034 1.7504212
0.39021769 0.0064397603 1.2923872
5.0698385 3.1305132 -0.018228272
1.4014703 0.26644534 1.2557927
1.0454073 0.0040606675 1.7755259
2.965575 1.0095499 0.0075797513
1.676718 3.28003 0.47966275
5.1064878 1.7691754 1.9168154
1.3786964 1.1079322 0.0010123921
1.8164339 0.052983209 0.0036314994
5.952683 3.8719985 0.72516227
-0.018394481 0.35628116 0.21617799
3.9961193 1.2879273 1.9610101
3.499033 -0.0054704454 0.63276094
0.0090959389 0.6653893 1.9742224
1.8672692 0.35066333 1.5144696
4.0078983 1.8609537 2.0002096
0.092714794 2.8464308 -0.011173671
4.1629028 2.1599519 0.00072542281
1.0634135 2.8324833 1.9923409
0.36658832 -0.015303406 0.50488269
0.53551537 0.00039424334 1.4313576
3.6390018 0.054601945 1.9884237
0.82938242 0.71302086 2.0150793
2.6554723 3.2134707 -0.0077399365
0.010940772 1.8387816 0.42923531
0.14377107 0.050259475 1.0829819
0.32005718 2.9018037 0.013228497
0.49136585 -7.2443057e-05 1.6006901
0.13267955 1.5649672 1.9775889
3.6440599 0.70210171 0.91321236
1.6219121 1.4442641 0.0054850895
0.77647704 2.9322102 1.966513
3.9352458 2.7696605 0.00056078442
2.0374134 -0.0035863786 0.73765212
1.2108727 0.0047443658 0.85366184
5.3995829 2.5007255 0.87825561
0.16113809 0.035090134 0.92535079
2.1543691 1.9087272 1.9932233
0.005089236 2.8699865 1.2882261
5.2177877 2.5960844 1.9905066
3.4555321 2.3462045 -0.018913966
5.6435132 3.1042175 0.71352994
3.3376865 -0.00033825572 1.598323
4.7372551 3.7824464 0.69481879
0.78054976 3.1339791 1.2857301
4.7586751 1.4958516 1.2272599
0.56632912 3.0792351 0.87881929
0.43232322 0.083517365 0.88250971
5.1967783 1.9824719 0.81412768
-0.0092204809 1.1729027 0.24857898
2.1921554 0.42062277 1.7473265
3.7071493 3.6033592 0.17238207
0.53526086 1.9809182 2.0100086
5.7729664 3.4443448 1.6910688
0.0028091201 2.9040921 1.814236
0.55988789 0.9622438 0.0032368076
0.69826621 0.11325694 1.4816495
1.9045357 3.0827065 0.020034639
2.6411023 1.9997761 2.002331
0.014654544 0.026323544 0.54185987
-0.0053871637 1.1176875 1.5133594
2.24488 3.1065023 1.9958465
1.3273513 0.78983521 1.9824969
4.6826854 3.3903294 2.0055709
5.7488527 3.9643803 0.085232653
3.2395017 3.5553274 1.164342
3.7625647 1.0501018 0.0013661165
0.90868187 0.55120093 -0.01042224
0.22455063 1.1191961 1.9942598
5.0916533 2.6870952 2.0015287
3.6011183 1.4953921 1.9881799
1.4191098 2.8545873 1.9983358
1.711183 3.289506 1.7943867
2.520247 3.3375878 -0.0012238047
2.8610101 0.24912255 2.0071425
-0.0021474333 0.072119355 0.57911843
0.020596838 0.84654206 1.2057941
3.1278584 3.5342278 0.41569039
0.47481287 2.4576113 -0.0059948037
4.999908 3.6554914 0.0049600522
3.494278 0.0028112633 0.95022547
2.6225123 1.9779795 0.014831524
4.4192176 3.7248342 1.5554715
5.4431353 2.8450842 1.9838357
0.82465094 3.1448548 1.9727647
1.3032942 0.25632301 0.098998144
2.2121224 1.5107552 1.9934077
-0.001724316 0.28046358 1.3904904
4.311636 3.7029049 0.80072075
0.6538592 0.11126938 1.4875764
3.8230331 3.2006226 2.0027511
0.061219152 0.011450668 1.6557934
4.9957552 1.4729748 1.9192699
2.307936 0.43088213 0.026742453
5.3336511 2.3521562 1.179749
2.4132805 3.4046547 0.22472
-0.010024267 0.23991111 1.4623914
-0.0065276609 0.90235204 0.15468974
0.40282628 0.064507313 1.8245388
0.13751023 1.1646932 0.0013113319
0.67508787 0.11901317 0.17678297
3.8064458 0.72419536 0.45577475
1.6461596 0.30897343 0.97543144
4.484292 2.7586718 1.992539
4.7875648 3.8057809 0.98261541
5.0989943 1.8013526 0.57837808
1.939428 0.20175454 -0.0087949857
5.6872921 3.2352822 0.8226611
5.6019945 3.0361159 0.35019237
0.97833627 0.945943 -0.0058914777
1.0008388 3.1742516 0.22897312
0.019256085 0.014075629 1.2993823
-0.0045093726 0.9482252 0.48593304
4.463727 2.5772893 1.9991585
4.4119592 2.2776496 2.0022938
4.0004315 1.5178615 1.9996312
3.9998214 0.32480472 1.9026542
3.6416824 1.1797274 -0.010999753
1.7685273 0.49472845 2.0011296
2.425591 0.45778307 0.23930877
1.9656783 0.3674213 0.65785122
3.0405445 1.604786 0.002555599
3.2067592 0.1464925 -0.007181786
3.7545421 3.606436 0.44785339
0.0067398944 0.96353573 1.770473
2.4583747 0.54630554 2.0008738
-0.0095691504 0.059833053 1.3384166
2.623841 3.4473934 1.0028076
3.6490245 1.3360279 0.016365314
4.6135545 1.7189944 2.0137179
3.9988298 1.4377877 1.919866
5.5723553 3.6847229 0.0013080112
2.5430257 2.4230177 0.0038987186
2.3891788 0.011653111 0.51973885
2.1465466 1.9023713 0.014794451
2.5354044 1.4063672 2.0100574
1.6308041 3.077806 2.0100288
-0.00042934224 0.79684311 0.75968766
1.1747155 1.9355794 2.004637
3.3645961 1.3404303 0.014243827
4.0181408 0.99689472 1.9221965
5.3546233 3.200196 2.003551
4.0090451 1.4531038 0.18343195
4.0298295 0.91514885 1.5021966
0.14294253 2.8143904 2.0176837
1.1124038 0.21108042 0.69415587
0.88003916 0.47444242 1.9937456
4.5903502 3.7593372 2.0009379
0.0077875834 1.9592655 0.34913015
1.7352763 3.3019722 0.9605915
3.3290625 3.5564561 0.33119205
5.1140466 2.2387302 2.0063405
0.0065195565 0.31720984 0.6474821
4.4095597 3.1526058 0.0011848261
4.5265689 1.976925 2.002064
1.9787951 1.0686483 2.020489
0.55562401 -0.015950283 1.1721903
1.2309597 1.7182205 -0.00083643605
3.417134 3.5727174 0.29745674
1.0752606 1.9121411 1.995347
5.3583837 2.4018397 0.85410339
1.464844 3.2268579 0.96071231
5.3756285 2.8870757 1.996797
3.352529 3.5566056 1.2804291
5.254385 3.849395 1.5012491
0.87889761 1.6544294 0.0122763
5.039175 3.8116047 0.0092304582
1.9289074 0.92330146 -0.0075007286
4.8309197 2.7650304 0.0077019688
3.5817201 3.5923488 0.42309454
3.1488469 0.57755506 0.75084418
2.7010646 2.0227506 0.001250844
1.2665217 0.23470314 1.7153816
2.293896 3.3691092 1.4743735
5.4871845 2.6786492 1.9414955
5.5130019 2.8294244 0.03542966
0.30787668 3.0417845 0.026400803
-0.014514447 2.5506449 1.4516158
3.7465632 3.5165994 2.0093095
2.7137613 2.4462049 -0.014045168
1.6803714 0.17951776 0.012703912
-0.0051571648 2.0851238 1.0110359
2.297101 0.43467176 0.030147461
3.9537413 2.8264608 0.00047825158
4.8113084 3.788759 1.1279629
2.7269626 -0.0056710201 0.64531851
5.0379481 1.5338429 1.2384971
4.6823969 2.6389706 0.012516095
1.5324712 0.89356124 2.0039136
3.9556456 3.6785996 0.48414928
0.04831446 -0.0010183882 0.2626203
4.0079498 1.4512874 0.55222648
3.9309478 3.6671243 0.74695933
3.5447617 0.00047839325 1.9160656
2.5086172 2.4785523 2.0140493
4.8771181 3.2896371 1.9986894
0.63115335 1.1503799 2.0020602
4.0158911 0.03097282 1.1590737
2.364213 3.3933532 0.34019974
2.1680148 3.3763044 1.7451503
3.4657845 3.5671592 0.49771595
2.997153 2.3324161 0.0023136695
1.8309689 0.78220379 -0.0129457
-0.010206165 2.4057174 0.55920929
0.43868026 1.5123935 -0.019068558
0.39250487 0.26902628 1.9956547
2.0864332 3.0741813 1.9771689
2.4555407 3.4131784 1.858603
1.1684659 -0.00011163566 0.2183079
1.6913567 0.30689126 0.9545747
0.61471665 0.13140494 0.50010628
0.19537362 1.437683 1.9962068
3.3918695 3.0159009 2.0097475
2.292613 3.3581812 1.3871002
0.25926644 0.029527998 2.0135903
1.5508599 2.8338337 -0.024293298
0.4941712 2.0950098 0.0019914766
2.3609917 0.44096607 1.7311801
3.6917827 3.6058447 0.13671443
2.3915744 3.3921618 0.94110107
3.9957588 1.724926 0.0094325915
2.9555707 0.54069322 2.0060761
0.49058324 3.0742116 1.9905388
0.19733481 0.041785117 1.9682939
4.2419057 1.5025358 0.29692483
2.6800194 0.52801561 0.85906512
1.6439564 3.2767494 0.93750393
3.517036 1.010343 0.0020100025
4.2525597 3.7188892 0.68013525
-0.0078590121 1.7187392 1.2745112
3.3778851 3.3562155 -0.00082762679
0.65468055 0.17436011 1.9914789
1.8860146 0.0066962768 1.0147588
4.6675391 3.7932124 1.1913816
0.002942398 1.6503916 1.6950727
3.9320135 2.9335546 -0.0043069264
4.1748166 1.501058 0.57223415
-0.015236947 0.62488794 0.14755003
2.7866223 0.011142657 0.23838271
4.5537472 1.8951629 1.9866859
4.0026598 0.74939173 1.5411639
2.0670707 -0.0044896295 0.083319046
0.70174992 3.1099207 0.8866024
0.96947449 1.768607 -0.0069535845
2.6694295 0.011033865 2.0021813
5.8817964 4.0044198 1.2122881
4.009068 1.4599605 1.5070678
2.295027 0.36004052 -0.010849969
2.5211267 3.4279854 0.43202418
4.9666786 3.1609647 0.0020645179
5.2422929 3.464612 0.016794881
4.235703 3.6858051 0.53070545
5.6092172 3.9432867 0.35070613
3.9939029 1.1123096 0.64288568
5.638864 3.0823164 1.4847102
3.7717321 3.6216061 1.5081519
2.0148246 -0.0025253978 1.2879425
4.4964328 3.7392516 0.3105031
1.9200193 -0.02180122 0.79311007
5.03615 1.6022706 0.42576915
4.1390133 3.3533041 2.0088918
2.3087986 1.5089 0.0040097102
0.88543868 0.011078764 0.004211965
4.6391768 2.1052213 1.9907645
4.7381968 3.7833543 1.5402836
2.3368764 0.00090332434 0.47280589
3.3402381 0.82911897 2.0073326
2.51773 3.1762292 1.9908617
0.36506391 3.0602508 0.91634709
1.6254616 2.3774776 -0.002607245
1.7177243 0.9209097 2.0129313
2.9809918 3.4919705 0.42349389
4.4295487 3.730315 0.44197288
1.114107 2.774467 -0.0014830675
0.87081653 -0.00041753746 0.98851782
5.9836245 4.0012527 1.592975
2.5641091 0.47339451 0.96682245
1.2852811 3.2352931 1.4287405
-0.0060416753 0.14342664 1.3022811
2.7911713 0.074648775 -0.003639919
2.6036124 3.4338815 0.67151356
1.908247 3.3246992 1.0427462
5.5954981 3.0028996 0.68414932
5.7219205 3.6093314 -0.020280421
-0.0049628867 1.0250175 0.57345498
2.8301477 3.4841039 0.34835538
4.5833912 3.6622522 -0.0091273012
2.2177377 2.7248948 2.0022936
4.7253199 2.3557601 0.016315049
0.051180564 1.3476142 1.9853537
2.2858155 3.3653126 0.49166736
4.641789 3.040242 1.9890463
5.6238728 3.0727675 1.6475441
2.5642705 3.4454124 1.0235435
-0.00030376893 2.2213881 0.84006381
4.6479979 3.344867 0.0053992905
0.076792344 0.63670665 1.9868397
0.59080422 2.1065235 2.0027201
3.2707262 3.546653 1.5871882
5.3570738 3.9104965 0.11948363
0.19723016 2.9414983 2.0037763
3.8813329 1.5596548 1.9926691
0.23053208 1.3788912 -0.012068649
4.5540147 3.7364614 1.9896604
0.0015289832 1.0232124 0.26266631
4.8300176 3.8020985 1.3425879
1.3373994 -0.005560488 0.65509349
0.55616909 0.10021249 1.2060393
-0.0018499626 0.0056211003 0.80011028
5.2340474 2.3729799 -0.0050348016
4.5132117 3.7393396 0.82371688
0.18836187 2.3427126 2.0089581
4.7304792 3.8117824 1.5267212
2.9232078 2.222924 -0.0087471781
2.5934486 3.4247217 0.56756157
-0.0026674729 2.4935656 1.2573428
3.9949 1.4518354 0.24896556
0.10340747 0.02027246 0.19360122
4.6000776 2.8187284 1.9926368
4.0062571 0.35275143 1.4752852
2.07249 3.3325818 1.9182769
0.8579576 3.098582 -0.013467105
0.0013473345 0.21863255 0.58141345
5.6481748 3.0723464 1.2266617
3.8668118 -0.0071408516 0.12878197
2.8486598 3.4505324 0.17843826
1.7988225 -0.0053632264 0.52711111
2.1196134 0.40800056 0.43173119
3.9905756 0.4328649 0.73682815
4.6866527 1.4883989 0.92945784
3.0955579 0.59155089 1.2870408
4.782887 3.7840569 0.76643306
4.9827404 3.8253555 1.0611395
0.74433577 -0.02506684 1.1744958
1.5988115 0.33158761 0.46137914
1.059249 -0.013504867 0.5000003
5.2397771 3.860194 1.6907166
0.50458598 -0.031588815 0.27809036
3.2659976 1.0913398 2.0007906
0.28454095 0.020871198 0.16111
4.4676986 1.5033747 1.9740515
2.985935 3.3873479 0.009335883
5.1952572 1.9831742 1.0809145
4.4321151 2.8187759 -0.0012648272
1.9096794 3.3212578 0.69053942
1.7827348 2.7475884 -0.0080624847
3.8845482 0.47729269 1.9883367
4.5291882 3.7493098 1.6419735
4.8747606 1.5048846 0.61057138
2.3049493 0.95764345 -0.012625211
0.97698849 3.1530094 0.0054632556
5.9048858 3.7216778 1.912433
3.1733587 0.0065112817 0.80960917
3.0156572 0.011361512 1.7929949
3.9890704 0.23227437 1.8539504
5.6746511 3.1760821 0.83215386
2.2720776 2.0337281 2.0013938
0.10772635 0.14932208 1.9913318
0.86421037 0.56433499 -0.0052301059
-0.010962607 2.1844182 0.77946603
0.26412851 0.81282663 2.0063059
0.61504209 1.1204218 2.0061772
2.7064142 0.49708161 0.95190072
3.4928718 0.65169352 1.9558464
3.9980226 1.2867185 1.6410204
4.2578835 2.259762 0.004946325
1.7059628 0.32138962 0.31140053
2.5043275 3.4244993 0.16827258
4.2848096 1.9740611 0.0036083569
3.7491496 0.55404377 1.9845045
1.3292265 0.010657357 0.57865053
3.6090128 0.31096843 -0.0029721104
5.2317052 3.7370677 2.0147991
3.2852769 3.5423436 0.14193067
5.3530793 3.9049153 0.92601782
3.9239919 1.0526965 1.9848471
5.4591131 3.9037848 0.62534422
4.0523376 3.6649411 1.9944123
0.99814659 0.77849859 2.0077841
2.7388468 0.1014493 0.011234869
0.0093051707 2.2798011 0.75749004
5.8281279 3.5263946 0.24829531
1.2302147 3.1901202 0.50291616
3.4239728 1.0677271 1.9942939
4.0154328 0.22013916 1.4282291
4.8528991 1.9652865 2.0161624
2.9496648 0.54096889 0.43844709
2.5620434 0.091025151 2.0050538
2.3200693 2.9953206 1.9979746
4.1428833 3.6924369 0.57860649
2.1645331 0.87171924 0.0065686842
4.5843449 2.4607151 1.9954679
3.461031 1.1957605 -0.0020812575
0.00230731 2.8161027 0.29195184
1.3888168 0.27076632 1.4969975
0.47484183 0.089541458 1.2878146
3.6201086 -0.009163402 0.2383516
3.3880916 1.9312456 2.0042968
3.5698102 2.0615268 -0.010591051
0.016523967 2.4574957 1.0409459
1.1237129 -0.0043876758 0.84279788
2.0318079 1.2928699 -0.0064330092
1.5053654 0.0030421091 0.62007982
0.01110823 2.9170585 1.1063391
3.2041993 0.84348184 -0.0090545285
2.4834859 0.0040186862 1.7901189
0.019249069 2.6069264 2.0042055
5.8273916 3.5790474 1.6808621
0.4366613 2.7147045 0.0074371733
5.6372519 3.1051397 1.1467724
5.4700685 3.908808 1.1976261
3.6272862 0.00013904253 0.074353583
4.0110736 0.87272751 0.62136996
5.0961127 2.7738955 0.0072111068
4.6379309 3.5705574 1.9756316
4.8422508 3.8121145 1.6983596
0.11590526 2.2552898 1.984392
5.1443233 3.5019341 2.0001714
0.33201936 1.0727839 1.9981484
0.61588514 0.011394671 0.18782447
1.5667291 2.3201339 1.9896967
3.2916799 2.5959313 -0.0031233744
3.8030343 2.4578319 2.0195036
0.46593636 0.017517446 1.0039287
5.2210054 3.6031418 1.9944052
4.1804085 1.5683501 2.0016892
4.0095105 0.83329898 1.6476021
1.2107887 2.1374254 0.0013158295
3.7338049 0.42824477 0.011456234
0.3185502 0.27857441 0.0001551442
3.0433068 3.5009346 0.069355793
1.7528832 0.010139348 1.0004567
0.30510372 1.2625169 -0.011283806
3.3503599 3.5441799 0.7104851
0.42071861 1.626811 0.0037524134
0.73047161 2.935607 1.9995748
3.6449594 1.3004118 0.010731667
5.9290285 3.8262649 0.93306077
2.73511 0.50945544 0.98737401
3.8179574 0.00014409213 0.88487291
4.3285623 2.2057056 -0.0057878993
0.30124888 3.0390089 1.3032802
4.0693583 1.4954606 0.63978046
-0.0040286337 0.042966574 0.28426927
0.53847343 3.089587 1.8724136
3.850956 0.70632935 0.75958902
3.3041401 1.5040842 0.0015358562
1.6055392 -0.008652688 1.2829748
5.0104852 1.5412312 0.64311093
0.63062632 0.12502505 1.8758464
1.525916 3.2444968 1.5570602
4.3218021 1.4857078 0.89528108
1.6985024 0.29004055 -0.0036262404
1.9783936 0.36972952 0.51767939
3.9986048 3.4004624 0.01009789
2.8380396 -0.0089275278 0.099990696
-0.017204959 2.6047764 0.68006098
3.0460749 0.22265244 -0.0073452471
4.4992752 1.4960451 0.036353573
0.00304667 0.64689064 1.2692858
4.0176139 0.070989981 1.5212063
4.1696329 3.6904807 1.7176894
-0.010821308 0.008972764 0.37113315
0.24151835 2.4849503 -0.0081561357
2.5931489 0.47165939 0.9595449
5.0803638 1.6881815 1.5828466
4.7114568 3.3788137 0.0087408554
3.0662205 0.57777828 2.0059428
2.786551 -0.002070301 1.1512746
1.727048 0.32968134 1.2405763
0.23839991 1.7878637 2.0023637
2.6769783 -0.0082699638 0.72639024
5.7226815 3.3189316 0.66749048
4.3974457 2.6757011 0.014950647
1.794504 0.01741698 1.8837135
1.5728691 -0.0011107521 0.22344479
1.6214643 0.30903608 1.2418903
1.0824847 2.9492962 0.010344102
4.0050783 1.018801 1.7029954
0.24761942 0.055991843 0.99927163
1.7234505 1.0289559 1.9874771
5.218823 3.8765152 1.1118742
2.1997702 3.3479548 1.6400856
1.9130701 1.136391 -0.016662367
1.882937 3.3291171 0.048866984
2.5259876 0.46723238 1.3904179
5.6961598 3.949095 1.2068266
0.010921532 2.7502055 0.11376582
5.5711908 3.5194926 1.9955941
5.7501326 3.3401029 1.8527943
5.4832168 2.6997058 1.4969373
3.3744245 0.52384692 2.006042
3.9950287 0.75023174 1.1570045
2.6976595 0.23028947 2.0068154
0.6565544 0.7114206 1.9881648
1.1068163 0.92802733 1.9963866
-0.0075779078 1.534381 0.7695682
1.3510858 1.427089 2.0026469
1.5487233 3.2628508 0.22746921
0.0059949155 0.19209875 0.84276402
4.790628 3.7823436 1.5827125
0.0089255422 0.25679129 0.87074149
0.0048807738 3.0032375 1.7854629
0.63690317 0.016146546 0.36657396
2.9374616 0.47532538 1.9901832
-0.011050385 0.93397409 1.8972156
2.7895198 1.9921267 0.017864816
5.6552773 3.1484275 0.42089114
5.3962226 2.4854302 0.24089777
5.3887486 2.443614 1.8151783
5.6295094 3.1021576 0.83697981
2.6352391 0.49128827 0.10711789
1.5707879 0.78090292 -0.010515447
3.0374198 0.5664463 0.96108121
0.55127287 0.93525571 0.0031023112
3.6887426 2.0238225 2.0077686
1.1436448 0.21879509 -0.0070164455
0.088288695 1.6508051 -0.0029476434
4.3162956 1.5067604 0.6441896
4.7094059 2.8021481 2.0203159
-0.0058529335 1.7123315 0.14768822
3.0525384 2.039705 0.011394661
1.2517319 3.209285 1.0446842
2.0019019 3.2751389 0.0044586509
3.5694416 3.5834384 0.85244626
2.3372617 0.42360985 1.8857807
2.6273072 0.090159051 1.9849789
2.7478116 3.4508784 1.8477361
0.085215107 0.17973083 -0.0095984321
0.011818142 2.3297079 1.9888879
5.4623494 2.7272279 1.9823922
0.9306277 2.3652847 0.0067666536
1.9550179 1.4446329 0.015405819
5.1849856 1.9337395 0.77607447
1.4689202 3.0985937 0.0098734479
0.93432641 2.7185886 2.0006537
2.8728058 2.9047747 0.0042288145
2.4150553 1.1571698 2.006701
1.2034523 3.2141044 0.20514023
3.1364732 -0.015214182 0.24222653
4.0004764 1.2618495 1.1922432
5.6507659 3.1587029 1.0934734
3.7374334 0.0074347793 0.45956165
0.53343391 -0.010954036 1.0367949
0.01840107 0.49504486 1.076279
4.2761841 1.4914004 1.3648707
1.9295912 3.2097964 1.9911786
4.0146947 0.0076146363 0.079133742
5.2031569 3.2727456 2.000921
1.2311004 2.5280991 1.9989296
3.4364479 -0.0001787543 0.78982329
-0.015437474 1.7915373 0.61165458
5.5621805 2.8815227 0.2572104
5.2286644 3.5111618 0.0099122329
3.6063373 2.2752302 -0.012325337
-0.015470966 -0.0063972995 0.91017419
2.7621512 2.424763 -0.00058293657
3.8937452 2.3929696 2.0059235
4.2003064 1.5066631 0.50330818
0.34652776 -0.019714251 1.5237559
3.9962256 -0.0056455894 1.8203762
2.799953 -0.0041194772 1.7103457
1.0781775 0.39305282 0.0029668149
1.6019126 2.9215465 0.0062422254
0.4969337 2.5122576 0.016305339
-0.0055991998 1.5416329 1.1329522
1.8922112 0.014316834 0.017640162
-0.011220288 2.9674277 1.6183819
5.204731 2.5332127 0.0070014247
2.4238622 3.1098716 0.0026641011
5.5948043 2.9947979 0.93770236
3.7329497 1.5485687 0.005287875
0.36449224 3.0596197 1.9629982
5.5621052 3.9076486 0.23414148
1.9013906 2.349076 -0.01718607
0.50305402 0.095011614 0.90971988
5.3232861 3.8844092 1.4889013
0.52742583 1.4125482 2.0004361
1.2187985 0.0098018954 1.0326509
3.4796345 0.65462667 0.059543334
1.5362617 -0.00042765192 1.4077837
5.6595998 3.1138885 1.3183455
4.6350217 1.9972702 1.9986293
1.8868654 1.0600919 0.0028288781
5.12638 3.2850227 2.0042589
3.4613492 2.7443712 0.0030584433
3.6116698 -0.0012492974 1.6081212
4.3596678 1.4985844 0.039714571
5.176383 2.3941557 0.0015572724
2.2572813 1.2024198e-05 0.4403089
3.4234474 1.4802386 1.9895587
1.4914954 3.253279 0.80096275
5.318675 2.2900352 1.0366132
-0.021010576 0.30791551 0.94926488
3.2367115 0.61201596 0.68957859
0.063474379 2.0636172 2.0176187
1.0724541 1.2409558 0.001878401
4.8233848 1.4918495 0.1618762
4.0129576 3.2320018 -0.00531046
2.8083971 0.51829535 0.020422019
2.5995014 0.48894536 1.0522908
1.9295317 -0.012957082 0.41690964
3.3242373 3.1774848 0.0071296492
1.4322369 0.25703549 1.3078457
2.2524817 1.0264428 -0.0012533357
3.8801601 3.5295377 2.0218518
1.1362112 0.20601419 0.30313697
5.8303294 3.6425509 2.0265715
5.439425 2.6068144 1.0894396
4.5422292 3.0058098 -0.00013077362
3.9826696 0.21662678 0.85123527
4.5342541 3.7550013 1.9323761
1.6919008 0.89502251 1.9896905
2.5531869 3.4132955 0.63282585
5.7097921 3.262747 1.5796405
4.8842502 3.8222134 0.80276871
4.1357732 1.4751332 0.5657568
2.1133406 0.18441045 2.0015476
1.1534264 2.5980656 -0.0022058133
1.6277877 3.1463566 2.0055451
2.2556376 0.43064329 1.1503655
0.95533997 3.1486814 0.013431015
0.49591267 1.0526068 -0.010753763
0.51474613 0.11074608 0.095426634
3.1330833 0.60194576 0.18504351
0.40838382 0.081041597 1.2018801
0.53378099 2.6807508 2.0128086
5.9454989 3.9063389 0.52704
2.5902102 1.1227926 1.9898578
4.0046306 0.34550357 1.4469328
4.0043411 1.0647421 1.9114786
2.7199719 0.50176144 1.8816656
3.4751565 2.7962816 2.0053499
3.9613793 1.8767262 0.012103044
2.13766 0.56662124 -0.012289115
5.6756291 3.1874382 0.80454123
0.76301426 -0.0018606711 1.1123286
3.9958203 0.24640223 0.025007177
1.9416111 0.70081514 2.0128233
2.0535996 3.347939 0.53529263
3.9144421 1.5001411 -0.016311578
4.8202662 3.5781732 0.0025655807
4.5008192 3.7680185 0.50010443
5.5920911 2.9998391 1.8330848
3.9947011 0.34409308 1.1146691
0.97249252 2.4974709 -0.010239546
3.5172637 0.86251837 0.0047123758
4.7791481 3.7997036 0.80422539
0.75727975 -0.014680523 1.9905194
0.88624781 0.46131578 0.0022878598
5.0464277 3.8183959 0.42425337
5.8784242 3.6462407 1.6798433
5.7644191 3.9622154 0.00010285569
4.4794765 3.600966 1.9921578
1.0130745 1.607728 1.9961008
1.5042447 3.2516861 0.049811069
1.1823202 -0.0044153393 1.6366602
3.6329799 0.031160889 0.00021147111
3.2691307 3.339191 0.01199357
0.95615482 3.1664021 0.7455225
0.42150798 0.065926954 1.0010065
0.40828693 3.074034 0.29165298
1.4229243 3.2528956 0.94521427
3.7060995 0.74696201 2.0066538
1.5519041 0.28744495 0.077867895
0.70159578 -0.0096908249 0.37753406
0.0059547224 2.9264462 0.73129874
5.4359989 3.8927543 0.014504717
2.5590193 0.70670211 -0.0010973176
3.708122 2.3721743 -0.00081089092
1.7419997 2.5673218 2.0068126
3.7357101 -0.0045091137 0.83884281
0.34785327 0.059051972 0.96177584
1.2896203 0.23655419 0.25897023
4.6433234 3.7814438 1.4095923
3.9041193 0.74030697 1.8327899
5.2339473 2.0687983 1.3544674
2.1495657 0.4052577 0.68866193
0.8949362 -0.0059139463 1.4218023
3.0025456 0.56485444 1.0367746
5.1698952 3.8439093 0.52441061
5.2313361 3.8722548 1.2353418
0.22386999 0.012016145 1.0450367
4.0029426 0.024032798 0.28766969
3.1957185 1.0786995 0.0093950685
3.8855569 1.9157456 2.005887
4.3161817 3.7121999 0.49525285
4.3213763 1.8301618 0.013468774
1.6267687 2.5017257 0.012508297
2.2778432 3.3784132 0.22576666
5.3647628 2.3629589 0.62860388
3.7641065 0.26055518 2.0034628
0.58329797 3.0953445 0.91604143
-0.001592189 0.4951432 0.40638319
1.854054 -0.010873764 1.3712431
0.69695282 0.020906109 1.5307736
5.1466899 3.4682088 0.010096481
0.83374518 2.2402687 -0.0055218115
0.81425047 0.010353409 0.088817775
0.017938042 2.9574752 0.31135401
0.00084457529 1.7921224 0.15720233
2.9150112 3.0754473 1.9939626
0.65061837 -0.00079267152 0.45511776
0.72096312 2.1013474 1.9740787
1.1431642 0.21378431 0.94334638
5.9747143 3.9009845 0.082867786
2.6301625 0.47562405 1.1387968
5.4033327 2.5228636 0.82423997
4.8823256 1.495458 1.8491987
9.7859775e-05 -0.017685005 1.8112713
4.7962503 3.4129248 2.0080712
4.9525614 1.4988739 0.92628628
2.5065217 3.4209776 1.1177735
4.5984421 3.5161033 0.004380309
2.8301361 0.027472578 0.0092232488
3.4406333 1.7657307 0.0077556241
0.95955688 -0.0011711587 0.98634928
3.9967687 1.4050943 1.2795007
3.1170998 0.066677704 2.0059843
-0.0095529128 1.7391599 0.28930965
5.9149961 3.8084528 0.9749912
-0.0035837763 0.50861907 0.66265225
0.23724285 3.0336616 1.3887675
2.6782799 2.7412801 -0.0083489669
5.16573 3.3566225 -0.010407459
4.8834672 2.0970993 1.9930023
5.8103256 3.969135 0.94196284
-0.0085966475 1.6596334 1.3033414
1.929912 0.3775233 1.3338408
3.7143054 0.60415208 -0.0017253782
2.0354674 2.051564 1.9923649
0.069068559 -0.00018491621 1.4701763
4.5841417 3.7453055 0.41733003
5.5228715 3.9160516 0.073915891
4.5867777 3.7095757 0.013013389
3.0466619 2.4241118 0.0013120843
5.7552786 3.3805468 0.36769038
3.4464672 3.3707178 -0.00024443504
3.287889 0.63010859 1.8973458
0.0065076146 0.50239223 0.12052732
5.0022831 2.4585145 2.0046475
5.5466838 3.9307952 0.69099522
0.0087231342 0.17565137 0.65716958
1.8308681 3.3077264 0.76597977
5.6728621 3.9404848 0.014449463
3.2213273 1.4454634 1.9955515
1.1160353 0.39523551 -0.0088766217
-0.0051103681 2.0220444 0.94061494
1.7635531 2.9715562 -0.0040910295
0.20500048 0.0082584601 1.3572736
3.7116454 0.0071895546 0.88003349
1.138419 0.82607836 1.9869356
0.22884774 0.36327752 0.010598408
4.0083523 0.45858416 0.9002111
4.0003119 1.2885243 1.7790082
3.0798776 0.64566213 1.9950808
5.545486 2.8250401 1.8929231
0.00046430418 1.190043 1.5300974
2.4983413 -0.0033494614 1.92623
4.3945036 3.1257281 0.00028634182
3.3712349 2.8281419 2.0137954
2.4018655 -0.0091401115 1.0352079
2.6913271 2.6236322 2.0055547
1.7603439 0.99702418 -0.00081445964
3.2516575 -0.0064611943 1.2309875
0.02822154 1.1409667 -0.0087072039
5.9588151 3.9972377 0.95639765
3.7917652 1.8045232 1.9872307
3.8179526 -0.003114487 0.8752262
0.30444106 2.9812679 2.0023313
0.27660337 0.11020391 -0.018771805
1.2983004 0.25074509 2.0239706
-0.025830926 0.48729789 1.5504752
2.0753102 1.1757486 1.5017348e-06
0.098015055 1.0266212 2.0113342
2.7723858 0.30363894 1.9905814
1.6196949 2.8735013 1.9946566
0.55275846 3.0865769 1.7606642
4.9271822 1.4983934 1.3545963
0.23599039 2.218142 1.9955683
3.1667409 2.9579749 1.9923275
4.0157328 0.073121913 0.80462664
0.052126355 2.6944911 0.0034565723
1.4405315 0.27479568 0.36769006
2.5791581 0.46865317 1.067374
5.9737616 3.9289417 0.99779892
3.3495739 2.9438441 1.9998788
4.0089722 1.4425975 0.65409029
0.012208801 1.6824914 1.1916747
0.97821802 2.8168809 -0.013150495
0.23384821 2.6105721 1.9873435
0.9779098 0.18902288 0.56700057
3.5017884 3.314352 2.015707
3.474158 1.2287648 1.9888409
1.7104268 3.1931803 2.0027752
3.4665334 0.00079029554 1.0093629
4.1276774 2.7676804 -0.0076452154
5.024663 3.8158617 1.350379
3.6226578 0.68153816 1.573258
0.78234565 -0.009898847 1.265974
5.757061 3.4100878 0.60443395
2.3359585 2.7618182 1.9903965
4.2828927 1.5156989 1.3170236
5.9887905 3.9470901 0.92516994
3.6828542 1.8288447 0.0057566445
1.2981241 2.0558095 0.0040962375
2.7316084 2.9970653 1.9916083
1.5796567 0.01435407 1.7433202
0.0036842299 2.3759375 0.18208794
2.1439493 0.53549188 0.016533701
0.60108966 0.037942089 1.9885086
2.6122587 2.2729871 0.0021789705
4.779386 3.8113165 1.9211876
0.13369271 0.1305536 -0.01369355
2.985558 0.0029281368 0.77935427
4.3284192 3.7165208 1.8622792
4.0272784 0.71445876 1.2593729
0.47394997 2.7532032 0.0053755953
0.93757927 2.612982 0.0061870432
3.1838841 2.1608083 -0.015183176
2.0110919 1.5569502 2.0001476
0.01587002 2.970839 1.9861637
3.8303521 1.54352 -0.0069996174
0.01139322 1.7822369 0.94800299
1.0434293 0.19574846 1.1829393
2.762615 3.1265523 1.9970509
2.4478817 -0.020005664 1.378866
0.72634584 0.13081507 1.8454838
3.6512837 3.1275611 -0.011327356
2.1583989 3.3634989 0.8911947
5.3181887 2.4987533 1.9873253
2.2648671 -0.0040370906 1.8081677
5.4424186 3.9206009 1.0267801
0.67831939 2.014375 1.9964724
4.0130811 0.58214831 1.6006916
2.4816027 0.96094364 1.9947404
3.9956188 0.033802669 1.9231781
5.7977223 3.5141907 0.16010545
4.6810174 2.5337965 -0.0062707718
2.1892035 0.41111967 0.68457687
1.5836338 2.2324283 1.9842933
2.7096913 0.37072843 0.010611478
0.97106552 -0.0079454398 1.9262197
3.6616104 0.70016211 0.0062731882
3.1868622 1.7889153 2.0071442
1.8920254 1.9457238 1.986376
4.142519 3.3865891 1.9910364
3.411051 2.2595623 -0.012333667
4.5815549 2.5788641 0.0095320493
2.1432266 1.5318464 1.9991057
0.26025221 2.0359073 0.0082898019
0.86193615 3.1405456 1.9168718
1.9468857 0.63933873 -0.0016989197
1.1501873 0.23487575 1.6743629
1.4825715 -0.0029201033 0.86788017
3.5260451 1.4108645 0.013770272
1.2712662 3.207561 1.7519139
5.9505162 3.9142296 0.63152611
0.33777255 0.52858311 1.995432
2.9584167 0.53880084 1.1499296
3.6471193 3.1728344 0.0060825963
5.8376317 3.6001992 0.43086967
3.6030087 3.4727955 0.0050143581
4.983263 1.5011994 0.75207198
-0.002155541 2.3385222 1.1898196
3.0719993 0.47925323 -0.0082088159
3.3977504 3.5601344 1.1813107
1.9880179 2.4533198 -0.0030597926
4.7716727 1.6467699 -0.011449046
2.7090559 2.9209213 -0.010994768
2.8039241 2.2589047 0.001570589
0.37528452 1.2527242 2.0039976
4.0672679 1.4992365 0.58550346
2.3285577 3.3854725 0.32010278
0.0060570468 2.1142879 0.86920661
0.021416945 2.7621219 1.9431875
0.083134994 0.36377493 2.0042784
2.6149209 3.4299262 1.0385131
2.9232738 1.0483096 -0.00029957941
0.262927 -0.0041292212 1.458298
0.9879297 0.17163192 0.28685585
0.34434411 -0.0043390421 1.3508708
0.45053098 0.082459815 -0.026239363
0.67626631 3.1033983 1.6805133
3.4034462 3.0189085 0.0048665116
5.1522775 3.1627951 -0.0056749927
1.9334042 0.02180445 1.0420595
3.9978871 0.67213351 1.8149083
3.094214 3.4895182 -0.0026308827
2.8798637 3.4850814 0.46528724
5.692112 3.931092 -0.014558676
4.2938089 1.5076687 1.6066095
2.4665527 1.3008701 1.9937086
1.7077366 0.31964555 1.4209955
1.4177234 0.023142129 1.1421406
3.3175409 0.63507879 1.4836273
1.2290248 3.0973408 1.9955236
5.7463746 3.3849654 1.0217558
2.3163316 0.42918885 1.2683645
3.4839902 0.64284772 0.88494092
5.00106 1.5109549 0.64576787
2.2480917 3.3508368 0.66822696
1.3105495 0.14395346 1.9893223
0.67572939 0.19078533 2.0042846
4.2041235 2.4134979 2.0082576
2.1816819 -0.027914649 0.29813868
3.0247877 0.55462891 0.52134323
0.0039561437 2.7349257 1.7603948
1.2096157 0.012244698 1.9943528
1.7514663 -0.01422867 1.4286621
0.010295298 1.9328979 0.14448535
2.9641159 3.4947717 0.22056054
4.1777167 2.4446487 2.0026565
1.568395 0.98677623 2.0065212
4.0029631 0.34239888 1.2774402
0.010904767 2.2671349 0.65703088
0.0039686244 0.62833959 1.9100474
3.8262231 3.0838351 1.9949042
3.3941731 0.27561983 2.0119052
4.1056304 3.1806469 2.0083199
1.1635826 0.96350533 1.9922554
5.4340296 3.9143515 1.2780739
4.3416095 2.5150115 0.0024653268
4.4209733 3.7368996 0.77700609
4.1256242 3.6896744 1.4510013
0.001389442 0.58191234 1.7102795
0.63936234 0.12300766 1.3490094
4.7375379 3.5514364 1.9988546
0.67550403 0.11377881 0.79185766
0.92953062 0.0080618793 0.12217843
-0.0022938484 1.7254632 0.93198752
1.2202674 -0.0030669661 0.29957241
0.0034461042 1.3130444 0.2323525
1.9095995 0.3475197 1.2365308
5.208415 2.0360551 1.8565782
4.0012517 1.5064595 1.353369
3.4040198 0.41256088 -0.002727072
4.3410487 2.3952289 -0.0013646333
1.6063107 0.29892671 1.5078647
0.25652015 0.4170343 -0.0058732494
4.3392291 1.5014052 1.1800933
0.01728862 2.5509725 0.3804518
4.6563025 1.4981025 1.8751693
2.3276691 1.9409226 -0.0043828283
5.0649128 1.6495494 0.6452691
1.5528928 0.0033796702 1.679966
-0.012553843 1.2749571 1.0717044
3.9047928 3.6372328 0.0039489511
3.2945769 1.6346856 2.0017869
0.22901894 0.82353407 1.9901711
3.115521 2.1390862 2.0165405
5.7783351 3.9538963 1.1168284
0.49178591 0.010697262 1.7239931
2.1117623 1.5044358 1.9933093
4.0036626 0.19995247 0.89822894
0.92670465 3.1515241 0.61881709
3.4261293 2.8109143 -0.00086857489
2.6940663 1.9151999 1.9783826
2.1587741 1.3305782 2.0000598
3.1307738 3.4632876 0.0028368079
0.90540004 0.17438734 1.4709731
0.95203471 -0.0074314591 0.30618611
3.6193254 -0.0045209215 1.9014875
1.9430844 0.32339507 -0.0049989242
2.4744163 0.46019503 1.0562382
0.5370689 2.7250116 1.9900323
5.6381226 3.0878758 1.8069334
1.4291636 2.3998384 -0.0088511063
2.5282123 0.47053212 1.089764
4.6869373 3.7654305 0.59194672
1.2593666 -0.013017637 1.2512718
5.6933694 3.9498327 0.66883844
-0.017118802 1.1708115 0.28034863
2.7263212 1.1054232 -0.01069592
3.5917463 3.6173232 0.33948949
0.0021140764 0.3257305 1.9706426
4.7283087 3.5972803 -0.016274774
0.54954231 2.2515836 2.0211542
2.6154642 1.1538026 1.9905692
2.8187623 0.52897459 1.2366817
5.1049113 1.7388072 1.7341483
2.7284489 0.50593227 1.5008155
0.054511297 3.0002146 0.6741057
5.7404761 3.9544806 1.7760601
3.9958928 0.099668279 1.2812284
0.29604089 3.0443745 1.9758403
2.9755721 0.56162727 1.4430016
0.31182083 3.0483844 1.5439343
0.048318114 2.7341065 0.010181089
3.2910771 2.5238485 2.0059929
4.9910064 2.109134 -0.0030754609
1.7045643 -0.0015207792 0.88159901
2.168164 2.8597825 1.9956793
5.0411382 3.5474973 1.9918489
5.07551 2.1266704 -0.014227842
3.0069635 3.5142543 1.7558705
3.0137577 2.7766995 -0.0042793532
0.0048262654 1.3434588 1.783332
2.0643272 3.315098 1.3032255
0.88242638 3.1521103 1.6961614
5.6760554 3.9402142 0.53443766
5.6646891 3.1687779 1.4503993
1.5826681 2.7251678 -0.016141172
0.74365366 1.3647953 1.9972914
-0.010085849 0.49005276 0.48493963
0.49892208 0.013957059 0.41744646
3.7319326 0.58675438 0.0033461431
4.0811658 1.4930691 1.3761305
-0.0066778641 0.74289888 1.5395061
1.0554627 0.0043367911 1.4501482
5.3570652 2.4340641 0.9266901
1.8994483 3.3158231 0.85353011
0.23928003 0.85268939 2.0112324
0.75879771 2.1180756 2.012249
0.12427219 2.9105709 1.9931918
2.5431051 0.46173188 1.218326
0.83713001 2.6589177 -0.012431646
5.0204949 1.5084597 1.9305524
3.9951932 0.4432373 2.0016429
2.0197427 0.0010141553 1.3459594
2.2780623 2.3635383 1.9897115
0.85914135 3.1590316 1.1628644
0.012356667 2.4287271 1.8084705
2.8611693 1.759976 0.0036838814
0.46076557 1.2990893 2.0026295
0.00020461631 0.79363626 0.38300216
4.14922 1.7931082 1.9974207
5.0900378 2.9509635 0.013192289
4.1083803 2.379333 1.9826612
3.8328469 0.3366116 -0.0042279982
0.23575228 0.016564183 0.37935498
2.015306 1.5823501 0.0038154554
5.4404769 2.627342 1.3506929
4.4392118 3.5928695 1.9955124
3.9599028 1.1740513 1.984048
0.98501271 1.0687282 1.9946039
1.3423513 0.088754348 1.9857959
2.6177068 1.5463113 0.0058740941
3.8783271 0.72849876 0.18607444
0.98583406 2.4836576 0.011666427
3.2012355 2.608011 2.0044532
0.0037971984 2.3252172 1.2944791
2.8901157 0.024802465 -0.00044653672
2.5827377 -0.0083602276 1.0082713
0.08972995 0.009755604 0.095796451
3.3755133 1.3167775 2.002563
-0.011942929 0.8944909 1.8135396
5.6076517 2.977988 1.8690284
0.27973244 3.0602996 0.54746264
4.3479505 3.4285953 1.9972661
4.4679236 3.7487133 1.9990569
5.4109344 3.9220922 0.8270511
4.0021868 0.67531013 1.9045281
0.27318338 3.0381927 1.4233902
5.1294446 1.8029239 0.019859791
2.8809502 0.55589306 0.44781449
2.125638 0.40715203 0.73496377
4.7344847 3.2238529 -0.0024900211
5.1228361 1.8649598 0.070534281
3.5482967 0.65951443 0.92130023
0.24588004 3.0489068 1.8683181
1.4004872 2.3584342 0.0065783137
0.54574025 0.0043593128 0.42617789
3.9987087 3.1614711 1.9912505
4.7128963 2.2113373 -0.0075511755
4.2118144 2.4104214 1.9847815
2.0048084 0.3828744 0.21085155
3.7272401 3.6235881 1.1987379
-0.012769048 1.1411351 1.2039304
4.0231714 3.6654611 1.2378378
3.9164267 0.010022356 1.2724466
0.011394704 2.918803 1.591346
0.0019059161 2.1871417 0.312731
4.6002045 3.7774487 1.7905666
3.0795169 0.0026228351 1.6730491
4.7962661 1.5179241 1.0222789
-0.011461864 2.5441206 0.85502553
0.0033360531 2.2517755 0.12518734
5.9880042 3.9473815 0.45926231
5.9901257 3.9020369 0.80355757
5.1850719 1.9502124 0.14409177
1.6070578 2.3543124 1.9803079
4.0006189 1.2454649 1.5053707
1.5365369 1.992213 2.0074768
5.8908401 3.7115777 1.0583798
1.1795602 0.22764191 1.3202406
5.5256805 3.9096327 0.63910365
3.0167429 0.57550836 1.0583501
1.343004 0.61808866 2.0065122
2.6023564 2.4426379 -0.012106147
5.546629 2.9953303 1.9925927
0.0049103731 2.4237139 1.3319564
3.9188101 0.73640937 0.087648086
1.9572999 1.0293794 1.994283
2.9360816 2.8030808 0.0032452825
5.1919732 2.8639498 0.0071506463
2.9110162 -0.0066655856 1.7504015
-0.010623588 2.2753921 1.3957436
0.48903784 1.0136194 0.0022849366
0.0026549071 2.0932648 1.5018134
0.53791821 1.9066634 -0.027709987
0.43024758 0.07717178 0.1787243
2.7234058 2.8568978 1.995752
5.7792091 3.4715965 0.56016147
5.5057821 3.9241934 0.35417116
2.3068726 0.43805444 0.54982543
4.5083241 1.5041375 1.4954983
0.88441175 3.1353781 1.7621646
0.053458024 3.0113702 1.4176917
5.3955922 3.690767 1.9966204
0.89379644 3.1524827 1.8363358
5.8076892 3.514873 0.88762444
2.8483307 1.426911 2.0064089
3.4340849 1.7263545 0.019065324
3.3852885 0.70448858 1.9870958
1.3107733 0.2316772 0.6980961
0.054844283 0.74856383 2.0069017
0.45979959 1.3540856 2.0168138
0.62623119 0.26540327 -0.010017759
3.5455024 0.66419762 1.2463862
3.9982631 1.1715041 2.0049779
3.7390926 3.6468682 1.570971
1.2054117 2.7506373 2.0198553
5.3207078 3.8926723 1.8573631
3.6540139 1.8129526 2.0015333
0.0036622949 2.6583519 1.22453
4.6029167 3.7526033 0.012185276
3.533124 2.8624451 2.0108392
3.8680067 0.0011222196 1.0413952
2.1625156 0.13622113 1.9924654
3.8379235 1.087189 2.0117695
2.6923983 -0.015203191 1.0934583
4.2343588 2.1521051 -0.0010321678
4.7115536 1.4845067 0.80430955
2.671617 0.010213653 1.4743067
3.8743327 1.6416806 -0.021056755
3.3490033 0.60900831 0.15439621
4.1421471 1.5054222 0.43206742
2.4387398 0.39645001 2.0030413
4.8132205 3.8053825 1.2150146
1.8390294 3.313554 0.14254691
3.0457191 0.57407105 0.67865819
5.6152101 3.942802 0.76268852
4.006681 0.34657747 1.1101989
4.4383225 2.2491832 2.0081761
2.999733 0.55621076 0.66940004
0.019071614 1.7544347 0.24820799
3.8072555 1.4621428 1.9925359
0.96633106 0.19075812 1.7172587
4.6324692 1.4814146 1.2911474
2.8863645 1.0803198 -0.008308637
2.952836 1.4995782 2.0052385
3.9983325 0.60325587 0.19947496
4.9128051 3.8078766 1.9532518
5.0494614 1.6734807 0.72895956
4.7567487 2.0351429 -0.0034274349
-0.01066107 1.9381719 1.2756772
1.975633 3.0946119 0.0072000772
0.13643898 0.007924078 1.3060387
0.69997722 0.0052512279 0.23937188
2.8402004 2.8807042 1.9982268
4.3362455 3.7225652 0.61412376
2.2660613 0.063686967 2.0038025
2.5064459 -0.0053393147 0.53010607
0.73838013 0.5143429 1.9926085
2.4903557 1.3387113 1.9821737
0.68377006 -0.0057221386 0.26588017
0.82007158 -0.012008967 1.4494042
0.016392313 0.13623127 0.050100129
2.6177347 0.0016615473 1.4186677
1.8238816 0.33818409 0.2673417
2.4086525 1.4499727 1.9979788
2.7992277 2.7900968 1.9874641
5.6775842 3.9636424 1.6807884
0.09996587 0.019494193 0.032649089
0.086635374 0.5733189 2.0147872
3.5218613 -0.018974124 0.27658808
3.1727514 2.3946421 0.0037124329
2.4300025 1.6555274 0.0012446183
5.8133473 3.5209005 0.43017814
3.6878781 2.3722303 -0.0074043358
2.6940188 0.37807059 0.0034503217
2.6296673 -0.005362079 1.7982342
2.1317098 0.40748885 0.0096597224
5.0708394 1.637368 0.044511829
0.55182201 0.44893783 -0.0017383845
3.1523955 1.2136236 1.9785074
2.6031861 2.1108134 0.0050008451
1.0459026 -0.0097689359 1.4795178
1.5130423 3.2540109 0.12308387
1.4604692 2.05392 1.9739656
0.84580106 1.6314741 -0.0043934435
5.3074312 2.2386255 0.46633032
1.2549384 0.51779068 2.0025947
4.0019689 0.98133945 0.80949318
5.6967072 3.2108204 0.16115861
3.992986 0.71511656 1.9842771
4.3918428 2.8356962 2.0025997
3.8762348 0.0074283723 1.0891471
3.9642372 3.3983576 2.0123544
0.0098866895 0.48376781 0.15964498
0.64356065 3.1182127 1.9706824
2.5068095 3.2523851 -0.00050941494
0.052504547 1.0454289 1.9959162
0.91558683 0.25126794 -0.0041027027
2.3293548 2.0257542 1.9999288
0.015337 0.033651948 1.7073357
3.866292 1.2392402 1.9882859
5.6815343 3.1752162 0.73222023
5.5416632 3.3718104 2.0143924
0.30442262 0.85379875 -4.0335886e-05
2.0172801 2.0244479 0.012362095
0.82890213 3.116951 1.1195589
5.3588886 3.8941422 0.98908496
1.0644296 3.1816883 0.40639526
0.28526804 3.061058 0.71049106
1.7175527 3.0833516 -0.0030729729
4.0505776 1.5047814 0.65773493
4.1966414 3.705004 0.57062256
0.6399014 0.0043715029 0.87921607
2.595736 0.58322906 1.9994919
2.1633246 3.3662126 1.3017771
0.9146468 0.8088454 1.9913607
2.517303 -0.0079751015 0.31515488
-0.0062145973 2.2070074 0.28107503
1.4981513 1.6036764 0.000951925
0.5480814 3.0865471 1.3679595
1.5542936 0.0022620063 0.93262064
3.5262756 3.207619 1.9979678
3.0578859 2.7661352 1.997466
0.44779292 0.053765468 -0.0061824215
2.4718521 3.2185216 1.9989815
3.5418 0.98131454 2.0059793
1.9315852 3.1755967 2.0145876
5.0026636 1.4938941 1.1889894
3.0298274 -0.017910261 0.88782901
4.6937261 3.2552505 -0.0090996474
4.4373016 1.8944237 2.0011983
5.6863256 3.2338786 0.68979841
1.0501063 2.668961 -0.001530954
0.99493772 0.18311371 1.9182926
2.1987793 0.018476279 0.66101182
5.0811157 1.6764556 1.6295203
2.9751575 2.5097311 -0.0086680092
1.6304985 1.2283037 -0.0015917687
4.000998 1.4538553 0.58776999
5.2396936 2.1341162 1.3226964
3.3156142 2.1752961 2.0111239
3.8319767 0.71474433 0.27049747
3.9073389 0.0048794043 1.7712761
-0.0090702157 0.6103754 1.0135961
0.21575151 -0.002491493 0.35601836
0.13601655 0.092513062 -0.0044862214
1.7574192 0.16752164 2.0004265
2.5760307 3.4170773 0.29693353
2.2547803 0.43127352 0.77691686
2.0101719 3.3221598 0.79772514
4.959403 1.5072504 1.7484823
4.6230021 2.8275926 2.0136783
0.5647459 0.33344635 0.0025031888
4.1026764 3.6810117 0.44431189
2.1493759 0.40626696 0.66995311
2.6671679 1.0605731 0.00062103022
1.519895 2.2025745 1.9949089
3.2790141 0.28593889 -0.017101623
-0.009044962 2.0988932 0.70108205
1.4107929 0.6569832 2.014055
1.7480012 0.33059743 1.2621166
1.3009756 0.24142377 1.0903084
4.0217991 1.913658 -0.0037345304
3.2768662 3.5550306 1.476169
3.1861763 0.11749129 1.9932091
4.4008512 2.8697848 1.9933819
3.07427 -0.012417125 0.99712932
3.6135812 3.6017153 0.95443702
3.9859426 2.7220545 0.0096776783
