# .PCD v0.7 - Point Cloud Data file format
VERSION 0.7
FIELDS x y z
SIZE 4 4 4
TYPE F F F
COUNT 1 1 1
WIDTH 1506
HEIGHT 1
VIEWPOINT 0 0 0 1 0 0 0
POINTS 1506
DATA ascii
3.5364225 0.64356887 0.18922602
0.29409492 2.9754345 0.010924141
1.8449954 -0.005155765 1.7114245
5.0192971 2.5523689 0.0059898426
3.4892368 0.66405469 1.5089914
5.132246 3.8462245 0.090749592
3.1487284 0.0081628235 0.28472075
0.75945508 3.1413558 0.013542238
3.4507813 1.294644 0.0013080112
3.5382524 -0.0067098057 1.1469507
3.1304085 1.0089567 2.001683
4.4021196 1.490262 0.51439387
0.83682573 -0.0014339944 1.402427
1.5873621 0.83301365 0.010028727
3.8235307 3.4068274 1.99455
0.13216685 2.4124072 0.0046369052
4.5582805 3.7527621 1.4180963
3.8404844 0.57690871 -0.00765693
2.9055424 -0.0068743965 0.65843898
0.46646118 3.0929024 0.13167566
0.90480292 3.1562614 0.6637466
4.1223936 3.3002172 2.0176837
3.0679207 3.513711 0.22883523
1.2311915 2.3930564 -0.006254483
2.3674412 3.3986664 1.8152506
2.9709949 2.473706 -0.0025021189
2.9926114 3.511528 1.0990673
1.1575916 2.5977178 1.9966438
2.3244965 0.016161762 0.6678353
4.5889907 1.4912109 1.3479424
3.2137442 1.2698666 0.0011848261
1.6108706 -0.0015915062 1.4944803
1.8458593 0.52743924 2.020489
0.37651104 0.40988243 0.0048828875
5.3053212 3.8936896 1.4396226
5.5082068 2.8040977 0.64096832
1.7384506 1.3450789 1.995347
0.16439001 3.0271213 1.8426112
2.3283546 2.2275033 2.0178251
1.2926464 0.028837916 1.996797
-0.011773805 0.11653899 1.0062534
0.0034569348 0.37796694 0.33189815
2.5592341 0.00252567 1.7444483
0.4261249 0.83840698 2.0092304
3.0632772 0.12664799 -0.0075007286
4.1343622 2.126174 2.0077019
2.3541489 2.5990262 2.0010138
3.6839705 0.31962669 2.0072315
5.6522565 3.1188478 0.4547112
0.98890948 0.00067687687 0.0962791
3.9303463 3.6418507 0.40535188
3.6529715 3.5977397 2.0035284
0.072094098 1.6835216 -0.0082770828
3.1305816 3.5122354 1.4719617
0.76602542 2.3808997 0.0076525146
5.2001057 1.9781314 1.061402
4.8736315 1.5025002 1.7444613
3.6907458 0.45212582 2.0127039
3.6516881 1.7396989 2.0139525
0.0029086475 1.9523381 1.168964
5.6573181 3.1473813 0.76848751
0.64196134 0.12804586 2.0052502
5.3838348 2.4726052 0.89795554
4.1105967 1.4946874 0.89158487
2.8534632 3.269433 2.012516
0.87567222 0.57192063 2.0039136
4.0128884 0.74900186 1.373052
3.0141373 2.1469209 0.0090725338
0.018616272 -0.0059451661 1.384325
4.8252449 3.8161738 0.16085733
2.3541355 3.2586908 -0.0060148253
1.6152354 0.30504456 1.3264683
0.075727664 1.0873084 -0.0013106194
2.5777452 2.1012926 0.0020601721
5.5264311 2.7817569 0.85921943
4.0015402 1.3056806 0.96906811
5.9657602 3.9273748 0.63238543
1.5653354 -0.0080033019 0.53570235
4.680819 2.3419096 0.0023136695
2.6434345 3.4287541 1.5344478
0.99799854 3.1689594 1.1353064
2.0845509 3.3568144 1.5006039
3.782788 3.3313766 1.9956547
3.6439483 3.6022546 0.0029498234
0.35719228 1.3719828 2.0030897
0.0047116517 1.7353621 0.13048501
4.0128613 0.7517727 1.7218622
1.2532785 0.014229035 1.0166516
1.3658404 2.9071331 -0.0037932717
3.4812851 1.2552484 2.0097475
1.6246718 3.2468576 1.8558606
2.7207432 0.42900044 2.0135903
3.4161725 3.5769622 0.95888507
0.34561527 0.059329864 0.52369362
4.0616188 3.3271031 -0.013252515
4.9432893 2.6518214 2.0065408
0.92027825 0.16611619 1.4458623
4.1020761 1.726409 0.0094325915
1.6705707 1.5459164 2.0060761
5.1824079 3.4821334 2.0240688
2.3733063 1.3804636 -0.0060097598
2.9906397 0.0025358377 1.5656627
4.2970247 1.8567061 0.0037904058
0.60749733 1.5809125 0.0081736874
1.3149264 3.2095382 1.3218473
5.6428881 3.1458745 1.792473
2.9553943 0.92718792 1.9862574
0.0064692399 0.28382605 0.68248832
1.9891453 2.8088894 1.9914789
3.5071187 0.66524363 1.6592932
0.44421208 1.3715382 -0.0081285043
0.66639078 0.53864866 2.0028017
4.2535286 1.8066486 -0.0043069264
3.8018796 2.392513 1.9886118
2.1398568 1.4893552 2.0016112
4.6620736 1.5111426 1.0318726
1.8293347 2.6728361 1.9866859
1.8115644 2.1610854 -0.0073937858
5.039125 1.5869348 0.37060031
0.31573549 -0.0077815177 1.4019213
5.1163054 3.2558706 1.9930464
3.3833578 0.011033865 0.34351385
5.2241907 3.894819 0.25763699
5.0339832 1.5708672 0.51396471
4.737606 1.5078955 0.84023094
5.1673636 1.9496117 1.4539208
0.2196566 3.0553803 0.6442849
2.1190479 0.67118996 0.016794881
5.0495319 3.8214431 1.2814676
1.3850036 0.0049974495 1.0348181
2.7719927 -0.0053341198 1.6487039
3.088119 -0.032091547 0.32641765
0.37368196 3.0552645 1.8469728
3.9917116 0.49551177 0.91406882
4.9745531 1.4893528 0.6888628
0.35845837 0.64844185 0.0011078017
0.56159997 2.8617373 1.9885701
4.3997183 2.5513368 2.0088918
1.767643 3.2985775 1.5768741
1.2185743 0.010023411 1.3620222
5.3347569 2.3225572 0.43205875
3.7288208 3.3583584 2.0103004
0.39129978 1.4611353 2.0034935
2.9943707 1.4114785 2.0073326
5.0920296 3.8582144 1.5660129
0.22071816 3.0361931 0.56998056
3.5646927 1.1406761 -0.002607245
4.0070577 1.2371614 0.76474541
4.9543548 2.0275955 2.0148618
5.7324486 3.3218677 0.49992153
2.7607262 0.0051253024 0.3328765
2.0602262 0.38362524 1.7054259
2.1754892 1.3402331 0.001221353
2.6375639 2.3519418 1.9839501
0.84752768 2.4830496 2.0041575
1.7787151 3.1239288 2.0044892
-0.0090268357 1.0873144 0.88210291
5.203444 1.9991218 1.4276183
5.1343403 3.8623812 0.49051502
2.2847381 0.44078675 0.37870562
3.319026 3.1512892 -0.020280421
3.7589014 0.70332909 0.88175237
5.8327556 3.9845386 0.55030882
5.8800397 3.707057 1.7955884
-0.0032899338 0.0010843636 0.071789324
0.55877995 0.017232489 2.016315
4.5206594 3.3144622 1.9853537
3.8011353 3.617866 0.71318835
4.3306594 1.4914376 1.3253329
3.872503 3.6534283 1.9901773
2.2362261 2.9549575 0.0074878326
5.1089382 3.3503342 1.9919245
3.9024842 0.73311651 0.84636664
1.979184 0.37200981 0.64854908
3.5360124 3.6093471 0.078557886
1.3954206 0.99644589 -0.0025423355
0.16699998 0.049099319 2.0044062
5.2372422 2.1386631 1.4578949
3.9288623 2.9916289 -0.007330854
4.5380096 3.5251379 -0.012068649
5.5911951 2.9668198 0.9507665
4.0015292 0.16787806 1.2226521
5.4913664 3.9123232 0.48492029
-0.027425315 0.12222806 0.35949436
2.92995 1.7338389 -0.011723753
5.0589299 3.8488467 1.2429463
-0.0044713989 2.7752864 1.6469264
3.9892569 -0.011061512 1.2101065
3.7610466 2.0305679 0.0089582093
5.1927381 3.3138742 1.9978316
2.0639713 0.98152941 1.9912528
4.3083854 3.5453475 0.010881203
0.069513664 3.0045314 1.0224409
2.1667857 0.25497228 1.9969096
1.4731251 0.19422199 -0.01067179
4.6380634 1.6690488 -0.0073631434
2.7322223 0.51445287 0.5229165
0.01131457 0.93162566 1.8384506
5.8822994 3.9829772 0.014695849
0.88494337 1.3123064 -0.015288872
5.9583426 3.8477664 1.1300002
3.1040802 3.5096262 0.34319434
3.7357671 0.67606777 1.4966187
2.8218868 1.3595573 2.0140133
0.91142225 0.18146469 1.0159699
2.6195247 2.0904169 0.00038312949
2.217705 0.29369003 -0.0058692377
1.3823097 3.2414768 1.2618589
1.8795894 -0.01299242 1.6359304
2.0918393 1.4586173 2.000519
5.2490687 2.9417963 1.9823824
0.72900087 2.1227036 -0.0083204322
3.5779798 0.22709362 2.0006921
2.3614597 0.42978454 1.0355738
5.8057942 3.939136 1.6617299
2.2599449 2.1122742 0.00079069042
2.9222472 0.020871198 1.8287398
5.3512912 2.6778061 0.0024227554
3.3378441 3.5570426 0.009335883
1.8902394 0.3342084 0.0027069801
4.1743522 3.7042744 1.6898144
0.0053898874 1.0526502 0.18270481
3.8870761 3.5003591 1.9919375
1.6842659 0.0083229253 0.071386755
4.1506023 3.3873813 1.9974029
0.0053106118 2.7046747 1.7022771
4.7930193 3.4171383 1.9873748
5.2560759 2.1573994 1.3776664
2.2598579 0.22861412 -0.0060118008
4.4186897 2.5244021 1.9988728
1.7371777 1.5396605 2.009367
3.7168021 0.70929325 0.3719933
4.3789086 1.4978318 0.37766302
5.0222363 1.5785824 1.4215677
5.8259454 3.6049945 1.8924038
5.6798253 3.2571378 0.084209055
-0.010962607 2.6691792 0.32486802
1.8429334 0.34399945 1.7518792
1.0798417 -0.00427446 1.7099251
0.84825289 0.14867638 1.0563421
-0.0040023853 0.78293824 1.9236056
3.069917 3.509773 0.64750862
2.8930404 2.4188535 2.0049462
4.1335893 2.3487201 -0.00070251088
3.7780447 3.506635 -0.0032699804
2.2454765 1.3278214 0.0036083569
0.33131173 2.3641641 -0.015495548
1.2859374 0.010657357 0.39627934
1.0235546 1.9016299 -0.0029721104
4.8082323 3.8094087 1.0773859
2.3026731 0.42647395 0.45360795
0.59432805 0.79728639 1.9996543
2.4601805 3.4194155 0.39927402
0.11095925 0.014574466 1.2874424
0.0034012364 2.411489 1.2047018
3.3002002 3.0223236 2.0077841
2.4256155 3.4033105 1.8329339
4.5775208 1.5078475 0.56184316
3.6408887 0.66508603 0.64020598
0.0028345 0.60711163 0.079005055
3.3018684 3.5432563 1.4315268
1.4361128 2.3876562 -0.0046481336
5.0690265 1.6871014 1.0440482
1.5149584 2.0378666 -0.0037973002
3.1131973 0.59756607 1.2962512
2.0637655 1.3671266 -0.0020254008
1.6306316 0.30808875 0.11650061
1.5741476 3.2580369 1.1822269
3.0862684 0.0098608332 0.58940399
5.7637382 3.4210014 0.39735842
0.15449479 3.0098066 1.0171279
4.6063309 3.7778473 0.23644891
4.9969921 1.5104023 1.5150332
-0.0098635089 1.6011648 1.2612072
1.1446947 2.796587 0.0042967503
0.86016738 3.1472266 0.85260135
1.5219605 1.0365061 1.9896674
4.0090022 0.49946144 1.0162596
2.8221035 2.1520948 1.993567
3.8371935 2.3909445 0.012561103
0.40408346 0.076467916 1.5776948
-0.0034046385 2.2531123 0.5231514
0.028789401 2.8707438 1.9875199
3.9845693 1.4594134 0.21591485
0.40661183 3.0593181 1.2606564
3.771266 0.73935151 1.4390633
3.3115683 0.61139435 1.5622118
3.0958097 0.58992988 -0.00023182108
3.0742826 0.89748991 2.0060921
0.60563415 1.521656 -0.0032701192
0.54254574 0.1011996 0.69933742
3.9954574 0.19665541 0.1677774
2.0542505 0.16933557 0.015899882
4.804224 1.4924928 0.31477028
2.9728301 3.4965913 0.0012982031
5.7716889 3.4588187 0.0014786597
3.2203162 3.5478411 0.70556194
3.7827845 3.6146274 0.38839158
2.2012665 3.3669624 0.2092016
5.9451509 3.8792298 0.85289365
3.4095039 1.706039 -0.0012654439
1.4281197 1.1257592 1.9944052
2.0101426 3.3231757 1.6230115
0.65768719 3.1101251 0.15346104
0.90982473 -0.00097229669 1.7690467
1.5035911 -0.016222924 1.4582436
1.8864123 -0.0044371653 0.64032382
2.5994339 0.48117796 0.40559894
1.0777402 0.21479577 1.5415635
1.2409428 0.22256231 1.9887162
3.7272913 2.1638863 1.9872893
3.4280667 1.7941318 2.0037525
0.60245168 2.5519238 1.9995748
0.32824638 0.033177812 2.0107317
1.388173 1.5983835 2.0141113
2.6641219 0.54556549 1.9993838
2.5406725 0.58084577 -0.017865608
0.064314879 0.018591875 1.1194574
4.4390864 1.4886432 0.25773725
0.37474546 -0.0045394227 1.8504061
-0.0040286337 2.3913772 1.8153472
1.668074 2.083379 1.9891359
1.570213 3.2459626 0.89517087
4.263454 1.6294043 2.0015359
3.9940097 2.4333568 2.0052154
0.55128831 3.0953519 1.6076252
0.51092708 3.0919027 0.5573495
3.555877 0.65714556 1.0237068
2.9965587 -0.014292192 0.72034067
3.0838592 0.010014833 1.9502056
0.655312 2.4162927 0.0056666266
2.4577065 3.417521 0.79237264
2.3167365 0.44862288 1.9937785
1.7828896 0.86348695 1.9992175
1.4546559 0.59033573 1.9926548
1.5551351 -0.0039548711 0.43113714
0.080515437 0.023212044 0.66590935
0.88390666 3.0649755 2.0165215
4.4716325 1.8982368 1.9994601
3.9891787 0.85801375 1.8171693
5.6819367 3.6753738 -0.0081561357
3.9953957 0.9990713 1.0479417
1.8084534 -0.0039280765 1.4989769
-0.0034175979 1.376567 1.2856652
3.4194307 0.0046366663 1.2234436
0.95384991 3.1558342 0.34523517
1.9705223 3.3342173 0.81301242
4.0057988 0.11610075 0.64923102
2.2988656 3.0296774 1.996654
4.6561427 1.506274 0.52255636
2.2800269 0.4289903 1.9976441
1.3647056 0.27165017 1.0736593
2.4346447 2.3012185 2.0205832
2.0828881 0.0041491571 1.9112356
5.6770725 3.2577558 1.5452664
0.0050785099 2.1589808 0.62273747
2.5777395 0.79556018 1.9989532
1.2532589 2.8867524 1.9874771
2.1743445 1.9573563 -0.012688553
0.80974913 1.0841209 1.9961927
3.9921234 1.3072801 0.80933958
1.4273227 0.02560143 0.001590326
0.54571795 0.095931798 1.0729563
0.0084589254 0.87871659 1.0282121
3.7263567 3.3033457 2.0195625
3.8279123 1.3861562 -0.0044058659
3.8175166 0.70546556 0.42218959
0.16095132 -0.0070877573 1.2336935
0.03485835 0.20454215 0.42468545
3.1534903 2.6327472 -0.00019546058
0.70162159 0.75472325 0.0068154172
2.5226815 3.4263728 1.7123983
1.4232746 1.6507161 -0.0036133723
2.1354241 3.3564308 1.7911136
0.29117805 2.097317 2.0026469
2.5675321 3.4326522 1.5784558
5.2653704 3.8644302 1.6463751
0.051097192 2.9924219 0.995987
2.8824341 0.54825091 0.69924021
1.4153001 0.97060412 0.010188982
3.6943493 2.1822429 -0.00099124957
2.1603208 1.1479352 1.9901832
-0.011050385 2.0363929 0.5545764
2.7386191 0.52285844 0.73059511
3.9965243 1.2182834 1.0374577
0.45660013 0.0050216177 0.35848716
0.65827167 2.0538204 -0.014145822
1.0544084 0.38848308 0.023286222
0.024815165 2.0070198 1.9863166
0.21659526 -0.0022722073 1.8325396
3.9891357 0.73710227 1.5006614
0.3633118 2.1229401 0.0031023112
5.9287257 3.8064172 1.9805743
-0.0066091069 1.4221432 0.7499994
4.6770792 1.5049546 1.9603816
5.1099482 1.7634676 0.45007154
1.9994206 3.3304667 0.62952983
3.4576976 0.0049440968 0.85501015
2.8214931 -0.010369356 1.5099753
5.5664577 3.7467425 2.0043206
1.4290448 3.2334607 0.29047504
4.0007591 1.4153621 1.0972191
1.5142941 3.2379508 1.6179415
5.3784409 3.3809469 -0.015021126
0.4181467 0.17854747 0.016741643
3.2513256 3.3329906 -0.0095984321
5.5132437 3.9129658 1.4794494
4.8419538 1.4962066 1.6266271
2.0692525 0.002684115 0.97950727
5.1342082 3.8525541 0.56225717
3.3792861 3.566736 0.6409412
0.7382794 1.8948343 0.0098734479
1.2046819 0.24953073 1.66763
0.1320412 1.0951658 0.0042288145
4.073936 2.6035407 0.0067009395
0.0061441385 1.2640321 0.25816366
0.69536185 3.1010945 0.99071836
3.255327 1.3233376 2.0087309
-0.018140106 0.042306703 1.4489137
0.0081900042 0.52548486 0.065581597
0.0022956359 1.4762665 0.26756099
1.4739059 3.2600775 1.7552055
4.9256415 3.8123691 0.53217167
0.014108064 2.4680727 1.0444027
0.37073201 1.9371586 0.0026384327
4.172545 3.7038057 0.86359555
2.220823 0.4189136 0.47530615
1.3484571 1.0862525 2.0004666
0.039883278 3.013344 0.24162784
0.96523684 0.19001952 1.9678783
3.9938247 0.98143929 1.7949836
2.2791471 0.43512109 0.91023785
4.9524217 3.8190451 0.86456823
1.1897717 0.21611895 1.9202482
3.0664904 3.3487654 2.0059235
0.0077962992 2.7615221 0.38750899
-0.0069506816 0.00055678829 1.9164748
-0.0013545936 -0.022985641 1.644017
5.4511213 2.6578619 0.44024885
3.4724877 -0.013365145 0.23992759
4.4455557 2.5906291 0.0062422254
2.1581306 0.68236321 2.0163054
1.6907523 2.473928 1.9852874
4.1392126 3.3086467 0.014202817
0.25139397 0.013196845 1.6129272
0.31172678 3.0489419 0.5857088
4.9993296 3.8309653 1.3337092
-0.0025191088 0.18546414 1.9467585
0.26065877 0.14772558 0.005287875
1.2890004 3.2137043 1.9835435
2.1212263 0.37800056 0.33715653
5.5631371 3.9290409 0.94023544
2.0412102 0.0011678151 0.2770631
2.8531597 2.7568095 1.9939531
2.213001 0.0055578086 0.56475395
2.6496687 3.4523134 1.0719486
3.3425853 0.62892997 1.4841856
4.9361367 1.4995724 0.79945379
0.55954725 1.7687625 1.9943986
2.744086 3.4540496 0.082125999
3.2141232 0.61744368 1.3232681
0.28774267 2.1877222 0.0042589311
2.6733949 0.49844348 1.4299741
0.19052137 0.033163898 0.037915021
4.1932688 3.1288183 0.0018214348
0.70368803 1.0855184 0.0015572724
0.18945262 0.036426902 1.1753702
2.8057058 0.54250652 0.37041467
1.1128689 0.9964323 1.9917423
3.8741817 3.6417031 0.030588357
3.0606089 0.57627076 1.9924753
1.4775077 2.1736882 -0.0072334819
0.55348259 1.5935651 2.0176187
2.8151379 -0.014584674 1.1349427
0.50034863 0.085769184 1.7910331
0.3758007 3.0547328 1.7217636
0.0058054058 0.21605141 0.71868992
3.7566378 1.0545863 0.0053522452
0.010119827 2.8578491 1.2573272
4.9851985 1.4873492 1.4803971
0.069260612 2.5839798 1.9994551
4.9276175 2.5735359 -0.0012533357
1.0049415 -0.0022051204 1.8585852
3.9847026 0.91305387 1.7553638
0.010143924 1.9202666 0.41929224
3.182857 3.5337055 1.2994269
3.6403399 0.096772239 -0.00013077362
2.6358023 3.1432285 0.0032322386
1.0020863 2.4571252 0.0030758774
2.3623991 3.4045951 1.1755784
2.6910088 0.46531892 1.9955156
4.1623731 2.7221911 1.9900789
0.16175283 0.0094831865 1.0146073
3.3784614 3.5349994 1.3981415
3.9219818 0.73238808 0.7748304
5.7043605 3.2475729 1.2285899
1.0526893 -0.007769479 1.3929186
3.4291086 0.0083772531 1.0027095
5.3570204 2.4092317 0.10825034
2.6967134 2.1320119 1.9892462
4.001111 0.71311653 1.8564807
2.8536026 0.96769553 1.9864684
1.48043 0.28205025 0.037169173
0.76963794 0.80598694 2.0128086
5.4172578 3.8990402 1.2293059
3.3952901 0.53793001 -0.010142149
1.2737607 3.202858 1.3595471
5.3642831 3.7203951 -0.015019621
3.4373806 2.6452923 2.0023923
0.031186426 3.0179665 0.99574602
-0.005036368 2.6387081 1.5429175
2.5596106 1.3614615 -0.012289115
0.55576563 0.1017675 0.38788968
2.8642585 3.4759548 0.014115528
1.0979756 3.1863649 1.5918684
2.2343109 2.1109562 2.0128233
1.3031145 2.3550937 0.0059649204
5.3045254 2.2343733 0.37564147
0.13688846 2.5156503 0.0025655807
3.3611519 0.38679129 2.0095308
2.5749066 0.44231167 -0.0053300415
-0.0052987523 1.6216272 1.1929233
0.83796412 0.15295823 0.049501091
4.0103617 0.90866584 1.7946842
2.2807896 0.43086061 1.2341391
0.11428877 1.445884 1.9961653
2.0717463 3.3527148 0.89245969
1.8290195 -0.023503704 1.2198478
2.7364957 0.33635601 -0.005134522
3.82493 2.3001781 0.00010285569
0.25803161 0.047299825 1.803507
1.1545376 0.2351535 0.20344391
5.5011835 2.7279642 1.1850616
3.5758824 0.64519984 -0.0005488731
1.6042589 0.0034528261 1.11894
3.9898252 0.96352232 0.43296921
3.6655326 3.617965 1.6675084
3.8976755 0.47370556 1.9998919
2.0288963 2.2737603 0.00092971645
1.1004064 0.22203359 1.7940401
3.7804897 -0.0046488554 1.825725
3.5051649 2.8440945 2.0076385
1.9144794 2.1027424 2.0040681
4.1485581 3.6684618 1.1383519
5.2642436 2.1894031 0.14849311
3.993614 3.640801 1.397535
3.3337817 0.63415676 0.88079524
5.3846388 2.4540398 0.57143706
0.86340094 2.475981 2.0032556
2.1933916 0.79372257 2.0158782
3.8818288 1.0074376 0.0045153503
5.6577773 3.9505196 0.65846574
-0.025493355 2.4244678 1.0575917
3.5664332 0.68671191 0.44451773
1.0579075 3.178278 1.1560491
0.60925317 1.1908404 2.0046775
2.161726 0.0039831987 0.074130856
0.027125852 0.57262152 0.033307876
2.5094011 0.28523883 0.023394255
3.7152221 0.012016145 1.0084838
2.9902503 3.4996941 1.1879182
3.2242618 2.0195956 0.0093950685
1.6947078 3.2931814 0.84212172
4.713131 1.6315544 2.0049162
3.9692941 -0.004941504 0.34183991
3.6294734 0.68035132 1.6526418
1.1096644 0.20674247 0.6624198
2.7650402 0.0042819716 1.4687278
3.980731 0.74737245 1.6587673
5.1017156 1.7770149 0.19584106
3.2470467 3.5460443 0.13879317
2.2386942 2.9304941 2.0002358
0.015615536 0.020906109 0.60431212
0.020806201 2.7340047 1.4421488
0.12947747 1.8841861 1.9944782
4.3708172 2.1748435 2.0059924
3.2384043 2.8284972 1.9860181
4.3176665 3.7284727 1.6623949
1.6826597 2.465116 1.9939626
2.3577495 3.3914437 1.4334272
5.0266047 1.5408229 0.86429113
2.6436379 2.0704682 2.0008264
1.1508185 -0.01160484 1.4863874
1.6644092 3.0251858 -0.00040355927
0.7794323 0.15419164 1.2918243
3.1407473 1.4091752 1.9966588
3.3334062 0.6073103 1.3363835
4.6213899 1.4950393 1.4372956
3.709965 0.69320142 0.75683343
2.261379 3.3801205 0.096527174
1.5118546 0.62433481 0.004380309
0.023825251 3.0124779 0.42318434
2.5527167 -0.0072966199 1.4424976
0.011584205 1.6174192 0.11848648
3.9967687 0.43083656 0.62409145
-0.018361825 2.1227627 1.0371157
-0.0095529128 0.39273667 0.54067212
2.2619636 0.68630844 0.0038765916
4.4064817 1.5092925 1.9773793
2.9368684 0.5449332 1.0007201
0.00085354497 0.20855293 0.69488704
-0.0033416867 2.9383616 0.40718788
3.379077 3.5591385 0.58788264
5.8646202 3.978184 0.040603075
4.6432314 2.6535718 -0.0074369917
5.6278076 3.1090066 1.6245559
0.0027818887 0.33696952 0.1225243
1.9395167 0.90715498 -0.0076350956
1.1663992 -0.013740002 0.017739549
4.0150771 0.34637293 0.31949335
3.7438371 -0.0069075138 -0.0016343085
1.9281917 3.3126719 0.26193145
0.75675887 2.7018981 2.001312
2.9178145 1.4210097 -0.004591357
3.5108607 2.4934578 -0.00024443504
0.64909667 1.9181702 0.0043678498
4.2283363 3.2529936 1.9960709
3.9972043 0.39912489 1.9946423
0.0034170647 2.3250105 1.5798626
3.196841 0.0012300985 1.1294172
3.5398533 0.66619873 1.6301396
4.7112145 3.7802103 1.9808029
0.17435262 0.034992583 0.70133555
3.7695556 0.00041453645 0.51440531
0.82293904 2.4940696 1.99756
5.6673355 3.1259403 0.7285378
0.43514478 0.12262253 2.0015666
1.094713 1.459305 0.011812296
0.49011874 3.0940223 1.4323233
3.5266685 2.3852785 0.010598408
4.4194431 1.5889583 0.0097677493
5.0655117 3.4424627 2.0053687
1.8073252 0.33272132 1.2849592
3.7520671 0.69901794 1.9090663
2.060962 0.44663113 1.9949253
3.9909317 0.70848602 0.57598251
3.5382612 1.8545213 2.0002863
-0.0093661649 1.477904 0.88621235
1.4263643 0.25802082 0.62947261
3.0943534 0.79188526 2.0055547
5.5656266 2.8923502 0.96962136
4.5536366 2.7059946 2.0066023
-0.0095101846 1.925607 0.93128043
4.9073758 1.5056193 0.94489729
3.9892445 0.095302612 0.62292063
3.8874907 1.7523239 -0.0039144526
3.6653929 3.5298908 2.0023313
1.5307468 1.9463719 -0.018771805
1.8457005 3.2946074 1.2645736
4.634428 1.5722539 -0.011670165
-0.0060423883 0.0026107472 0.0042899023
5.6025386 3.9390993 2.0113342
3.3412483 0.62042999 0.67625737
3.6880877 0.27378625 -0.0053433864
2.2415683 0.41446868 1.2569402
0.27139595 0.04756701 1.8012145
5.3743353 2.4223564 1.6414686
4.4885235 1.5051132 0.14398539
5.6092205 3.9010084 0.0075271078
4.8250146 2.7036483 2.0034566
-0.0097544482 2.085686 1.6596098
1.4065481 0.18884912 1.9971414
0.5268597 -0.0021000209 1.3338368
2.6306479 1.1628883 -0.00012127902
2.2872558 3.3822765 1.9108799
2.0395541 0.0050983662 0.28085673
1.6778091 -0.002989758 0.059057862
1.1370158 0.5382086 -0.01265641
0.71984994 3.1257811 0.52690274
4.792201 3.4235237 0.015707085
4.4016132 3.3777101 -0.01115902
4.9937291 2.871825 2.0027752
2.1742752 0.41002995 0.33423069
3.9956536 3.4988408 1.9923548
3.3732543 3.540627 0.080177248
5.7222381 3.8846121 1.9987016
-0.015048842 2.6630933 1.3187926
2.0548558 -0.0090133417 1.8573151
0.89561677 0.16593577 1.3847466
5.6141791 3.001924 0.03638326
4.6164083 2.2104993 2.0157857
0.18468681 0.62598211 2.0057566
4.911418 1.4997094 0.79808801
2.0106025 2.4184291 1.9916083
1.7661998 1.1111676 -0.0070866942
5.2935643 2.2249196 1.7616261
2.1396034 0.63696402 2.0165336
2.1370144 0.082160555 -0.011491448
2.9704001 1.025082 2.0021789
5.4844546 3.8225653 2.0081246
0.061676882 -0.0095754806 0.35492241
3.8434584 0.72221476 1.322805
2.525409 2.3695788 0.0012397738
4.20995 1.4982301 1.5326065
3.6993542 1.7757608 0.0053755953
0.17340587 -0.0081168264 1.6567702
4.5600305 3.7311082 1.9848168
1.6810905 3.2817574 0.14323798
3.991924 0.70552415 1.2272598
4.2651086 2.0341923 -0.0069996174
2.3800306 0.4072493 -0.0044292295
3.5176222 -0.00012104915 1.5984217
3.7885797 2.1026869 -0.0029490795
4.0008526 0.67676306 1.5275565
1.4124659 0.076532163 2.0017374
1.6216891 0.0001287237 1.2192184
5.0591073 1.6247718 1.9214679
2.0409007 1.1288893 -0.012674658
3.9882934 0.36712974 0.17827117
2.0698104 0.40099204 1.1919785
4.0041585 0.94125003 0.18802255
4.0130811 1.2117848 1.0222677
0.060723957 3.0018561 0.38683039
1.4960331 0.42734513 0.0056018298
2.127445 0.28012109 2.0088406
-0.015871288 2.6472595 1.6076143
4.1172357 3.686841 0.33168402
3.0917392 2.136183 -0.015706658
0.93747669 -0.0076458966 0.031499561
5.902112 3.7590244 0.35301086
5.6248341 3.0906627 0.21612708
2.64974 0.79319042 2.0071442
0.2347984 3.0329759 0.32277322
4.8469877 3.2437603 -0.0089636287
3.7140367 0.0047082389 1.3234729
2.7198555 2.6362441 0.0095320493
0.90962732 0.36669528 1.9991057
3.5645485 -0.020841708 1.0908206
2.1328769 1.6916331 0.0073304651
4.0077724 0.25534379 0.89244711
2.8759108 0.016319934 0.83444488
1.3053001 2.7658627 -0.00031372477
3.2260351 -0.016476195 0.20828393
1.1037881 -0.0032043592 1.5041602
1.1171291 2.5350945 2.006964
0.34538913 0.057151448 1.3380986
4.7661524 3.7783561 0.84299803
1.7425039 0.0025503896 0.13125007
0.91426927 2.1519802 2.0067027
3.5694821 -0.0026498719 1.8611574
4.0058322 1.0251645 1.7599318
3.5614297 2.1026435 2.0167067
2.2002985 0.28291252 -0.0082088159
0.22131683 3.0307288 0.70720822
5.4463506 2.6363549 0.3894662
5.74646 3.9439602 1.1396617
0.83662385 3.145709 0.54252017
2.9607134 3.4933465 1.3197546
4.2143512 3.6855314 0.98272973
4.1855373 2.923418 2.0013113
-0.0012915367 0.17116815 1.6725324
5.1549916 3.8037434 2.0161369
5.2724004 2.1346893 1.407102
3.3946769 0.015714001 0.29261285
5.217308 2.0389447 1.8819227
1.3025813 0.24783574 0.4517732
1.7929776 0.33502871 0.9696734
0.00034530103 2.873565 1.6830534
0.96099848 -0.0043390421 0.029971175
2.4076154 0.0049873008 1.145538
5.3436723 2.3177423 1.4011003
5.3192234 3.8797283 0.42337656
2.3154142 0.52616304 1.994325
1.0023293 3.1894779 0.82995087
3.9978871 0.25652254 1.3501904
0.63402975 3.1102762 1.501878
0.92068315 3.1585512 1.1503314
3.9805377 0.10373356 1.9854413
0.006622266 0.10626754 0.92026871
0.51523238 1.2032111 -0.0062913769
2.1577213 0.26941383 2.0017169
4.6523862 3.7990553 1.1704543
-0.0024506997 1.431797 1.4464301
2.4282229 3.4010398 1.1060055
5.2602229 2.1695867 0.88569885
0.0024144249 2.1582408 0.77252311
0.49048045 0.081564642 0.67075789
0.0016830406 2.0418804 1.4083542
3.7794321 1.2281475 0.005250752
4.598948 1.6374017 -0.010677675
3.7482176 3.6273906 0.23945175
4.5738535 1.6777824 0.0082577346
4.912632 1.4720854 1.8631563
4.405127 3.6922977 2.012249
4.0039563 0.30855635 1.5799539
3.3159142 -0.00078790629 0.69270062
5.0860496 1.7355723 0.26661995
3.7701097 0.0037502958 1.6597372
2.5014596 0.46997657 1.1817153
5.1993785 2.0352585 1.5712571
1.8922913 0.70431405 2.0065212
5.5247188 2.8715377 -3.5989899e-05
3.6519907 -0.013423318 0.36400422
5.6293225 3.055985 1.4082909
5.8685985 3.6796255 1.6856809
4.7286572 3.6894875 2.0119052
1.3054311 0.39129463 2.0083199
0.20222253 0.034126602 1.3304138
3.5909839 0.010536002 0.14836097
3.5840859 1.7052224 0.0024653268
2.6349473 -0.00059268938 0.023839884
5.3085217 2.845468 2.007529
0.001389442 1.5847915 1.8602302
2.2310877 0.0072132829 0.71929955
0.19157115 -0.0037964662 1.8359984
5.8606663 3.9637926 0.37474868
0.86898327 0.81033832 0.0013515824
2.1189659 1.7860272 2.00668
0.75135475 0.40560651 1.9849074
3.5218475 3.5910578 1.6203536
0.45959437 3.0660565 1.6544719
5.1080465 3.8712482 0.51952231
5.2527986 2.4151726 2.0010998
-0.024405824 0.91439366 0.083085276
1.9457301 0.92839831 -0.0013646333
0.022981068 -0.0014980217 0.78567284
2.7517345 0.71854341 -0.0058732494
3.9928148 0.48204327 0.62606114
0.25309864 0.0023136253 0.57077944
1.2156209 -0.0018973995 0.84536225
5.0260329 3.8350461 0.25141162
3.6506653 2.7574778 0.012679935
0.077344835 3.0166426 0.77933925
-0.012553843 2.2215002 0.84821004
3.8862572 0.0074396152 1.07533
2.6504691 2.7867997 2.0017869
4.0691013 1.5060287 0.27228871
4.4945741 2.5361464 0.016540438
2.5926852 3.3860583 0.0097082704
-0.015667036 2.8430829 0.63070345
0.84438396 0.15716252 1.3844213
2.2957265 0.98505926 1.9973935
1.1428176 0.21114996 1.9525543
3.8627517 3.1696203 1.9991314
-0.018046837 1.5077976 0.20256121
3.9871156 1.3722717 1.4413055
0.72498608 3.108753 0.68596709
3.655457 3.6141593 1.3141648
0.12458496 1.2546976 1.9825842
2.7095196 -0.0045209215 1.7364621
0.38265765 2.6460564 -0.0049989242
3.3087966 0.61664134 0.75437129
5.2735233 2.2053795 1.0398086
0.25336969 2.522222 0.014557606
4.0226378 1.1644297 0.063357718
5.3448768 3.1612127 0.022515994
4.6344495 1.4834611 0.76187348
0.97142369 2.1862822 0.01637063
4.0217619 0.15641318 1.8982639
4.5966702 3.7766902 1.045776
1.9410968 0.71362764 1.9893041
2.3294625 0.015081042 0.56206149
2.159621 0.6613667 1.9916972
1.2424734 0.39643213 -0.016274774
1.1011591 1.1251358 0.021154128
1.2415599 3.1973858 0.58316481
0.030633431 2.6960208 2.0037358
1.5902938 2.7050765 0.013459627
3.9842455 1.2964252 1.9475644
3.9555588 3.6503892 0.3622891
4.3323021 1.4976027 0.28200579
1.9871559 0.60664904 0.014470394
0.72458053 0.13078813 0.19749485
3.990416 0.091696747 1.7067864
3.311564 -0.0043590264 0.23344137
5.2739015 3.8773713 0.025091054
5.7991266 3.4855292 1.7088242
3.5107865 0.92399329 -0.0030754609
4.2164421 2.1985724 -0.00030797996
3.85729 2.7546463 -0.0043208003
1.14739 3.1980503 1.0269879
4.9182682 3.8228047 0.36292887
2.5875733 3.4178665 -0.0059175435
0.67240375 1.9082906 1.9957206
4.0048261 1.1035285 1.3495861
1.9520794 1.4391699 -0.006036967
3.9755449 0.51348448 1.1931849
1.0793759 -0.0051004402 1.4328096
4.3955107 3.3238788 0.0036640996
4.5950985 1.503085 1.0790837
2.8552961 1.8737341 1.9972914
3.3402109 3.5703838 1.6547441
3.7904441 1.9058868 2.0082312
1.1922469 3.1892653 1.1922783
2.7156892 1.7125688 0.0020896231
5.2264309 3.0027697 -0.023095097
1.660226 0.31272864 1.4210062
5.2094817 3.8866987 0.21113814
0.45878258 3.0303173 1.996471
2.657676 1.1850733 2.0112324
0.5495584 0.10737696 1.9782959
4.1145759 3.036634 -0.0068082046
4.2723074 2.1957488 0.00051293575
1.1074212 2.849972 1.9875684
4.6720262 3.2828679 0.0041354699
2.0203853 0.0088287173 0.60182911
4.0078144 1.247741 0.71959347
3.7512994 2.2545011 -0.010288435
1.0384634 0.72780216 1.9932561
0.90605921 0.0053443508 0.093865372
3.8840988 3.5727055 2.0036838
0.8158747 0.0082821166 0.45655996
3.3351617 1.3751402 2.017051
3.9908233 1.0462544 0.29408288
5.9188027 3.8101602 0.49728563
1.4592127 0.19629236 1.9826612
5.0497289 3.4205036 -0.0042279982
0.31541419 2.2687819 1.9896955
0.86930704 -0.017251037 1.3458014
0.87484181 0.15885545 1.1472969
3.5307086 3.3240116 1.9955124
0.00068775122 0.74981266 1.9462966
1.7801476 3.2976434 0.35836071
1.4393234 3.2456863 1.6216764
3.0005162 -0.0050725364 0.23881717
2.3461134 0.41749501 1.9883418
-0.010602165 0.25425324 1.1370358
0.45732903 0.90685403 0.0044532698
0.52384943 2.4770157 2.0187278
2.7575569 3.0693727 1.9995534
3.2379549 -0.0083602276 0.85274327
1.609053 2.6395717 -0.008708057
5.727735 3.959178 0.26048988
-0.011942929 1.9576929 0.71317375
5.7746167 3.9700594 0.16371606
5.0184131 3.3900545 2.0106015
1.8175282 0.33222118 1.0798775
1.4092078 1.4829028 8.2692874e-05
0.56434995 0.12614186 1.7719426
0.0021866783 1.9810923 0.29109502
3.537159 1.6818322 1.9909954
5.5955276 2.9681318 1.4589639
2.0600879 0.71012044 0.0052473503
1.3043629 0.25316295 1.8671139
1.6257676 2.3816304 1.99751
5.8867474 3.9649169 -0.0029894533
0.73121554 0.13131168 0.91270131
2.7955601 0.53235775 0.45309496
0.59542143 0.11851484 0.52242279
3.6208487 1.2234619 -0.012576759
3.2040603 0.011756568 0.41235813
3.5384829 0.65913427 0.97131139
3.9907742 3.3638778 -0.01521848
0.0029120459 2.1359646 0.45398897
3.0488915 1.2609178 -0.017640471
-0.012769048 0.73873866 0.14577477
3.2010658 3.019151 -0.0053805392
2.8078537 0.010022356 0.85966563
1.1534292 0.79956335 -0.0017000006
1.6809851 0.94763678 -0.0025654039
3.0186956 0.0095422491 1.8709255
0.91632837 0.17511964 0.58878636
0.012135471 1.874473 0.20081075
0.92045826 0.0092621464 1.5726823
1.9606943 2.3420591 1.993251
3.665323 3.5140724 -0.0071685803
0.83448386 0.54974163 0.00053030287
3.9968834 0.20630161 0.84414428
2.9496155 3.4843194 0.017981187
4.0006189 0.43935886 0.68779469
3.6138117 0.0021933578 0.76974297
2.8491948 0.53933752 1.0830936
2.5116069 0.47740069 1.140993
3.9850342 0.33970642 0.5444386
1.6494958 0.4039745 2.0001612
5.2368712 2.1067863 1.4434828
0.84389544 2.1908312 -0.012106147
3.5875301 0.67260492 1.2021773
4.7972364 1.5029204 0.38213131
0.04977975 0.010966168 1.4911089
1.9375918 0.0040916428 0.49661654
3.6081903 3.5858963 0.9742943
2.5139878 1.2181329 0.0071506463
4.0014219 0.24285442 1.3818951
4.9142814 2.3201847 0.0094352774
0.62134695 2.4466951 2.002285
0.29321525 1.8622718 1.9972768
2.7087076 3.4524825 1.3382496
3.9942582 0.79409909 1.6938918
3.9968319 0.54370439 0.86800629
5.623096 3.0813138 1.1558948
3.2167339 1.7964623 -0.0080434969
4.1572762 2.0956645 -0.0092596449
5.2601886 3.4845891 0.008509811
5.1855698 1.9895693 1.9933975
3.9844899 0.40005586 0.97414619
2.7422311 -0.017559107 0.41189754
3.2851398 0.0029360228 1.4743334
3.5030265 -0.010167037 0.67201424
1.1481928 0.1824038 0.0064088614
3.5007503 0.80671835 0.019065324
2.246387 0.41068512 0.52249265
3.2900269 2.2985055 2.0223317
1.0076215 0.016364103 0.28445706
4.1067443 3.6872478 0.82686186
1.3173898 0.22323306 1.9013379
-0.014745043 0.3076413 1.6834613
4.7557268 1.6279838 0.0049779401
1.0200883 3.193701 1.3424243
0.4410283 3.0798104 1.8490828
3.5179653 3.5922151 0.48037496
5.5558763 3.9306908 1.5532558
0.87534732 0.15415449 1.314747
3.7158356 -0.015366731 0.57700408
4.0045485 0.49114066 1.5439546
2.979048 3.3015261 2.0123556
2.334228 0.9393115 -0.0075346348
5.9600921 3.9025817 0.18809325
-0.0010231339 2.7944779 1.4667598
2.4675972 3.4059863 1.2004753
3.8430412 3.6260302 1.7066252
2.8885882 0.010213653 0.062495857
4.0319304 1.5066642 1.720618
3.4232678 -0.020293074 0.66169614
1.4743488 0.28503045 1.3135984
2.3961678 2.3244057 0.0030412648
0.1376442 2.5897613 2.0049355
1.0411754 0.56297904 0.0074574002
0.19726159 0.0035428121 1.4836316
3.9413979 3.6638331 1.1619307
0.069330685 0.021622732 1.0436676
2.4787581 0.47229847 1.7142739
3.7361753 0.1664139 2.0101573
2.2782192 1.141368 0.00073913706
3.8860545 3.6608763 1.0553287
5.0823183 1.7503134 1.2638235
0.8869139 1.4685256 -0.014028428
3.9987161 1.4184576 1.3969728
4.0147314 1.3768423 1.0031759
5.9766808 3.9338431 0.47432491
5.3994279 3.5764315 1.9981006
4.410614 1.5081992 0.33281884
1.0714438 1.5672865 1.9965726
3.8743322 0.72114092 0.48578084
-0.0090337964 2.6846831 0.10961886
0.57914644 0.31193587 2.0028732
4.527791 3.7598996 0.69869524
2.0000384 1.1153898 1.9982268
1.174741 -0.0026099524 1.7951037
0.0064867903 1.7513548 0.53614593
4.048769 1.529741 -0.0020682635
3.8436091 3.6495645 1.127713
2.1657128 2.5760212 1.9821737
3.1872041 -0.0057221386 0.78524911
3.4316056 3.2445905 1.9961605
1.2304188 0.23282522 0.3736859
2.8006415 3.4397571 -0.016448388
2.5965774 0.85886204 2.0087705
2.7871754 0.27893305 -0.0020212422
1.9859517 0.5391928 1.9874641
0.1578026 1.7106993 -0.00039599111
0.098730467 0.019262554 1.1258962
0.26570368 3.0293224 1.839924
3.9391124 3.6394093 1.9829816
0.15771562 1.1568164 2.0037124
4.0119715 0.22105105 0.10783686
0.3502886 3.0570469 1.297181
3.3649824 0.47458544 -0.0074043358
3.4207685 1.0427468 2.0034504
0.90544623 0.62445885 2.004091
4.7921267 2.3360193 2.0073314
5.8266249 3.9571209 0.076476984
3.6557646 0.68145531 1.4795409
2.8822854 3.475436 0.28551254
3.192174 3.500885 0.0050008451
3.020865 2.9706326 1.9982992
0.15774783 3.0281284 0.35551396
2.4630013 3.4163623 1.5534465
3.9672923 0.7579484 0.69525599
3.5345652 0.89016628 -0.0017435891
5.0579181 1.7067468 1.3613681
3.2473347 1.241259 -0.0089007951
3.4713538 1.6868095 1.9965683
4.6426744 1.5066797 1.6497509
0.27917212 0.058215018 0.47368398
1.3764017 2.4405637 1.9964119
4.3987346 3.4414439 2.0123544
3.1878097 0.58172321 1.6744504
4.0014033 1.4841386 1.2463328
3.2898123 3.543349 0.23537825
4.3108025 1.520959 0.97651923
1.049912 3.1763005 0.17251922
0.18759604 0.93011498 1.9999288
0.99666542 0.18545668 1.5813799
5.9684048 3.9276278 1.1323667
0.0063534025 0.66374308 0.82941085
2.173223 3.2089479 0.014392375
1.2951621 0.0028112845 0.18363605
3.4523835 0.62038869 1.3143017
3.3765106 1.7418736 1.9845006
2.573626 0.84438837 1.9706959
3.3556364 0.0031320548 1.8685057
0.82741737 0.012591486 1.5916547
0.14408945 -0.0021383134 1.2226956
2.709295 0.0047813868 0.22751729
3.6846106 0.0078364955 1.6787722
3.9177763 0.0043715029 0.064096801
0.0099708615 0.12548643 1.5921694
1.9945118 0.37980783 0.55712622
2.105448 2.9609866 1.9913607
2.6331913 2.1860008 2.0088279
0.73328662 0.14057767 1.5759114
1.4101034 2.187243 2.000952
4.2930288 3.710705 1.082074
1.4619385 0.75341588 1.9975389
5.6313353 3.7449539 1.9979678
3.3982797 0.63408631 0.12433362
5.8563905 3.6451759 1.1265819
1.9318073 2.8859313 1.9989815
3.569757 1.2789894 0.005979409
0.1011643 0.0058353092 0.84681702
3.5941255 2.6136582 2.0054023
3.9967513 0.76555777 0.3966344
1.1288931 1.4564683 1.9909004
2.7748897 0.13789235 0.0011983936
1.1555989 0.4529314 -0.011474082
0.013596755 0.67212397 1.5101931
5.059586 1.6515856 0.35178503
4.4010859 3.6628017 -0.0075630196
5.3275561 2.2925563 1.746209
4.0006828 0.72450781 1.5334623
5.7449155 3.5161324 1.9984082
1.9611372 2.2581222 0.013865341
2.2521696 3.3096695 2.0073974
3.4626818 -0.0016878042 0.31801307
-0.0028115534 1.6145695 0.72056872
5.362401 2.4229171 0.11073883
2.8291636 0.51416868 1.7217408
4.0328913 3.6723824 0.5382719
-0.00049310876 0.69157875 1.4025949
0.0029859624 0.30548683 1.9567113
4.0015359 1.0970404 1.9492441
4.005774 0.89524013 1.1377972
0.011110602 0.70872855 0.90511185
0.16037446 2.4414759 2.0119505
2.8292687 2.5344152 0.013678403
3.3933911 0.64716434 0.5981642
1.5867389 3.1730595 -0.016954826
4.9054174 1.5031353 0.2581152
5.7301884 3.284554 1.9341826
1.4417675 0.27045351 1.9949089
4.9413781 2.3403304 1.9828984
-0.009044962 1.0175612 1.5793363
3.2798779 0.63280129 1.3573936
0.008122988 1.5845048 1.6796247
0.76179093 2.5700574 1.98255
2.1480522 3.076098 1.9962654
3.5671439 3.2592881 0.010156125
3.5115733 1.7518857 -0.0067908713
4.0841908 3.6835303 1.9316146
1.6857443 2.3182709 0.020615911
5.1042094 1.7742653 0.331195
4.4277024 2.3625083 2.0096776
2.2371318 0.4281095 1.0433412
2.6061976 0.248542 0.0017944006
1.2779837 3.2198203 1.8117099
4.4260712 2.1139374 1.9904075
2.1476347 3.3502131 0.36556378
4.7736292 2.5251164 0.0046523241
-0.00094025151 2.4056778 1.3269216
1.3871286 1.239894 1.9965386
1.6305001 0.29669863 0.78323203
4.0061274 3.4564443 2.0040514
-0.0051330938 1.7114356 0.53943968
1.9224805 0.36637506 1.7330132
4.287899 1.50161 0.12021644
2.7996848 0.0051363856 1.8307772
1.4620483 0.29124063 0.92073327
4.4960208 1.492067 0.077127114
2.1444347 3.3619034 0.61572337
0.82251382 0.16240576 0.55459267
0.96506608 1.4088888 2.0040503
0.55358636 1.6805713 1.9980867
2.4901733 3.2902987 -0.018699603
5.7827463 3.4035897 0.19644558
3.6016598 0.66516489 0.29190242
0.90091872 1.5044358 -0.0020478857
3.2663131 0.60328847 0.95656455
4.7908988 1.503328 1.0475266
0.0025535743 1.8102201 1.2217944
5.9636989 3.9022422 0.81821561
1.3606029 1.1101346 2.0063059
0.70938182 0.0077736559 0.31699795
2.6540585 -0.0011143765 0.92204189
3.1163757 2.5179844 0.0034749538
5.4704919 2.6948092 0.19559745
5.2407832 3.6458519 1.9975996
0.016828019 2.0047565 0.036715385
0.12180733 3.0107725 0.69182867
3.2833359 3.0981464 -0.0094536711
5.352592 3.8926532 0.86262739
0.5790931 2.6161692 1.9968897
1.3887134 -0.0054446203 1.653598
1.3550488 0.25461283 0.59147084
5.374023 2.4227018 0.025664605
1.5962756 2.2238159 2.012244
5.745811 3.3212504 0.84019768
-0.00053694687 0.011596419 0.053209979
1.837558 2.3329854 0.0070540244
1.320101 0.25709358 1.0054547
1.4563377 0.44144109 1.9873481
2.5509846 3.4189377 2.0054467
2.2717109 0.26627588 -0.0035796573
3.5941799 3.5945764 0.057860635
3.725877 3.6391971 0.26042667
0.65583789 3.10303 1.5567278
-0.011814657 0.75028825 0.32524186
3.7346718 2.5074792 -0.00064603059
1.5510494 0.011897967 1.6241932
5.4628119 3.9208994 0.53952622
4.4676628 1.5044099 1.5844707
4.7776585 2.3614764 2.012399
5.913115 3.7634387 0.90100616
2.6820421 0.50651109 1.4875866
3.3613555 3.5643523 0.43626627
-0.005960586 1.5841049 0.95900697
0.031152915 0.017899262 1.8492657
-0.0073475977 0.19735488 0.63013774
0.85080886 3.0685637 -0.024072094
4.3499932 3.7336199 0.050834421
5.9600382 3.8698423 1.8248726
0.49364042 2.6524358 2.0013385
5.5804057 3.9148669 1.4729835
4.0116978 1.1867918 2.0035408
2.3482859 3.3833613 1.7537365
3.9848137 1.2148646 0.38039127
3.9381263 2.4006662 2.0083494
2.8417144 3.1163001 2.0060956
4.1494269 3.6842785 0.87627763
0.72093642 3.087534 2.0042605
2.6851604 -0.00073018222 1.9615813
3.4711089 3.2506175 1.9802805
1.1605729 3.1913345 1.1655416
3.7978945 2.9097369 1.9981552
0.15181261 1.7666975 1.9889162
2.5853245 0.94540775 1.9878104
4.6491342 3.7855854 1.480122
2.0732219 0.38736126 0.72271919
5.0909257 2.6300402 -0.012588525
1.0623986 0.0081339255 1.420897
0.99238551 0.0048749596 1.7723951
2.3699834 0.43971115 0.76752716
3.3698642 2.885659 -0.025350528
4.0275612 0.44999704 1.2477798
1.9810964 3.3540165 0.78196609
0.34562555 2.0058603 0.00068968901
0.70673561 2.0043814 2.0155177
2.8307824 0.87139153 0.0028545288
0.28245047 0.34657854 0.015578027
1.5929286 3.2605555 1.9439771
4.5857773 3.7583694 1.6681442
-0.014325657 1.1965847 1.0817585
3.2998481 0.30374786 1.9967995
4.0004396 1.1821802 1.0295473
5.2129049 2.9786046 2.0100584
1.0690836 -0.017494015 0.41356832
0.021380197 0.76036102 0.77739233
4.9694095 1.722737 2.0071604
2.7407341 -0.0042021051 0.12870564
4.0047016 1.2103157 0.57528245
3.9815164 0.041565578 0.1274101
2.9647205 3.4856091 1.2042576
2.9371898 -0.018153694 0.58799821
3.9002728 3.6289284 1.6077896
0.87060702 3.1444306 1.6804301
5.9200311 3.7597132 0.87318003
3.0753343 0.56932378 1.1803985
4.2384567 3.4716811 1.984759
1.4230478 0.26756352 1.2381814
3.30127 0.62112117 1.9068267
1.7171448 0.31372184 0.53144258
2.0210199 2.1612241 2.0343692
5.6613908 3.1472976 1.8717355
4.6729274 2.4532521 2.0028133
3.4624863 0.67524362 -0.004307365
5.5651612 2.8919249 1.1141075
-0.011407611 0.82512987 0.16557297
4.1565676 3.700412 1.7136604
5.5043912 2.7665322 1.5781895
3.3785474 0.63047087 1.4313512
2.0035667 2.9743831 2.0011089
3.3612731 2.4815073 1.9963855
0.71082842 0.07702136 2.0032275
2.8748162 0.54340363 0.13765724
4.1143737 1.8484602 0.0032207724
0.66889018 3.1088643 0.27904406
0.26240742 2.3718262 2.014581
0.77948356 3.1280987 1.3196827
3.6587605 3.5947146 0.12499005
3.4584279 3.5713863 0.74052674
3.5827916 0.0079175364 1.7248535
3.3960557 1.2777879 1.9963709
4.8130345 3.7988362 1.1926724
-0.011942429 1.8520226 0.25667191
4.3362045 2.6878622 -0.0020795779
2.5124695 0.47151157 1.9078667
5.8071899 3.5076721 1.3759729
1.8686366 0.017944856 1.0578256
4.707355 1.8202578 2.0033059
0.25502369 1.0747513 1.9913652
1.4216521 1.7548246 1.9959658
2.4134405 1.428383 0.0071954611
5.2314086 3.8722718 1.9388694
1.4448239 0.6617201 0.00912508
3.137538 0.60572994 0.058574896
5.4458432 3.8916783 1.9410903
1.5233432 1.7755566 2.0015137
3.790015 0.17886414 2.0055292
4.0009089 2.7574749 1.9864303
3.6948471 0.69374573 1.106755
2.544533 0.24020714 1.9801016
2.6313603 0.898395 1.9904802
2.6316414 3.4362302 1.2663932
4.0131593 0.2126455 0.038956493
4.1478252 2.5165205 2.0083141
1.5700539 2.2484872 -0.021741739
3.3395922 1.4274119 2.0012424
0.10957484 3.0107553 1.1534724
2.1385691 0.013150178 1.6084458
1.3924924 1.61378 -0.0016210872
3.652076 3.5816486 1.1821922
2.750766 1.1967219 2.0029464
5.0089722 2.6815572 2.0068121
0.0030681214 1.1250182 0.64969033
3.9196575 2.1133728 2.0195584
4.1254721 2.4991572 2.0148025
1.3573959 2.4640272 2.0027814
1.5998843 3.2643874 1.8891575
0.0015066364 1.4523625 0.094708554
3.5949326 0.62454474 1.9899964
3.0092742 0.33753437 2.0038006
0.09690322 2.5802705 2.0052812
0.35103333 3.0726783 0.035915393
1.2067446 2.6254606 -0.0075912606
3.5330708 3.5615199 1.3658785
3.5296075 0.64820272 1.8933592
2.7182527 0.49419525 0.32036325
3.5041735 3.5559061 -0.0097201355
0.13339247 2.0320816 -0.0076414412
5.7752342 3.426827 0.03326061
5.4646955 2.7790737 0.00064018642
0.88518721 2.7931199 2.0052054
-0.0074029872 2.9897408 1.2051073
4.0538559 3.6750748 0.96949244
0.87922335 0.00070221635 1.553111
0.0032841293 2.9031086 0.34028584
5.4386172 3.9154086 0.27470484
2.2198076 0.41645434 1.4489188
4.0269184 0.061351504 0.077445097
1.1414571 3.0463512 0.013979283
2.2023079 -0.010693982 1.5364065
5.7483859 3.413106 1.253891
2.9486086 2.0945985 2.0108297
-0.0123922 1.682845 0.4402537
2.2383924 0.016896002 0.66794986
2.8498294 0.186836 -0.012935077
3.9402137 0.22340162 1.9794295
0.012395766 2.0770509 1.0053157
2.3947835 0.87001222 0.017391888
5.9821935 3.952436 0.21839799
1.0193009 0.18863498 1.0071161
1.4334365 1.0239667 2.0132177
2.4277704 0.82619059 0.0025165228
3.8314104 0.0094809923 0.039211534
3.9477744 3.6628156 0.63890052
4.7843404 3.8002 0.3724823
1.5944736 3.2655923 0.083449543
3.3771589 3.5647635 1.229589
1.0616503 0.20710009 1.4118856
3.7275445 2.8843718 0.014680738
1.3645419 1.5172217 2.0032096
3.7666111 3.6233768 0.73904473
2.3639491 0.43460011 1.0443019
5.6473346 3.1068048 1.6977966
0.91907352 0.048571575 -0.018016331
3.362927 3.5544612 0.75304097
1.9337621 0.76697934 0.010096072
4.3960648 2.2719004 -0.0014513265
0.40015388 0.056206279 1.8677242
0.010698276 0.5242359 1.889834
1.0370221 2.1497107 0.0005514035
4.6259089 1.5012796 0.85512698
5.1335645 1.8862416 0.15721984
2.1005888 0.38264093 0.70275384
3.9370315 3.1528332 2.0085137
2.8733633 2.1577158 -0.0091069983
0.34489045 0.014663845 0.52162153
5.5886283 3.9368699 0.80860287
3.6502156 0.68388027 1.8253527
2.3641539 0.75063986 0.0038830314
5.3150654 2.2794957 1.7173482
5.2555604 2.9945624 -0.0043006605
0.83839238 0.17482746 0.45292988
1.4475299 3.2317452 1.6915067
-0.013217649 2.4652424 0.71877003
3.541961 0.87756598 2.0108883
4.0531707 1.4967966 1.2613515
2.8055565 0.013556404 1.2831213
2.7510757 0.51973736 0.2936936
2.4942172 3.4164534 0.33377957
2.9521677 2.7364511 -0.0041383873
4.2606454 2.6311417 0.0091736717
1.6030443 3.2792139 1.6452096
0.22213042 -0.0074408399 1.7387162
3.9918003 0.4383674 1.4416268
0.96439517 1.3992487 0.0075786761
4.6381764 1.6290063 0.0012230194
4.4433832 1.4773043 0.37691537
2.4436569 1.9792854 2.0140402
2.3967924 -0.0025951981 0.056346457
4.0092106 1.0074142 0.97264493
0.99244636 2.2557907 1.9951839
4.0735006 2.6098766 2.0087509
-0.0079079894 0.57077706 0.80060524
3.0635912 0.0032482096 1.1246713
2.101613 0.39458883 1.9531325
5.9268169 3.9731507 0.53431481
2.101368 3.3435915 0.53781432
3.1048884 3.521137 1.2576017
3.3160892 2.303726 0.0028187342
4.3953485 3.3522701 0.0056891418
1.8850738 0.35087565 0.78255749
4.5279703 1.5000252 1.9915304
5.0484695 1.7876301 -0.015974754
4.0458207 1.502134 1.4875181
3.9979644 0.94697076 1.0603479
0.0046749944 1.6804761 1.2986091
4.213244 2.2304184 2.0019095
0.43649644 0.10372117 0.90863305
0.011130705 1.5267352 1.2932311
-1.5240428e-05 2.2547889 1.7191503
3.1811018 3.5391426 1.7423589
2.2501197 3.3682823 0.75045151
1.0518072 -0.0024747476 1.0703421
1.9979898 0.38667688 0.53682768
1.709754 0.31133288 1.1377578
0.21457058 0.031841964 1.3005348
0.57401055 2.240104 -0.0054154457
0.01818423 2.8027194 0.044630088
0.55362195 1.9652303 -0.0031096728
2.899209 -0.00059191667 0.67236668
2.1158416 3.3708742 0.84476221
1.2073076 3.2045493 1.3280597
3.7165062 3.6172109 0.3893837
3.4675484 0.66253352 0.046595287
0.001099068 1.842647 1.5070745
-0.006441786 2.6941495 1.3413829
5.9188385 3.7806056 1.2931896
1.7402214 0.0008849703 0.8341639
2.3034787 0.43094143 0.085755058
1.4801216 0.0085623395 0.27239266
2.4227226 2.9191966 1.9897627
5.1784453 3.8629234 0.93808025
3.042681 1.014969 1.9883074
5.3349962 2.3244824 1.5835408
3.5215454 3.4719594 2.0088794
-0.010778346 2.8105464 1.5538471
1.31275 1.635502 -0.014029569
2.0634933 2.8803952 -0.003456346
3.4389064 3.5700774 1.6512592
4.9416695 3.8342357 1.2398729
2.0633087 1.9566994 2.014713
4.2981849 3.3121336 0.0013175092
4.0521369 3.6635478 1.8745383
1.0276558 3.1696515 0.17609905
3.9250417 0.75427556 1.630201
-0.016252236 2.8509574 0.68874866
1.6123334 2.5490673 -0.0011389474
1.3059791 -0.01324082 1.9814559
5.0324221 3.8425362 0.058733732
4.088419 3.3015299 -0.013482849
1.3923428 0.51223952 2.0145388
1.9250499 3.1589684 -0.021759817
5.2060132 2.0111427 0.83010763
1.8439835 0.15798019 1.9795022
-0.0081356149 0.64710194 1.4447986
3.7078903 0.0063390969 1.3956128
5.5790653 2.9507246 0.34831455
1.6719068 0.3089509 0.19521488
3.8695173 0.72451431 1.2222285
-7.0355636e-05 2.30354 1.5502441
3.4897327 1.5041732 1.9915138
3.5299404 0.87711722 -0.0049127708
1.8356308 0.35777643 0.38529348
4.8692365 3.4953029 -0.0056379982
-0.0024915673 1.7687505 0.65138209
4.3580179 3.0934076 2.0076766
-0.010548578 2.8046393 1.1422204
0.0038780307 1.765005 0.58914053
1.7768697 0.34026921 1.735063
0.010116753 0.1611892 1.349931
0.0065421453 1.8389994 0.02344103
2.0885992 0.4069021 0.81200904
1.3279191 1.3829257 0.0056700706
2.8593481 0.54897237 1.9513817
5.2075558 2.8648567 2.0010841
2.6512773 0.50593501 0.78623337
2.7801814 0.00762509 0.19061086
2.8692198 -0.011102452 0.69795001
0.80143625 0.14542939 1.8902442
3.3926737 2.9747176 0.0047707232
0.88923502 -0.0097907903 1.9970385
1.5067973 0.20778042 -0.015932653
4.0024819 1.1529325 0.96875209
2.5419812 2.9945757 0.0032337464
0.93455273 1.0937819 -0.0055783149
