# .PCD v0.7 - Point Cloud Data file format
VERSION 0.7
FIELDS x y z
SIZE 4 4 4
TYPE F F F
COUNT 1 1 1
WIDTH 2119
HEIGHT 1
VIEWPOINT 0 0 0 1 0 0 0
POINTS 2119
DATA ascii
4.1909227 1.6638472 2
3.2761328 0.11775859 2
3.6333649 3 0.68984318
1.9200106 2.6788177 2
3.7927153 0.5754661 0
3.3430455 0 1.6444736
0.66141188 0 0.31756559
0.64817697 1.2862885 2
1.2543513 2.3052959 2
0 0.74739158 0.34122515
5 2.9399359 1.3003256
0 0.17241645 0.83376306
1.7575258 0 0.96511275
4 1.1936883 0.31571406
5 2.4716067 1.6612848
5 2.8576229 1.1908827
3.1702023 3 1.0131534
1.8311883 0 0.7564736
0.80819088 2.4827528 0
1.5208488 0.97520697 2
2.0914586 1.8049296 0
2.5601556 2.6498196 2
1.7886932 3 1.8833212
4.5202589 2.5585651 0
4.4792819 3 1.402465
5 1.9665425 1.4416189
2.4050198 1.4963619 2
1.2384154 1.7159423 0
4.1254482 1.5 1.2971146
2.3967149 1.2875208 2
2.9574008 1.1421551 2
3.3811407 2.7646627 0
2.3627706 0 0.72759926
3.2298086 1.4401875 2
0.85380626 1.7186922 2
2.4249866 0.50223076 0
0 1.9923925 1.9578099
0 1.8424453 1.6285768
2.9914176 0.20684513 2
2.906599 0.96221721 2
2.5801682 0.0322202 0
3.979697 3 0.9198153
0.10660335 0 1.1755865
1.7267549 0 1.4114206
1.0425318 3 1.4502336
2.0660689 0 1.1093149
0 2.1182783 0.76528043
1.0695038 3 1.4911243
4 0.50855756 0.68604815
1.1038262 3 0.28852746
4.7183843 1.5 1.4711565
4 0.5449934 1.1039298
1.1641074 1.6380557 0
0.07954412 0.86952621 0
0.16454013 3 0.55698037
2.6662314 1.2229688 2
0.23803899 0 1.0235956
4 0.65511495 1.0121509
1.4300245 2.5652127 0
3.0344522 1.4656638 2
0 2.7724953 1.3594303
4.523715 2.1057713 0
3.5484307 3 1.2252287
0 1.183046 0.28190196
0 0.92675233 0.21145755
0 2.2449193 0.7977801
4.2694278 3 0.066511363
3.6799486 0 1.6313686
1.1296678 3 1.0245324
2.3034377 2.2688229 0
0 2.7731869 0.3045992
2.1142473 0 1.1481997
1.475997 3 0.29665843
1.617028 0 0.88820511
0.67115486 1.3700348 0
1.3884826 1.8554636 2
3.1664264 2.0001786 2
3.6986122 3 1.0691476
0.55897933 3 0.42705896
2.6887805 0.49390495 0
0 1.2322713 1.3981172
1.6099505 2.6159809 2
0.2210433 3 0.22845227
0.95400339 0.8388617 0
2.2940986 0 0.91502386
0.95435435 2.1804504 2
4.20996 2.4011135 2
0.18756585 2.816431 2
1.8457561 3 1.5774031
4 1.2077707 1.8164518
3.4221478 3 0.52236718
4.151207 1.5 0.66166693
3.3735621 0 1.262427
5 2.7613978 1.1883653
3.3710663 0.52664644 0
2.1184883 1.7576874 2
4.5626431 1.5 1.3679612
1.790391 3 0.044920497
4 1.4219787 1.3448308
1.7129567 3 0.40635875
1.6435351 3 0.021157343
0.8090297 3 1.2810255
4.0944457 2.8298228 2
4.4846125 1.5 0.31304485
4 0.52830243 1.8571241
1.7659701 2.8822987 0
3.2373419 1.4395506 0
1.8030479 3 1.7150565
0 2.0530405 0.81490624
1.4578158 3 0.31666511
3.3431222 0 1.0157949
2.4961691 2.0693047 0
0 1.4106009 1.5273491
2.2363284 2.1694081 2
3.9163482 0.61725342 0
5 2.7320373 1.3771075
4.9971004 2.4400606 0
4.8781929 2.7035568 0
3.3424933 2.5400474 0
3.5400984 2.2646801 0
0.69909984 3 0.73931861
1.1067526 0 1.8217109
4.7802167 1.5 0.38578761
0.054288559 1.0124534 0
4.9332781 1.5 0.33303517
3.1281531 1.5656773 0
0.16750413 0 0.90014875
1.3510742 1.9115808 2
1.2852595 2.6235106 2
0.98710442 1.8804241 2
0.22578606 0 0.62537891
1.4332091 1.7085472 2
0.9107644 0 1.4537569
3.6745112 0.023259569 0
0 0.6298402 0.20981437
4.9650369 3 1.4194438
0 0.07802581 1.6649094
0 0.44536695 1.8368162
4.0090075 2.8058102 0
3.4578717 0.40512443 0
3.402581 3 0.35304686
3.9241114 1.3649341 2
3.2782362 1.1481044 2
3.2336175 0.47203884 2
0.23420177 3 1.7880917
4.8213844 3 1.2675707
0.28515154 1.44529 0
4.9756827 3 1.7485037
2.0032206 3 1.7428772
3.4485428 3 1.4955418
1.3045435 3 1.7211286
2.1680844 3 0.05438973
0.7030524 1.7464458 2
0.76699203 1.1805257 2
4.1961617 2.0914443 0
5 2.5328214 1.3616742
0.26727784 1.4432609 2
2.4936483 3 1.912058
3.190964 3 0.30149549
0.46955761 3 1.8983216
0.030404931 2.0966091 2
4 1.4431989 1.7429137
3.1853631 0.66548491 2
4.4678679 3 1.1177332
0 2.4615045 1.305727
1.6552861 2.9530907 0
4 0.61245316 1.9084074
4 0.34729195 1.2389489
0.66631842 0.01402409 0
5 2.1982934 0.7914958
1.2243834 0 1.2258538
1.4218394 1.8124409 0
2.6463158 2.8887458 2
5 2.9209273 0.81743926
2.2550714 0.01863643 0
3.6878953 3 1.4894072
4 1.3665684 1.876019
4 1.1462387 1.3497139
4 1.474498 0.021724295
3.9422245 0 0.7323637
5 2.9665179 0.14512345
0.71659344 2.7845347 2
5 2.6320932 0.50784856
2.3762903 0 0.23967738
3.6285617 0.92821479 0
0.072878465 1.840924 2
0.55148613 0 0.18413299
4.6188083 3 1.8420577
1.5627501 0.58523732 2
2.5108359 1.9167647 2
2.2271369 2.2195287 0
1.2817624 3 0.90921587
0.45134658 3 0.31867746
2.6335888 3 1.6379443
1.0010798 0 1.7460537
1.2986056 0.73169613 0
4.6021051 1.5 0.85442847
4.9500017 2.7161016 2
3.979821 0.26254028 0
0.6065914 2.489913 0
2.9642189 0 1.9400467
3.8280294 3 1.7336658
1.1900234 1.0292222 2
2.9127841 2.8727341 2
4.961256 2.9297194 2
4.2420506 2.8842874 0
2.1599352 3 1.6855618
0 1.1316381 0.14724007
0.17534253 0.025836613 2
0 0.97106117 1.1662827
0.56829172 0.30853051 0
2.3986754 1.2483979 2
4 1.1723233 0.72475106
4.3853936 3 0.73950201
1.0841174 1.8029456 0
4.2590156 2.345216 0
3.4812157 2.1927736 2
0.52473712 2.0181515 0
4.2540736 3 0.11781144
4 0.25237843 0.74393314
1.3862675 1.4727954 0
2.5967188 1.619144 0
1.1229918 1.3513212 2
2.0157919 3 1.4698501
4 0.83656549 0.26787674
0 0.89506447 1.6165736
4.7257447 2.7539101 2
1.4674625 0.24690251 0
2.3171751 0.57786006 0
3.1765797 3 1.1085094
3.2563283 3 0.8673349
3.6436732 3 0.80661929
2.4167006 1.0779397 2
3.6525972 2.8482101 0
0.15422013 1.4869567 0
0 0.027225157 1.6275399
2.6865695 0 1.7572072
4 0.08943627 0.18825823
2.4757116 0.80561072 0
1.6804459 1.4964048 0
4 0.64067143 1.5325389
3.7946751 3 1.9416332
3.2085283 2.6490347 2
0.79849011 0.70588624 2
0.76590574 1.9097784 2
4.8475685 3 0.40293935
0.29826963 1.526741 2
0.74217206 0 0.63099408
1.7974117 2.491755 2
5 2.9125216 0.36214611
2.4293461 3 0.056652158
0 2.5588031 0.24149129
2.4822931 1.5212181 2
1.4725339 2.2574384 0
3.8696599 0 1.5854266
1.8056818 0.59417009 2
1.4215114 3 1.5933781
0 2.4760389 0.32110181
4.0705099 2.7731764 2
1.0487765 3 0.35045931
1.2144439 3 0.96645582
4 0.1739468 0.49178767
4.661077 1.5 0.5665682
0 0.67230409 0.16743805
3.7642212 2.2554233 0
0.2659944 2.0803392 0
2.9223258 1.245575 0
4.6332479 3 1.9646841
0 1.5589607 0.058824867
2.9983735 3 1.8086965
3.1560431 2.4478729 0
0.68475401 2.0558445 2
0.21771082 3 0.50912261
1.903659 0.87461412 0
1.4615132 0 1.6551017
2.9299002 0.56672567 0
2.7427006 0.39544404 0
0 2.7389977 0.45654133
4.4309382 3 1.5943573
0 2.7552938 1.0344024
0 2.3628511 0.61645216
2.9443359 1.4267943 2
2.7190895 3 1.8798069
4.0971375 1.9664612 0
2.2610328 0 0.035836775
3.5010235 1.3323914 2
3.0984039 0 0.23226061
0.67010635 1.6747975 2
4.7761884 2.4651546 0
3.2187076 0.20572971 2
0 1.347479 0.63810074
5 2.0344849 0.53281212
1.9354528 0 1.7947284
4.5705466 3 0.46721295
3.3739865 3 1.0975703
0.16752571 0 1.3607037
0.044651181 2.3789401 0
0 2.8991504 0.090979844
2.6208639 1.772194 0
1.0423728 3 0.16582492
4 0.96398449 1.6349916
4.9673209 2.2377207 2
5 2.6592026 0.71372992
5 2.7661698 0.78916162
3.3815022 2.7274733 2
4 0.50177991 0.25972825
0 0.4565118 1.7514979
3.9624822 0.35969049 2
1.3551528 0.78132278 0
2.7890725 2.6999149 2
3.2084966 3 1.5596124
4.9658985 2.5917571 0
0 0.52986294 1.1167854
5 2.4773571 1.2596347
3.6277547 2.6282222 2
1.6036288 2.3070302 2
3.5798192 1.4166431 0
2.4846191 1.8959928 2
0.76297134 2.9422328 0
4 1.4757597 1.4760098
2.7029676 0.02493209 0
4.4665823 1.5 1.673861
4.692143 3 0.9043923
4.1714396 2.6981533 2
2.6812334 0.3747375 2
0 1.3320936 1.3647316
0.50162977 2.472512 0
0.74691916 1.6091969 0
4.6579905 3 1.5370904
0 1.276463 0.58062267
0 1.4858903 0.32396191
3.7090509 0 0.78125507
0.11719568 1.7706785 0
0 2.7950718 1.1521139
1.9345827 0.96800631 2
0.94691157 3 1.0109992
0 0.12589425 0.40001678
2.4836867 2.3532274 2
1.0498531 0.05853314 0
3.1746438 1.1578407 0
1.2278069 1.59038 2
1.2616576 0.1496233 0
4 1.2890821 0.48582077
3.7367089 3 0.61219323
0.24861212 3 0.067608073
5 1.711387 0.80848515
2.3688908 1.7824068 0
2.5394225 0.071112923 2
0.90038025 2.9392924 2
5 2.7941296 1.3554386
2.533087 0.5382604 0
2.560492 1.809382 2
1.7104527 1.1957729 2
4 0.82045937 1.8055584
0.069036901 0 0.023270961
0.32896012 0 1.1201267
0.49866709 0.32346204 2
2.9499676 2.9842291 0
0 0.96249729 1.9538146
4 0.73820513 0.88816476
4 0.97336709 0.5434131
3.4172575 1.2744871 0
0.87970078 0 0.8968994
1.6513969 0 0.7547881
0 2.4619579 1.1783898
4.7015567 3 1.0791684
0.85053718 0 0.41004801
2.0551388 0.31916505 0
1.3865286 3 0.67735672
5 2.3173623 0.24625047
2.7713251 2.2921932 2
0 0.71089548 0.88856578
4 0.98061377 1.299865
0.034781642 0 1.4471122
2.8700945 1.0078193 0
0 2.3819876 1.1815174
0 2.3886623 0.038366273
0 2.1830771 1.4869409
1.3522458 0 0.71533203
0.50176275 0 0.59875184
0.28894392 0 1.9545122
0 2.7041376 1.0124241
0.43191797 0 1.1532816
0 2.5147934 1.7993263
0 1.270891 1.0095532
2.0622625 2.3092761 0
1.2852325 0 0.42978802
4.4938293 3 0.71268278
3.1175654 1.9234188 2
4 0.75495315 0.59599161
3.3326309 0.74732536 2
0 0.65228885 1.0890297
0 0.97733551 1.5611334
2.7103791 1.4693859 2
1.9310805 0.27417582 2
4.4804759 2.1897292 0
5 2.9747109 0.017612698
3.6425495 3 0.87465894
1.1921304 1.5233799 2
2.8590591 2.1152813 0
3.2996905 3 1.3422083
2.4967833 2.2880468 0
5 2.9927363 1.7049979
1.7210202 0.48016995 2
2.3154211 0 0.38559559
1.3769137 0 0.3796289
1.863827 2.4819386 0
3.1740084 3 1.0388763
1.352621 0.47063878 2
0 2.7853701 1.8306142
4.3386655 2.2381692 2
2.6327841 3 0.86329556
3.3261728 1.801102 0
1.5037048 0 1.6550572
4 1.1722755 0.75640452
3.4250953 3 1.5181326
3.9740069 2.5092053 2
2.1302378 3 0.34200528
1.731315 0 0.87172478
3.3783348 0.060959857 2
4.346035 3 0.30447298
2.4776974 3 0.17329794
0.37547261 1.4479383 2
2.748071 1.1366997 0
0 0.58071846 0.69546092
5 2.002737 1.7327719
4 1.0387031 1.1071141
3.7450593 1.0451076 2
2.7607327 1.6613504 0
4.1759701 3 0.86672008
3.7213519 2.3302846 0
0.52808732 1.642894 0
4.2424059 2.6984015 0
3.9690239 2.5780575 2
3.8055718 0.78827441 0
2.9403381 3 0.66075718
0.38923046 1.0878191 2
2.5813346 0.37107843 0
3.4124446 3 1.0573421
2.2310352 3 0.15752292
4.3079143 1.5 1.215332
3.8888764 3 0.52976227
1.3431771 0.59562027 0
4.2301321 1.7277235 0
0 2.8156157 0.52081907
1.6679853 2.5194013 2
4.1985121 3 1.4673641
3.7319319 0 0.88291168
0.3310858 2.2247579 0
4.9120936 3 1.1196741
2.9252472 3 0.41381434
4 1.1299155 1.2854503
3.164371 2.4191713 2
0 2.5735607 1.2541845
2.8469386 0 0.79403949
2.6887624 1.177807 0
2.5936234 0 1.6272602
4 0.8943345 1.8039049
4 0.98047942 0.94548684
0.12898602 0.95933467 0
2.7925575 3 1.8606781
2.4031129 0 0.64460462
4 1.4718348 1.9003179
3.8706732 1.9446794 0
2.2853277 3 0.35625836
0.10812819 2.1985416 2
1.8876069 0.19365667 0
2.4440672 1.2809087 2
1.2725168 3 0.61253238
2.9035475 1.3475888 0
0.44804686 0.74958014 0
0 0.90942639 0.40353665
1.6184937 0 1.1315613
1.874441 2.9589853 2
0 1.4115286 1.6450192
2.4633069 1.2812904 0
5 2.1489427 0.3778331
3.4386685 0.45089799 2
5 1.9551823 1.1885297
2.0280077 2.5775008 2
4.2569771 1.5 0.54415506
1.7596323 0 0.20173812
3.5403292 2.4427996 0
3.4855297 3 1.6708322
5 2.4223111 0.7703554
2.9912086 2.6011186 0
4.2641768 3 0.24830326
3.3564959 1.2355143 2
1.7152078 0 1.8975021
0 2.6027029 1.0109565
4.3639822 1.9116834 2
0.26876503 0 0.67825007
1.0207707 3 0.80199403
0.50331461 3 1.0671223
4 1.0465165 1.219429
4.0585208 2.8688796 2
2.0654101 0.67679107 0
0.74741662 0 1.030308
0 2.2296405 0.98377728
1.5974057 1.4910574 2
2.015198 0.75717032 2
2.5303035 0 0.24931994
2.8919899 0 1.9086562
0 1.8573561 0.8987475
4.391077 2.6377308 0
4 0.85785484 1.3027682
0.74558294 2.0577145 2
4 0.20325194 1.3668289
2.65798 0 1.3525275
3.014915 0 1.1415361
3.08653 0 0.69936705
0 0.74395275 0.13957806
1.5624655 1.422877 0
1.3556218 2.1069129 0
2.9719632 0 1.2903858
1.8968632 2.137701 2
5 1.5314286 0.22298041
0 1.1673809 1.4509887
4.6835756 3 1.319754
0 0.26489231 0.91032308
0.47757158 2.8707719 0
4 0.66718078 1.9059373
2.4495015 1.7170395 0
4.4644232 3 1.5132055
3.3914998 0 1.8546897
2.5631495 0 0.53405976
4.0392466 2.3400934 2
5 2.5547571 0.020663559
4.0746136 3 0.24770063
3.358598 3 0.45946798
3.8344903 2.5470276 2
2.0468709 0.92944098 2
5 1.7646006 0.72145838
2.8549817 3 1.7392447
0.59849513 3 1.523007
1.1387788 3 1.4306717
1.5152805 1.1656581 0
2.98563 0 0.56192607
3.442049 3 0.43034816
2.2093658 1.6063914 2
1.4370784 3 1.615752
2.7671008 1.1778586 0
2.8485315 0 1.8126174
0.18348251 2.5802281 0
0 2.4054964 0.5836463
3.3432877 3 1.6019206
4 0.27395624 1.3764558
4.6640325 1.61779 0
0.3939319 3 0.27520365
0 0.83890861 1.9609468
2.99698 3 1.5680429
2.2568247 1.9075321 0
4 0.48726523 1.5791243
3.4453495 2.8881521 0
3.7405505 0.15331079 2
2.3780692 0 1.6449522
0 0.2076626 1.0191745
0.57592511 0.92801297 2
2.3118725 0.63452458 0
0.42072394 3 0.17442942
4.6877694 2.1656103 0
2.500946 2.1144543 0
0.28240967 2.7432206 0
0 1.5400224 0.0097073419
3.0732596 0 0.030400092
1.9761184 3 1.8676438
0 1.0258539 1.5165255
0.62704164 0.88026285 0
3.9795799 1.2133546 0
0 0.89876765 0.30558151
2.0252995 1.4167541 0
2.852272 3 0.13733436
3.3011923 0.96357751 2
1.9173605 0 1.6683732
2.7853093 0.092867494 0
4 0.46566653 0.93578202
4.6428246 2.5375652 2
0.6576305 0.96246171 2
0.33257481 0.46804467 2
2.9239171 1.7762372 2
4.7407422 1.9434313 2
3.9726036 2.0721037 0
0 2.785975 0.77338862
3.1076198 3 1.4609004
0.48123002 0 0.24516729
1.9249455 1.5465342 2
0.82004505 2.7813649 2
2.1361902 1.3536198 2
1.6701488 0 0.33083636
3.8688185 0 1.3609458
1.3367091 1.3934205 0
4.1412725 3 1.3247193
0.38220018 0.81483775 0
2.6695335 3 0.09670493
0 1.5712126 0.01169421
0 1.0605916 1.5216255
0.70460677 3 0.33298004
1.4223086 0.15717962 0
5 2.1656601 0.88953561
1.2711192 0 0.99534094
2.5151463 0 0.67945361
1.7086961 3 0.02219633
5 2.4581707 1.2777276
2.7546301 2.0661223 0
0 2.651428 1.6934007
2.6846943 0 0.59629637
0 0.66526735 0.14177091
4.2818456 3 0.18400741
0 1.0207021 1.0307955
4 0.10186201 1.8360895
0.93366998 1.2652693 2
1.2775141 1.1723677 2
0.8427102 3 0.7029649
0.76808935 2.8303263 0
1.3599293 2.5538728 0
0 0.81628293 0.4916721
0.91528744 0 0.63760805
0 1.8760799 0.28027999
2.0827482 1.7276284 2
5 2.6062398 1.6225669
0 0.87900639 0.29306486
0.63996953 1.8572835 2
4.7899432 2.9610248 0
2.5113108 0.46057707 0
4.7868452 1.5581685 0
4.4906287 1.5 0.84931415
0.54307908 0 0.29603949
0.47849533 2.9886332 2
5 2.3946676 0.64125037
0 1.8423458 0.4465645
0 2.522737 1.5642134
4.2726679 3 0.84553301
1.2608798 0.76773119 2
0 1.1865636 1.7575438
0.29208446 2.583647 0
1.6042997 1.5734525 2
1.2690237 0 1.1296095
0.93580568 3 0.050486472
1.4857072 2.6407397 0
3.5737617 0 0.87992746
0 2.3668361 1.0698997
4 0.21119437 0.52727592
0.4388831 0.89524549 0
5 1.5210593 0.31184027
4 1.1025707 0.66886467
0.49759895 0 1.8069825
0.50139457 3 0.59864372
2.2587306 0.73042572 0
3.6298306 0 0.92256117
1.2593333 0 1.9392447
1.5464884 2.9870086 2
1.637784 0.20067829 0
3.600677 0.15742683 0
3.6168592 2.5764906 2
0.46513242 0.47341567 2
0.46837506 3 1.6757298
1.7304232 0.074140102 2
5 2.5366192 1.1345236
5 1.9210304 0.58907109
4 0.0066708531 1.0896661
2.3582442 0 1.7813628
4 1.2864827 0.38753062
2.1373758 1.1578933 2
0 2.3449161 1.5417577
2.9706271 0 0.95428133
4 0.60774487 0.071894743
4 0.69487339 0.57945663
3.6055896 0.10665504 2
0 2.3946159 1.0821257
4.7661252 1.9464461 0
5 2.8636277 0.079238728
3.5925157 1.6534048 2
0.10533198 3 1.0166199
2.4127851 1.9519761 2
0.0055751428 1.7435192 2
2.9642737 1.6970845 2
4 1.3740677 0.35636538
2.5998952 3 1.641458
1.8807874 1.8460099 2
0.97467065 0 0.76691526
1.1198527 0 1.1940881
4 1.0296223 0.56442297
1.8236767 0.7973609 0
3.8766115 3 1.8717475
4.8244214 2.2953799 0
2.9145522 2.4404438 0
3.4372823 0 1.0582831
5 1.5326364 0.051636569
0.48264992 1.7833641 2
0 1.6189108 0.19748242
4 1.1353363 0.65923417
3.1751738 0 0.42842928
3.8791928 0.62858945 0
3.1259384 3 1.7171975
4 1.0415351 0.70530337
4 0.28675684 0.4812766
0 2.8072374 0.13645837
5 2.4022 1.2324814
5 2.9661529 1.4698408
1.6127937 0.32864451 2
2.9954991 3 1.1090723
3.8519816 0 0.6288839
0.90964204 2.6158397 2
2.2079473 0 0.983172
3.7286925 2.3293321 0
4 1.2441458 1.9997704
4.5624919 1.5 1.9702231
3.0843601 3 1.5910617
2.7976418 0 0.98498482
4.4931774 2.2582855 2
2.7139399 3 1.0947978
3.0285833 3 0.98238355
3.7770305 0 1.7481055
2.1337748 0 0.73635572
5 2.373337 1.4030436
3.5794554 0 0.93612903
4.3953242 1.5 1.4892749
0.24948919 3 0.68824148
2.6444373 1.2842294 0
0.29877895 3 0.25776589
5 2.0560107 0.029776879
4.844449 1.5 1.5981863
1.3634884 0 1.8912277
3.097712 0 1.9286425
3.6328423 1.771314 2
0.91813391 3 1.4084589
0.0072772782 0 1.4191382
3.8690937 0.39664412 2
3.1058643 2.0240891 0
1.6232967 0 1.9458207
1.0537884 0 0.6013912
4.1134033 3 0.96251214
0.21621384 3 1.8614528
0.040097162 2.5558019 2
0 0.78650397 1.0032635
1.6056595 1.9694015 2
2.4983833 0 0.27167267
4.5402718 2.4901478 0
4 0.27541897 1.8944633
0.94834793 2.8261971 2
1.9651487 1.7589062 0
3.9982829 0 0.42480028
4.5273061 1.5 0.20674659
0.7302261 0 0.14441495
4 1.4958891 1.8302816
4.8614984 2.1191537 2
5 2.6149817 0.99680203
3.457835 1.934426 2
2.1324415 3 0.45012864
4 0.12207365 1.5492423
3.0829532 3 1.8194306
5 2.3793347 1.1926244
4.9148378 1.5 0.93252403
4.0960627 2.3749714 0
4.1441178 2.742281 2
4.1372271 1.6692884 2
2.0412998 3 0.8432501
1.4180944 3 0.84102583
2.9275951 1.9864967 2
1.3951293 0.50232148 0
1.4348783 0.41194478 0
4.641449 3 0.79347056
0 2.9302535 0.12992093
3.3641398 0 1.0598555
3.6217163 3 1.7464299
0.22993489 0.66378951 2
0.092536986 1.5913073 0
1.7445331 0.48475194 0
4 1.4866997 1.8499833
0.71718687 0.64005643 2
5 2.3028519 0.15798259
2.4677022 0 1.9682356
1.0071062 3 0.30868959
2.2244134 0.96214485 0
2.3953652 3 0.66799664
3.8130486 0.99432904 2
2.4259148 1.8833864 2
0.88088822 0.54878473 0
4.5811138 3 1.8481694
1.2357591 3 0.62558615
1.8613909 2.9210398 2
2.3468874 0 1.9635653
3.7758117 1.4394349 0
4.3415732 2.7714124 2
5 1.6449043 1.6685628
3.2039089 0.07195095 0
2.3196375 3 0.067839369
0.9829064 1.081172 0
0.45954716 0.40106508 2
3.446851 1.0548853 0
0.73587656 3 1.2330072
3.4916642 0 1.8677875
3.9701974 0 1.2784085
1.8229265 0.25555575 0
2.2042708 3 1.9320701
5 1.8941255 0.20473419
1.9788355 3 1.0302118
2.5295429 0 0.37236768
4.3761559 2.5475314 0
3.7687454 3 0.17072298
0 1.4507934 0.57683444
5 1.5195584 1.5753349
2.2310991 0 1.0655547
1.007176 0 0.85075134
0.32926995 2.4437799 2
5 2.5992258 1.6009225
0.012211561 1.0614998 2
1.1662444 3 0.44605666
1.5842808 2.0639284 0
2.6741502 0.5462532 2
0.5304504 0 1.9572318
0 1.7454972 1.931847
0 0.36234993 1.3809996
2.7780206 0 0.64027208
5 2.7645149 1.1610006
3.5937409 3 1.5776043
0 1.2741592 0.20285912
4.8969498 2.9447582 0
5 2.9299536 0.92369652
0 2.1831951 0.32583913
3.340097 3 0.99626708
0.53596568 2.8490429 0
1.9784116 3 0.76772118
1.7137928 0.68820506 0
5 1.9172395 0.62860268
0 2.7639947 1.7849404
3.6753576 0 0.006702411
0.63329238 1.4655709 2
0 1.590591 1.0725218
0 0.52771109 1.1353476
4.1476135 2.6341209 2
4.2780662 2.2748282 0
2.8909702 2.0788496 0
2.8066838 1.1579781 2
0.72012788 0.0059243916 0
0.35287157 2.7559466 2
1.5330831 0.99724698 2
3.0079665 0.32836437 0
0 1.7881988 1.3499118
0.83043706 1.181421 2
4.6582923 2.0880558 0
1.7985559 0.28156909 2
1.493865 1.8789687 2
0 2.1490815 0.9678849
4 1.1869471 1.944985
2.8102186 0 1.4057319
0.95177364 0.87523627 2
2.3491318 3 0.33308545
0 0.032347728 1.4163918
3.7705536 0 1.1213695
5 1.7562889 1.072462
2.5767787 0.53600091 2
0.87058163 0.19915012 2
4.9859715 2.8554912 0
1.3448558 2.2108858 0
2.2694917 1.4219778 0
0.64995682 0.53279448 0
2.4337072 0 1.6677172
5 2.9874909 0.39423534
0.90012068 3 0.32697806
0 2.2498426 1.8997579
2.1444433 2.1411037 2
0 1.7757356 1.2647229
4.899601 3 0.17967501
0 1.3603673 1.6120876
2.6036766 2.9378638 2
1.2830039 3 0.70973277
2.5697885 1.5486376 0
2.346451 2.5421898 0
0.86761576 1.2473766 2
4.5136786 3 0.68035495
1.5819952 1.0592432 2
2.0628383 0.29769996 2
1.627721 3 1.1676062
4 0.44017187 1.2413605
4 1.208141 1.55985
0.37967035 2.4344466 0
4.359858 1.8218849 0
5 2.2943757 1.2214179
2.4106083 2.5966258 0
0.008183416 1.8134627 0
0.23951396 3 0.44674981
2.7173283 1.1234955 0
2.5003614 0 0.25165424
1.6110091 3 1.814034
1.3573015 2.9752672 2
1.3871747 0.75843841 0
2.9115741 2.7204039 0
1.3476762 0.048298065 2
2.3324406 3 0.1807541
3.2270203 1.7063808 2
2.588727 0 1.9143442
1.8034403 1.7263805 2
1.0404541 1.8293161 0
1.4154415 0 1.2035331
3.9032197 1.462546 0
4.8019338 1.5 1.4037164
0 1.3690562 1.5237828
2.4868445 0.18968229 0
0.14653297 0.93842125 2
0.35186645 0 0.7739411
2.91012 0.26847324 2
0 1.3876581 1.0728573
0.42298666 0 1.3426716
2.8129172 0.8237834 0
1.6528174 0 1.4296396
3.5737908 0 1.6488311
3.6609008 2.0658612 0
4 0.76496965 0.31335962
3.9249346 3 0.98403054
0 0.022780553 1.3515527
4.8613663 3 1.4541467
5 1.6696403 1.8796309
0.1198475 1.1017696 2
2.4800243 1.0533712 0
0 0.30100819 0.22422817
3.2704871 3 0.90230346
2.6798463 2.1999211 0
4.4017949 2.0203581 2
0.21380492 1.3322055 2
2.9964168 0.58138251 0
0 0.50177032 1.7441478
0.43408298 1.2149206 2
4 1.4275404 1.1987759
2.3817337 2.4006491 2
1.5078837 3 0.062307224
2.8197293 0.75576895 2
4.6700773 3 1.8174572
0.31121719 3 0.89741027
4.8957248 1.5 0.025834709
5 1.9090192 0.65307218
3.4998903 0 0.37083134
3.3596561 0 1.6637223
0.16348086 3 1.5559137
0 1.3784324 0.49774593
3.9631968 0.72668129 0
0.86176312 0.21371907 0
0 2.4134374 0.17413232
4.461834 1.5 1.7426472
1.8937293 3 0.75543129
2.2681344 3 0.0090350052
3.2206805 0.0029731113 2
3.7544289 2.3127911 0
1.2901503 3 1.3391516
0.87442762 2.1984279 0
0.84703624 1.3612808 2
0 0.77263373 1.2522856
0.18867597 0.43978041 0
5 2.9702518 1.10221
1.0459982 1.2284476 0
0.88019484 0.49547625 0
1.8296853 2.2104273 2
3.8593464 1.6244626 0
4.4604335 3 1.7923428
2.0835018 0.018962475 2
1.1016333 0 0.60310382
2.6922688 1.6633813 0
3.286716 0 0.65970057
1.3015817 2.7142432 0
0.30071366 3 0.68395543
4.0469556 1.5 0.16686083
0 2.6714535 1.5667692
0.48983854 0.74188697 2
0.78632897 0.011217212 2
1.8726751 3 1.7161468
0 1.0808196 0.052626006
1.6092029 0 0.75642133
0.45067716 0.63558108 0
2.4216342 0 1.3055546
1.3948498 0 0.29194656
2.9058208 3 0.85171735
5 2.4826024 0.65131515
4 0.16488232 0.74412882
0.43521121 3 1.586753
2.9225249 0 1.1454788
2.2906637 0 0.42850241
0.89348447 0 0.99441677
4.6305766 2.9180388 2
2.7036355 3 1.6347357
3.6435935 2.9821332 2
3.3462553 0.064599879 0
0 2.5522308 1.3767639
1.7103629 0.66188574 2
1.0893297 0.68774438 0
4.4401293 1.7716817 2
1.3389108 1.1674258 2
4 0.035981745 0.8202368
0.73866868 0 1.1683713
0 0.10376564 1.6920455
0.78066874 1.0772917 2
3.9393847 0 1.6296332
0 2.3151886 0.935987
2.4197571 1.0992447 0
1.0221127 2.3171663 2
4.1027284 3 1.7666726
3.7188203 1.5040739 2
2.6683025 2.4299064 0
2.1646352 3 0.2637639
4.2417221 1.8083718 2
4.0025034 1.5 0.032809868
3.4127831 0.23554924 0
0.44026244 2.6000192 2
1.2617773 0 1.6944277
5 2.0820503 0.48573899
0.2725068 3 1.6513305
1.4962604 2.1309435 0
1.0948901 1.8562686 0
3.5121987 0 1.9379327
2.5035474 1.7508219 2
3.4022691 2.0394826 2
4.1506662 1.7306814 2
2.5168304 2.9410572 0
0.48271221 2.2634618 0
0.71606612 0 0.40662119
1.987323 0.86110181 0
4 0.25307256 0.8502233
0 0.92965943 1.668817
3.9254549 2.0252953 2
2.8872144 0 0.12521529
3.3678024 0.84578997 0
2.4274685 0.24557412 0
1.0518023 0.25670668 2
0 2.1376112 1.9209685
3.9911089 0 1.8884827
2.8662741 3 1.59047
2.5282254 1.8243005 2
3.7579248 3 1.8537391
1.7127714 0.50709438 2
4.456346 1.5 0.76567721
3.2597489 3 1.9459589
3.2846961 1.695973 0
1.8595918 0 0.32531646
5 1.5088106 0.045904849
3.3619568 3 1.3826261
1.4598043 3 1.0396969
2.30057 2.113354 2
4 1.2646872 1.4193923
1.76422 1.6524515 2
0.8385964 0 1.9436649
0.98630488 2.6282847 2
0 0.67601317 0.10751968
3.4096889 1.4397417 0
5 2.5965483 0.16134278
1.6320101 1.4415081 2
3.1534247 3 1.8794335
3.2794447 0 1.0847358
0.5941909 2.4680245 0
0.60900384 1.2625095 0
1.6581699 1.1085571 2
0.90053123 0 0.2835741
2.8311677 1.5689672 0
1.4085649 2.8212345 0
0.67782396 0 0.3068985
0.66651899 0 1.2902383
4 0.94417274 0.34719607
1.9876181 0.26138949 2
4.4837279 1.9612705 0
1.2680906 0 0.83001125
0.29758036 2.7468455 0
4.699439 1.5 0.5037117
0.79787809 0.19038045 2
4.0486393 2.0396485 2
4.0118074 3 1.4402812
0.40326196 0.75984359 2
2.7087076 0 0.81104487
2.1148849 2.3000081 0
2.218914 2.4094212 2
1.4120829 3 1.358996
2.4094956 1.6018715 2
4.6867881 3 0.86245853
1.7296957 0 0.12356555
4.1014934 2.9920912 0
0 2.303005 0.92299408
3.8476715 0 0.90878165
1.3381083 0.80397373 0
4.7839689 3 0.83038962
2.3944054 2.1542706 0
0.059385858 1.6327653 2
4 1.3952492 1.0384833
0 2.8572168 0.27324587
2.1076744 1.8963262 2
1.3190945 3 0.3248468
2.9383452 0.62834859 0
2.6441739 2.2225015 0
0.12398562 1.1603656 0
0.24385759 3 0.76075977
1.8956141 2.3291044 2
4.7597194 3 1.9741384
1.7600033 1.689664 0
4 1.4299223 0.79583883
4 0.54781038 1.3535393
4.7703896 1.5 0.23796567
2.4757152 3 1.9523958
1.4089813 0.04107352 2
0.20137331 2.031981 2
2.640449 1.7858438 0
0 2.5473719 0.15908635
4.7159181 3 0.41301098
2.8347192 1.9325876 0
4.2540307 3 0.16969357
2.9006932 1.2834821 0
4.5015988 3 1.4140005
2.2890108 0.5209223 2
0 0.41689429 1.9501092
0 1.426795 0.59238327
0.11778999 0 0.60983342
4.1403117 1.5 0.84680611
4 1.1467041 0.35900441
4.91504 1.7181084 2
0.62232125 3 0.95779705
3.8659697 1.8670636 2
0 0.53405166 1.2631612
3.5264432 1.146654 0
1.5707113 3 1.9584141
0 2.0024829 1.6637008
1.0821573 1.2508912 0
4.246562 2.7988639 0
5 2.9403472 1.793103
1.7387706 2.1052938 2
5 2.9765058 0.478333
0 2.712908 0.26256382
2.5589147 1.3434626 0
2.8856978 0.93231827 0
4.8684053 3 1.4867928
1.4455423 2.5955253 0
4.5409174 1.5 0.62951893
3.9328353 1.9529989 2
3.556493 0 0.46003893
1.3744533 2.3869541 2
4.7194333 3 0.99197727
1.3857921 1.2402322 2
1.5994928 3 1.4233285
2.0931313 3 0.1766222
0 2.842272 1.4664252
0.25452477 0.54577351 0
0.45543039 1.3472115 2
2.1067755 3 0.67463601
0.99225897 3 0.94708347
1.8760302 3 1.223344
4.4129486 1.5 1.9293221
0 2.8563814 0.85361665
3.3542113 0 1.9141424
0.70403099 3 0.65214199
1.4101783 3 1.9893821
2.3436193 0.32923147 0
0.35987735 3 1.9612784
4.6071582 1.7187579 0
0.45272797 0.42726576 0
3.7024684 3 0.50575751
4 0.9050976 0.62893957
1.5617577 0 1.4412814
2.3024542 3 1.8170799
2.945096 2.9185081 2
0 0.49688008 1.8468322
0.77678853 2.1558385 0
0.41503459 1.668692 0
1.0995017 3 0.75489175
0.15710932 0 0.12710004
1.8157297 1.4920123 2
2.5671663 0.76691985 0
1.2025061 0.80003107 0
2.0276399 0 0.52606136
2.4252861 3 0.90240151
3.2965698 0.64905596 2
2.2084696 1.0993037 0
2.3954897 0 1.8939221
2.6627395 3 1.1242958
0 1.5646679 1.1071891
3.6860824 3 1.7953836
0.18678167 3 0.95728421
2.0127301 0.28817391 2
4.9764094 1.6421005 0
0.69722199 3 1.6466879
0.67578495 0 0.66367096
0.16940837 0 1.6029351
3.9487619 1.3264741 2
4.1124902 1.5 0.17866382
4.004662 3 1.3398663
2.6190157 0.89667255 2
0.11882341 0 1.4019597
0 1.6305243 0.32180914
2.8127275 0 0.49893948
5 1.9885255 1.8702823
4.0357637 1.5 1.3175217
3.4457939 0 0.017205302
0.82545167 2.2302866 0
0 2.3102241 1.7871467
3.3062 0 1.1914111
1.227864 1.8468611 2
4.6735659 1.5 0.70470953
2.2895758 0 1.9198903
1.8048682 2.7096717 0
0.36206701 3 1.0877177
3.1652544 0.78605026 2
2.8105025 0 0.43723798
4.8305049 1.6465615 2
0 0.84276849 0.18733916
1.5805962 3 1.278101
1.8181107 1.7578421 2
2.177387 0 1.9876294
4 0.28908491 1.2306892
2.6117806 0.50856221 0
2.553004 1.2595557 2
2.9179819 0 1.047606
0 1.3824487 1.8076806
5 1.5655882 0.46784508
2.0265069 0.34621698 2
4 0.91987199 0.53020406
3.425204 1.3059583 2
0.86503202 0.81806511 0
2.1002095 1.118345 2
2.3888562 2.2243073 0
3.3995848 1.3759683 2
2.8543935 2.7700977 2
4.7348156 2.2778437 0
0 2.7032187 0.86003315
3.734298 0 1.9837426
4.4924664 3 1.9822698
2.6767375 3 0.60622889
1.2313251 0 0.9190563
3.2372992 0 1.5947
0 2.4153173 0.6489895
2.4774096 2.7214773 2
2.0418613 1.2362536 2
2.8775499 2.2897336 2
2.7659276 0 1.6095297
0.59016246 1.7591376 0
3.2937088 0.23586528 2
5 1.6233793 0.40568787
4.8407722 2.9194651 2
4.5724101 2.4074404 0
0.46959519 1.557301 2
2.5281124 1.0296813 0
5 2.1627805 1.666788
0.83391106 0.69255233 2
3.2986803 1.5357305 2
4.8295612 2.519567 0
4.8252664 3 1.4057145
1.1635433 0.97998649 0
4.3132315 1.5 1.6606472
2.2346938 2.2252827 2
0.26093492 0.69561839 0
4.9417639 1.8553259 2
4.1643796 2.0938199 2
3.9866486 3 1.2024188
4.4700675 1.8424424 2
3.7660668 1.0595336 0
0 2.1305897 1.2845722
4.3266706 1.5 0.47072074
2.0266361 1.8449668 2
5 2.1597521 0.0078285895
4 0.35893098 1.2333183
2.5968163 2.2198584 2
4.6083875 2.8005464 0
0.59266233 1.7864053 0
2.3520951 0.23050167 2
5 2.3441825 0.6523698
0 1.5801141 1.9242239
5 2.1533928 1.1396365
0 0.28468436 0.28714839
0.86656624 2.2102828 2
2.9413149 1.1693509 0
4.8230934 3 1.7157911
1.0920413 0 0.40737769
1.4437139 1.5752152 2
4.3280354 1.6559829 2
4 1.4568945 1.8912299
2.1142914 0 1.6100718
5 2.7030923 1.0434331
0 0.61447746 1.4983974
0.49139887 1.9911715 0
2.5224771 1.9146571 0
0.23439395 0.93938655 0
0.27069429 0.69723481 0
0.28032687 3 0.61019981
3.3465443 1.938059 2
5 1.5373237 0.49181625
0.12276728 3 0.17076901
1.0822331 0.22108611 0
1.7687087 1.0368166 0
1.2488692 2.6615245 0
4.7588897 3 0.19032086
1.0757293 2.2430124 2
0 0.67706913 1.2147337
2.5863435 1.4969794 2
3.4194109 3 0.60952878
4 0.1612227 0.7106778
1.8003783 1.8065662 2
0.88671046 2.8351748 2
5 2.3043542 0.34650043
5 2.0661993 0.16389123
4 1.0869386 1.2542347
2.4937875 2.2048757 2
4.7353716 2.8188565 0
1.4539783 2.5467606 2
3.6673098 2.0620561 2
0.33131465 0.15582925 2
0.43274322 1.4391388 0
1.5194778 0 0.37367603
2.0504739 0 1.4385858
4 1.1870093 0.76680094
3.0708034 3 0.7246331
3.6799057 3 1.0545989
0.81574285 0 1.9872487
3.4238353 0.55124962 2
0 0.13894773 0.23660617
5 2.7183635 1.0579847
3.8473995 3 1.7650753
5 2.5589654 0.0052416064
1.0482193 1.7283204 2
2.9262073 2.5867214 2
0 2.4914942 1.3091837
0.72308594 0.73480618 0
4.9132195 2.2608602 2
4.8408389 2.156848 2
2.8335824 0.47687805 2
4.938592 1.5 1.9344435
2.5227737 0 1.8681602
3.7343414 0.048480526 0
2.9308562 0 0.99570572
4.0211287 2.3675549 2
2.0626519 0 0.09934137
4.8446431 1.5 1.6408857
1.3700882 1.4407555 2
2.1690571 0.088109806 2
1.3679291 0.60234064 0
3.208894 0.87891692 2
3.3209274 3 0.24718378
2.4523699 0 1.7463542
4 0.29925334 1.1269701
0 0.019422604 0.28282386
2.2915199 0.087094575 0
0.85492194 0.9934845 0
0.37184107 0.089274451 2
0.02388525 3 0.38764927
0 2.7925673 0.55779701
4.5301385 2.0692854 0
0.4548893 0.19617245 2
3.1976087 2.966361 0
2.5568061 2.1387382 0
4.7289419 2.1471937 0
0.40291849 3 0.069723636
2.2702599 0 1.7160416
1.3155519 3 0.86041129
0.58237445 0.34805363 2
0 2.5589736 1.1092646
1.691909 0.69912416 2
3.8900735 0 1.8788652
1.0233377 1.1588989 0
4 0.59393293 1.7932702
0.48612663 0.75231522 2
4.3455596 1.5 0.13392343
5 2.2826285 0.28631741
2.8724031 2.4191945 0
1.2027297 0 1.0908822
2.3029089 0 0.84735781
1.0762005 0.48844507 0
1.2527735 0.60967624 2
5 1.9109927 0.56919765
2.4975049 1.5177451 0
2.4524257 2.8386505 0
5 2.6392217 0.140439
0.91384858 3 0.32161048
3.5561318 0 0.25466228
4.8015623 1.5 1.6018344
5 1.8481283 1.1833515
3.7805214 3 0.39980352
1.386561 3 1.5955424
3.346303 0 1.3106245
4 1.1889013 0.68867159
4.9311705 1.5 0.78179997
0.23303448 0 1.7393402
0.80119681 2.4288058 0
2.4226286 2.1261113 0
1.8929234 1.1077707 2
2.6488345 1.5276453 2
2.0400288 0.40510529 0
4.5378351 1.7272394 0
0.68808019 2.3306623 0
0.27425575 2.6628923 0
0.99229515 3 0.90208542
2.7991278 1.628996 2
0 1.515133 0.99852371
1.9478815 2.8683107 0
4.0778551 2.1573958 0
0 0.37479949 0.57312584
0 0.55149186 1.3306316
0.61148357 2.7566991 2
2.8762379 2.2467177 2
2.0181739 1.2372829 0
0.9059577 2.7124126 0
0 0.01422775 0.61839354
5 1.5749133 0.59399474
2.345983 0.61382985 2
1.2297655 0 1.5771379
0.54849738 0.62653059 0
3.182174 1.4786003 0
0.55130154 1.3519082 2
0 0.46779236 1.4083916
4.6174421 3 0.91434306
5 2.6949944 1.0140103
3.2088513 1.3948303 2
4 1.0897253 0.068524785
0.96646696 3 1.1272272
2.3123748 0.43727332 0
4 1.2581764 1.935456
2.8179848 0.53918308 0
1.7574205 1.1505129 0
2.9230528 0.33902097 0
4.5643544 3 1.5485675
0.27259624 2.0966301 2
2.9348698 0.15665707 0
3.3328748 2.2502501 0
0.94192982 1.9855661 0
0.73349822 0.56420875 0
4 1.398456 1.5222735
1.8323271 1.1625985 0
1.9611644 0.84404403 0
4.7162085 1.5 0.62173557
4.6347685 1.5 0.68316281
0.2045669 2.1596723 0
1.6297226 0.57187217 0
2.9521053 0 1.0549951
3.7029407 1.5155115 0
4.8196626 3 1.6904924
0 1.3627369 1.9972497
5 2.7042401 0.59318113
1.8147246 1.00833 0
4.6752372 1.9375677 0
2.7940276 3 0.60584837
1.1420414 0.72202849 0
0.81332493 1.890954 0
3.048521 3 1.3959038
5 1.7840999 1.1821175
4.8231931 3 0.32363719
1.5794225 0.98132288 0
4.5670619 2.2326841 2
2.4895477 0.62392712 0
4.1173825 1.5 0.95359665
4.9772682 1.5922865 2
3.1473792 1.8260942 2
1.4059159 3 1.1632321
0.68640709 3 1.5768803
1.3373213 0 1.7408113
3.0060501 3 1.037349
3.4725378 1.113675 2
0 1.6244171 1.2824317
0.72828782 0 1.4662923
3.1551111 0.56804794 2
0 2.5709198 0.45336232
2.0386696 0 0.94941777
0.44938859 2.4431524 2
1.5354731 0.70097357 0
5 2.2186885 0.049743906
0 0.42903414 0.073613435
0.53924322 3 0.012518493
2.1295664 0 1.5362774
4 0.18089008 0.81552845
3.9463313 2.7664902 2
2.3839655 0.56804425 0
2.7481599 3 0.41786444
0.31807256 3 1.1495782
1.5503513 0.39108148 0
0.30418867 1.6616418 2
0 0.66795278 1.4880484
4.4956813 2.368073 0
3.9896469 0.35635567 2
3.11727 0.18743068 2
1.7954402 0 0.12573621
0.4155359 2.1166999 2
0 0.5632962 0.36297524
2.8996825 3 0.65781295
3.5936506 0.45464787 2
3.7362733 0.38220969 2
1.0499067 0.14137512 2
2.5463414 2.5679674 2
1.1029763 1.4826056 0
3.8811555 0.62097675 2
5 2.0186856 1.5854208
3.5441084 0 0.72035843
4.7618022 1.5 0.11825518
0.0092788115 0.35093945 0
1.8579794 3 1.6003957
3.7485671 1.7485498 2
4 1.1559043 0.80604482
4.7369118 3 1.5461311
0 2.5434458 0.79357278
4.5714355 3 0.2564747
3.4637625 2.1793728 2
0.29772034 0.44491744 2
1.8571582 0 1.7641828
0.55750269 1.5355357 0
5 2.1842923 1.5543764
0 2.242831 1.9636278
4.5843978 3 0.57682937
0 0.8254658 1.0494503
2.2693658 0.086844265 0
1.4486024 2.7223573 2
0.61825508 2.0810664 2
1.0675099 2.8144441 2
4.8142495 2.7495368 0
3.3654811 3 0.61874855
4.4670119 3 0.86350256
2.4341495 0 0.15895094
5 2.9519706 1.9280356
0.72313213 3 1.730848
0 2.9067671 1.0808821
5 2.5697598 0.11488577
3.6187425 0.99912691 0
4.4008684 1.6710088 0
4.7622638 1.9090881 0
1.8384111 1.4549468 0
1.6055001 2.5205171 2
0.25503334 0.65479636 2
0.71802026 0 0.80522776
2.4989579 0.947106 0
2.4129884 0 0.27966726
4.1227598 3 0.56795102
4.0341959 3 0.82584363
4.8309526 2.3085887 0
3.9311349 0 1.2093141
2.5940611 0.43299741 0
1.7367951 1.6689976 2
0.66330737 3 1.6586007
1.4158194 3 1.8636178
4.1716714 1.5 0.57270318
0 1.771248 0.50701576
0.67777425 3 1.4483373
3.1790957 2.1818936 2
0.50915247 0 1.6799304
2.084595 3 1.734271
2.9282448 3 1.6039448
0 0.9956342 0.89615971
2.048821 3 1.6609665
3.6138501 3 0.32252637
4.9630785 1.5820593 2
5 1.5313489 0.33951193
0.18525931 0.08386112 0
0.28558293 1.7434239 2
1.9190943 0 1.0785072
1.8739693 1.9643393 0
1.1238651 0 1.1302358
0.061748005 0.38459131 2
0.066324212 3 1.8927392
4 0.66303158 0.62899566
4.1534114 2.889874 2
0.39026833 2.5779328 2
0 2.3933768 1.3891922
3.7927151 0.78952044 2
5 1.7287818 0.42240867
2.8377237 0.17891285 2
0 2.4469886 0.014973707
3.1985464 2.1512334 0
1.5624135 2.3813701 0
4 1.1980096 0.28887466
1.289723 0 1.6210161
3.726217 1.3457395 2
4.5899792 3 0.22051504
4.0929046 1.5 0.55564523
2.1386206 1.3321244 2
5 2.4333382 1.2868285
3.0764773 1.374012 2
1.1480979 0.29339728 0
1.0011116 3 1.6763283
0 1.7894038 0.34226117
1.8099761 0 1.900021
3.8005693 0.29084551 0
1.8543653 3 0.29177141
4.4934587 1.5 1.5042385
0.55567217 3 1.3736846
5 1.5375984 1.3845148
3.3500159 1.0376648 0
1.4495142 3 1.734111
2.5277889 1.0404636 2
0.66004443 1.5364383 0
2.3441391 1.3395916 2
0.32231972 0 1.3900881
4 1.2833475 1.5028012
1.0148042 0.093435653 0
1.4093109 0 0.47686905
2.6919644 0.79865456 0
3.6817217 0 1.3738097
4 0.80465508 1.2353809
0.86136311 0 0.32095873
1.7745456 1.6670674 2
5 2.7479532 1.7139308
1.1303624 1.5198196 0
4 0.31217209 0.89949346
3.0632937 2.5833175 0
4 1.4510787 1.7031962
4 1.1772047 0.91413474
0.9717896 0.025882548 0
0 0.84140652 1.4628904
4.2358508 1.5 1.9818147
0.26959419 3 1.8251245
0.66430193 1.872447 2
0.99123663 0.28938562 0
1.289487 0 1.0142094
2.649497 1.2193276 0
4.4113669 3 1.1416084
0.62524533 0 0.78648299
2.7147298 0 0.67902637
2.8781407 0 1.1427387
1.3746012 0 1.009707
5 1.8107661 1.4029906
1.1010971 3 1.3295815
4.5303535 1.5 1.4533602
4.1784019 2.543155 2
3.3990986 0.88398993 0
0.75489801 0 1.0975745
4 0.72619247 1.3532935
3.971482 3 0.19839674
2.9507077 0 0.3893359
4 0.2578097 0.9381147
4.7441087 1.5 1.6763277
1.6708437 2.5882494 0
3.9819868 0.51058191 2
0.040725254 0 0.5505929
1.4485297 3 1.6269122
2.225508 3 1.0842795
2.881566 0 0.97249818
4.9878383 1.5 0.81241477
0.45012823 3 1.3263899
4 0.79482746 1.580773
0.98272699 1.2396276 2
0 1.5568924 0.78350657
0 2.8168144 1.534979
2.3143535 3 1.0803593
1.0206934 3 1.243549
1.9570731 0 0.18017468
1.8567855 0 0.84296799
2.7271967 2.1130905 0
4 0.2295725 1.8109014
0.93674171 2.3379261 0
0.17109948 1.1333095 2
3.4891365 0.70214641 0
2.765254 2.310498 0
0.73933566 2.1985042 0
1.82421 2.0953345 2
0 2.8979468 0.12946774
3.4560442 2.363086 2
3.4990129 0.66362369 2
2.683594 2.99986 0
0 1.3700594 1.518437
0.22851548 2.2000382 0
4.6111536 2.2677243 2
0.54584181 0.075251192 2
4.0767756 3 0.77800566
0.45807901 3 0.22925666
5 2.3183861 1.6195942
3.9631162 0 1.9041376
1.0219686 0.92373818 0
0.19451478 1.1436321 0
1.3375881 0.70998412 2
1.050616 2.8400078 2
3.6558359 2.8895466 2
2.1957417 2.025234 2
0 0.12398012 0.092839554
3.829504 1.716398 2
5 2.1906292 0.33865306
0 1.844088 0.28783295
4.3729391 3 1.1529057
0.77951795 3 0.21410379
2.4870384 0.10527021 0
1.7804033 0.51331806 0
0.16741964 1.7170708 0
4 0.23506895 0.24772795
0.14771076 1.6123267 2
1.6265254 0.88149142 2
0.90246969 0.93674374 0
0.24386589 1.0571353 0
2.4152274 0 1.8322384
4.4566131 3 0.92170477
4 1.3236127 1.0479876
2.4445012 0 1.8622634
5 2.0444248 0.27614623
0.60065985 3 0.67729521
4.5080671 3 0.051651899
2.0685954 0.54209304 2
4.090589 3 0.41669819
3.8565001 2.5268185 0
1.4810929 0.25917417 2
4.530118 2.622797 2
2.661936 0.41832006 2
4.0162797 1.5 0.84774905
5 2.2647884 0.59834647
0.87353349 1.0652505 2
2.7681026 1.3493626 2
4.0200448 3 1.8649402
0 1.1543387 1.8383837
1.1433265 0 0.9671728
4 0.47830269 0.74668872
0.11703235 2.5968251 2
3.1878018 0.86175752 0
2.2949641 1.135359 0
2.460331 1.019336 2
0.72448522 3 0.42603284
5 1.8410981 0.13964486
4.36971 1.5 1.4843816
1.7350396 0.96301049 2
3.4961629 2.7555368 2
2.2420084 2.6515396 0
3.9450238 0.5462721 2
4.4248862 1.5 1.4848218
2.2315698 2.2446365 2
4.9684505 1.5 1.6202188
1.4683045 1.393954 0
0 0.17180477 0.47513437
4.6526246 3 0.49432397
0.50305897 0.76034534 2
3.1930299 2.3336751 2
4.3476124 2.9178596 0
4.2021165 2.9571331 0
3.0525417 1.1123512 2
5 2.1601381 0.43844956
2.2179041 1.7324225 0
0.25808185 2.8500292 0
0.5149259 1.4107622 0
1.5876293 0 1.0519072
4.358295 2.8348801 0
3.3898151 2.9842968 0
3.747081 0.21512352 0
1.6392328 1.7405702 0
2.0264037 2.2883089 2
2.9778636 0.81645632 0
4.9132853 3 1.1781052
4 0.036708184 1.244079
3.7487707 0.25728133 2
0 1.680601 0.85237259
5 2.5152791 0.565642
2.1165898 0.95262057 2
4.7103767 3 1.5712298
1.0153712 0 0.39844105
2.7059436 1.9055852 0
1.5896837 1.6928153 2
2.7322755 0.16165037 0
0 0.15377955 0.75107592
0.024224434 0.17749697 0
5 1.7800223 1.3208545
2.8934221 1.3897721 0
4 0.82728112 0.74752957
0 2.3340199 1.1639199
4 0.36589834 1.2831545
2.7590613 1.4053191 0
4 1.288518 0.036549658
3.4986296 3 0.97643602
4 0.52955747 1.0530384
0 1.0854533 1.590297
0.15738796 3 0.54466766
5 1.5829631 0.0065851398
0.23468809 3 1.2588568
0 1.3477757 0.68106443
1.7507609 1.1991565 2
1.1163584 2.698034 0
1.7266155 0 0.42714813
0 1.0997545 0.71921873
2.3027256 0 1.1881351
0 1.0475565 1.5202982
1.4409966 2.51161 0
0.75991452 0 1.8370521
1.9211413 1.8944018 2
1.6332592 2.8292079 2
0 1.2614179 1.7484139
2.3548231 3 1.2878125
2.49176 3 1.8307501
4.9008312 3 1.6844354
0 2.5878606 0.64273679
4.6134739 3 0.22436656
1.7886062 0 1.2097398
1.6880031 0 0.56710839
0.99099284 2.2267423 2
5 2.1967611 1.3773369
3.0014341 0.90739471 0
2.3618255 0.50766623 0
4.4617891 1.5 0.63642508
0 0.72033978 1.7449121
4.3284063 1.9083599 2
0.79506892 1.6587251 2
0.26983562 2.318826 0
2.9637089 2.0319195 0
3.9841063 2.2387092 2
4 1.0581532 0.40961492
3.6132982 0.43634635 0
2.8661599 1.6389303 0
4.5657783 1.5 1.2939721
4 0.50035882 0.68262774
1.7336861 3 0.58980763
1.1929592 0 0.17648627
5 1.757169 1.9174659
4 0.75253934 1.6997845
2.1554625 0.52054191 2
5 2.1360648 0.50414652
1.5831 1.9108056 2
0 2.3755848 0.51342475
5 1.7847967 0.076854445
2.6213832 3 0.064628005
2.2816141 0.099874631 2
0.82715178 3 0.49561548
1.6654576 0 1.6190722
3.8265295 1.0947468 0
4.6251817 1.5 1.5830317
2.1659825 1.8734443 0
3.3111143 0 1.7745939
1.4518788 0 0.44286424
0 1.6683567 0.20851453
2.5223629 3 1.5878865
0.00037510507 1.0608708 0
4.6720924 1.5 1.7231779
2.9035766 3 0.76230091
0 1.6349484 0.79418725
3.1640873 1.4448806 0
2.5464277 2.4986513 2
1.7984169 0 0.51184785
1.419566 1.5310398 0
0.31557682 0.23704506 2
0 1.1685984 0.0043404093
0 2.2913306 0.081203535
4.8977056 3 1.8717327
1.0857302 0 1.2602515
4.9623051 3 0.9620226
3.5347981 0.65874368 2
2.2321522 1.3558856 0
4 1.2629809 0.21568474
1.9973257 2.1351309 0
4.9049039 1.5383428 2
1.5888655 0 0.1658372
0 0.57377404 1.9687108
0 0.64318049 1.2702174
0.34102947 2.0075021 2
3.0680346 0 1.1594872
4 1.3273703 1.2408614
0.83105981 1.3406049 0
1.9719642 0.48346233 0
2.9693358 1.4675332 0
0.5062893 2.917526 0
0 2.7854314 1.8731492
1.3131347 1.9929222 2
4.0990338 3 0.62296396
4.6773286 1.7762719 0
3.011811 2.2742517 2
4 0.72759062 1.1642088
3.3956201 0 0.64269805
3.7325473 1.4181912 2
4.7459202 1.5 1.5132531
0 2.6166756 0.039987169
0.60633302 0 1.2394838
5 1.8092172 0.93668503
4 0.82623124 0.66111326
0 0.3842884 1.8520132
3.6891568 2.1600492 0
4.172658 2.65888 0
4 0.22786833 1.1862741
5 1.5516168 1.0705901
4.8433104 3 0.49401146
0 0.22432019 0.51235276
3.5928757 2.7408373 0
4 0.58724552 1.7623115
4.6849132 1.5 0.15446256
1.1235871 2.9864669 0
2.1135354 0.92876726 0
4.3280792 2.6201303 2
1.8487201 0 1.7638406
1.3632056 3 1.8456525
2.12181 1.5632142 0
1.8390199 2.9317799 2
0 0.99075073 1.0111438
2.3357096 1.8522861 0
3.7352395 0 0.83646297
1.5072817 3 0.5393452
1.0704298 3 0.51155847
0.49054042 0 1.0753335
4.9740281 2.4185662 0
4.9321575 2.3156912 2
3.3967822 1.7728209 0
0.53983384 1.2626622 2
1.5549761 0.9431687 2
1.9116971 0.069419473 2
4.4857836 2.4747612 0
2.2415657 0 0.077924497
0.82171661 2.4170554 0
3.7908208 0 0.2304333
3.6065269 0 0.38283637
3.8546979 0.28832266 2
3.2773488 3 0.6029588
4.7327127 1.5 1.3262646
1.6417332 1.407487 2
0.44098189 1.4374293 0
4.7487159 1.5 0.29083547
0.57769388 0.4589031 2
1.5224111 0 1.5510043
2.7297711 0.46694934 2
3.3772454 0 1.2403537
1.8508451 2.9570167 2
0.13765304 0 1.5737222
5 2.8089795 0.88126522
0.50189006 3 1.7929904
1.0509782 3 1.1098561
4.9722486 1.8154316 2
1.6511236 0.41588306 0
2.6091971 3 1.3663672
0 0.63708317 1.1936437
3.9896989 0 0.19760168
3.6966202 0 1.7477555
0 0.5633086 1.674143
2.8567395 0 1.2342209
4.5125442 3 1.2991769
2.2667828 2.1700165 2
3.5421855 1.2969594 0
0.96652758 0 1.9439098
2.176219 3 0.97812092
0.087875269 0 0.71332335
0.10457171 0 0.91884124
5 2.5124297 1.5785046
0 1.3597138 1.0919875
3.695277 2.9345515 2
2.6602757 1.9209493 2
0 1.2630399 1.7599729
0.15635042 0.28170294 2
0.9917289 0 0.27704945
0.044353731 0 0.67862976
5 2.9649076 0.40503719
0.10427619 0.39780405 0
4.2938204 1.7775712 0
3.1824238 0.83751178 0
4 0.66925442 0.93078667
4.81986 3 1.1668566
1.1682816 2.0463572 2
4.8834758 2.0675676 0
1.6331555 0 1.9854288
0 2.25091 1.3555032
3.3974991 0.042453043 0
3.3270848 0 0.21469115
1.6980426 0 0.85925215
3.2939329 1.2973671 0
4.0917087 1.5 0.37232539
2.6360202 1.7038318 2
3.7690964 3 0.40465522
2.3159547 1.7984396 2
1.1090087 1.7510439 2
2.0162907 1.2197139 0
1.1697379 1.1395946 0
4.4858704 1.5 0.47479737
0.19468372 1.0488847 2
0 2.5396402 1.8959566
0.075984851 1.4603724 2
1.2939878 0.23582956 2
3.3775144 2.2308691 0
1.4746562 3 0.35950491
0.11034232 0 1.2717034
1.7146789 3 0.5298841
1.3358898 1.7759694 2
0 0.16271809 1.7368245
2.4765906 2.2787845 2
5 1.8897281 1.0294352
0.13134262 2.535342 0
0.42407015 0.022208765 0
5 2.3031673 1.7010139
4.3960381 1.5 0.68740129
2.607868 1.9077084 2
3.4954231 0 1.493885
3.9999142 2.6606276 2
1.5128905 0.38675961 0
1.0793228 1.7575932 0
1.8330252 0 0.31734142
3.4478078 3 1.8316844
1.7852488 0.43968222 0
2.0437028 0.88753575 2
0.23520209 0.56231844 0
0.29487771 0.18134233 0
0 2.4429543 1.4498363
0.31488949 0.12878115 2
0 1.9845973 0.057732102
4.4230671 3 0.14940748
2.9435992 3 0.73730379
5 1.8243233 1.291898
0.65567553 2.248801 0
3.2891877 3 1.5964961
0 0.66493559 1.2873021
0.29679003 3 0.36890182
0 1.1904682 0.87350619
5 1.992256 0.99501562
2.3807788 2.3948054 2
2.6389399 0.73667783 0
0.88400686 1.9489906 2
0 0.73379415 1.9133111
4.3764105 3 0.72604096
0.45034704 0 0.33316469
3.5793929 3 0.25010139
1.0001271 1.4885676 2
3.2592337 2.5363286 2
1.7040741 0.52645683 2
3.9345136 3 1.968358
0.80324233 2.0982108 2
0.55599016 1.6104919 0
0 2.5406213 1.837389
5 2.6969283 0.44208011
2.9859045 0 0.60192436
4.4318633 2.5131342 2
0 1.3686482 0.3508774
2.7396717 0 1.2789016
0 1.596981 1.7245927
0 2.843276 0.26258817
0.50750411 1.8024316 0
0 1.2590256 0.2242509
1.775184 1.2419027 2
0.90890455 1.9070526 2
2.0859809 0.3400259 0
5 1.9762636 1.7953027
3.348644 2.4760342 2
4 1.3296587 1.3601894
4.3226418 1.5 0.13275883
2.6932881 0.014800566 0
3.0668118 0.75063568 2
2.6964304 0.17385586 0
0 0.4651843 1.7944735
4.8900161 1.5 0.37452495
3.4533043 0 0.2859779
1.6791865 3 1.7064757
4.8539591 2.4714906 2
3.2024467 0.78549147 2
0 2.1145358 0.51936269
0.45791593 3 0.15561977
0 2.6602614 0.77705944
5 2.1919501 0.10057928
0 0.2057686 0.86560279
2.0993402 0.77421844 2
0 2.6041689 1.6844095
5 2.0122995 1.6667508
2.4612958 0.75681651 0
0.49836087 0.41698241 0
2.054045 0.54063427 0
4 0.80839044 0.46342346
0 2.8558214 0.13974558
4.6458483 2.1900198 0
4.0904384 3 0.045463197
2.0907338 3 1.3340141
1.0467639 2.3271577 2
4 1.4273258 0.063889951
0.068067975 0.022562347 2
2.4339883 3 1.5292864
2.9251964 1.134854 2
4 1.2076956 1.1464053
0 2.2146628 1.1656725
2.7858357 0 1.6421051
0.00051391125 0.68715173 2
4.3705888 3 0.075328857
2.253581 2.0691051 2
1.881116 1.1574565 2
1.9592581 2.8326414 2
4 0.40028301 1.5857179
3.2554567 0 0.4915801
1.2342616 3 0.27301285
3.0209553 0.24579734 0
0.27059966 0.44001126 2
3.1036279 0.30113828 0
5 2.2144017 1.5845304
5 2.0586033 1.5394393
1.2397217 3 1.18293
1.6799684 0 0.69387656
4.6770391 2.7127628 0
0 1.4924482 1.2414721
4.6156011 3 1.0054935
1.5327452 0 0.6543811
2.1852465 0.95828927 0
4.2331214 3 1.4123675
4.383677 1.5 0.52218604
0.63637096 3 0.43103436
5 1.6847328 1.4110861
3.5125339 2.168483 0
3.1877353 0.11246205 0
5 2.3129644 1.8523678
1.6602805 0 1.1793644
0 1.583427 0.87410504
2.2407942 0 1.282853
3.8134601 0.10216304 2
3.1854398 3 1.7445228
1.9838173 2.18771 2
2.8058701 1.9208615 0
3.3874278 0.31074885 2
1.747862 3 0.55118483
4.9630766 1.5 1.728116
0.44549906 0 1.7397122
3.1892664 0.019442178 2
0.99357194 0 1.625281
1.0646857 0.61093116 2
4 1.0251111 0.36025524
1.3374064 0 1.1074009
2.2726765 3 0.15828103
4.7537355 3 1.6958591
0.20707577 1.9115826 0
2.4935722 0.70147514 0
3.093981 0.69048429 2
2.3076279 3 0.41865543
0.88677657 0 0.51529199
4.8062081 3 1.735851
4.1558027 2.9699478 2
4.432055 1.9455609 2
0.58084857 2.7602 0
2.5182974 3 1.8343388
1.1387877 0 0.58381236
0.0016275235 1.4209909 0
3.1634564 2.9813514 2
2.1427891 1.2984159 2
1.7981715 3 1.9911996
3.4016662 0.59548414 0
2.0611796 0.29337397 2
2.1032085 1.8028156 2
1.1675698 2.9953408 2
0 2.2366514 1.1089162
3.3169119 3 1.0081178
4.5119667 3 1.5526047
2.206506 0 0.54681087
1.7623365 1.8441207 2
0 0.16705084 0.64597642
0.23455191 0.31293344 2
3.3744042 2.7377696 0
1.693512 1.2926162 0
4.4079103 2.0897188 0
2.0990849 0.74999511 0
