# .PCD v0.7 - Point Cloud Data file format
VERSION 0.7
FIELDS x y z
SIZE 4 4 4
TYPE F F F
COUNT 1 1 1
WIDTH 1517
HEIGHT 1
VIEWPOINT 0 0 0 1 0 0 0
POINTS 1517
DATA ascii
-20.172533 -2.3878396 4.8548346
0.7666356 0.032341212 4.9537001
24.02924 -3.4211214 4.9537001
18.49037 -5.0725408 4.9537001
-0.040123932 -8.8395405 4.9537001
2.6028762 -8.336421 4.9537001
8.1389198 -9.4178095 4.9537001
31.546892 -1.2446856 4.9537001
-13.770552 3.5384717 4.9537001
31.8356 8.1344509 4.9537001
-16.509544 -6.0655823 4.9537001
0.2059534 6.4087 3.6987331
36.085133 -6.3629613 4.9537001
-5.6352825 -9.1960812 4.9537001
-15.905317 -5.2145648 4.7186136
24.64381 7.0944548 4.9537001
16.140354 -5.6194911 4.4512115
7.782455 6.4087 4.0521593
-20.94503 0.36099616 4.9537001
17.504124 0.64565319 4.9537001
25.868614 -6.0212789 4.9537001
-18.408567 -5.3032904 4.9537001
-16.943556 -5.6194987 1.3868008
31.303139 -5.9387865 2.7777305
4.1347504 5.2632236 4.9537001
27.991896 -0.46692911 4.9537001
-24.663021 -7.0081401 4.9537001
27.489563 6.0510178 4.9537001
-3.4180901 -3.9299271 0.023051694
5.6834044 -5.8687029 4.4717908
10.893925 -5.2145648 2.8435571
-18.598175 -0.58168626 4.9537001
19.38184 -2.685122 0.020099256
34.457039 0.033945803 0.37584803
13.698721 -5.4168458 4.9537001
-7.7469788 -5.7582178 4.9537001
37.922405 0.86764735 4.9537001
-16.766775 -5.2443113 4.9354453
22.909735 -3.9363616 4.9537001
-10.235958 -6.3991256 4.9537001
22.534811 -6.1547937 0.076374501
37.760567 8.4656487 4.9537001
29.340359 -6.073976 4.7931476
33.69133 3.9897218 0.068361886
34.332943 2.6746056 0.068818502
-11.093715 -5.3467164 4.9537001
-18.045498 -7.9362736 4.9537001
-11.761873 3.3285704 4.9537001
-19.546988 8.0840654 4.9537001
6.5816507 -4.2538857 0.033694033
34.144939 5.6056499 4.2759857
25.054855 -7.8465657 2.3911479
-21.616762 -5.5639877 0.031519949
-21.386507 -1.4342096 4.9537001
10.612865 4.124485 4.9537001
33.936687 -1.411306 0.030147085
14.292734 5.8240809 0.066301607
34.144966 -2.5477965 3.7950344
21.954556 2.6660931 0.055254862
4.9483266 3.1901987 0.038755603
13.473094 6.4255486 4.5041795
18.183559 -3.972405 4.9537001
-7.7364445 -1.1031942 4.9537001
14.107961 -5.6194916 2.542495
11.143626 -3.8478911 4.9537001
24.703758 -0.98557979 4.9537001
23.349091 -4.8879685 4.9537001
-11.159851 -6.0166435 2.2177792
-2.3594222 -0.0014449453 2.1935735
-13.619738 -3.9985669 4.9537001
12.160242 -2.5126147 4.9537001
26.92494 3.5469987 4.9537001
25.852041 -7.8089142 0.039105039
4.749979 6.4245915 0.68520355
-18.987719 -1.6612266 4.9537001
25.791344 5.0433974 4.9537001
37.765869 -1.1808671 1.6748301
-1.5205178 -5.296473 4.9537001
-0.5969305 -0.0015 3.3874705
8.4991045 5.5422029 4.9537001
27.595411 -9.9127426 4.9537001
23.738394 5.6695461 0.067668438
-22.234787 0.58272105 4.9537001
26.003437 5.7747974 0.06810192
-18.573372 -3.4755154 1.798504
27.714201 7.6418972 2.5998232
19.367628 6.5339108 0.06889724
12.101514 6.434586 2.4108863
29.224321 -0.54649198 0.039652556
7.766943 0.99355859 0.015974274
18.444878 -9.8978424 4.9537001
9.9358721 -1.8999054 -0.0040819617
3.7019436 -5.2119966 4.4377055
36.100616 -4.8131762 4.9537001
-24.422161 -9.44835 4.9537001
10.491061 6.4368334 1.6589655
8.1210318 -5.9683032 4.9537001
18.953968 -0.38727772 0.01810242
21.449121 4.0910974 0.061474178
19.886894 6.4954524 2.5697446
0.41483316 1.8584346 0.01751289
23.753155 7.6418924 4.8588309
30.148943 4.5081139 0.067232914
0.10058789 6.4087 2.9016681
18.843309 -5.216475 0.038882311
-21.209785 -5.0198965 4.9537001
22.921679 -7.5740147 3.8543897
-18.22617 -5.8686643 2.9957473
-2.0373578 -8.4704981 0.03194987
32.732197 -5.9387865 2.9751036
34.144962 0.8046121 0.87405771
13.57997 -5.6194916 0.68359715
-5.8827405 -0.045860831 3.6467874
-18.573372 -5.2755165 4.4566526
-20.631596 -0.43640363 4.9537001
14.386642 1.0390767 0.028001783
30.866016 0.1579465 4.9537001
25.93626 -7.5583653 0.039093845
29.461376 -5.9387865 1.5441982
33.085129 0.9315601 4.9537001
36.218948 6.3352265 4.9537001
37.765869 -1.4588765 0.60646462
-6.9468026 0.24380392 4.9537001
17.094706 6.4467001 2.0148733
-7.4936037 7.2946944 4.9537001
2.5822933 -5.6059828 2.3987052
-19.303568 0.35590351 4.9537001
5.4263158 -5.837604 0.53778678
28.017416 0.99119419 0.058819544
-7.652472 1.7915775 4.9537001
-13.153584 -5.2862959 1.0789728
-2.394654 -6.2404065 4.9537001
23.946867 2.661804 0.057846457
-11.163206 -6.0166435 0.65689701
8.8268547 -0.43327537 -0.0041076369
23.1381 -1.4235077 0.010516334
30.052778 -5.9387865 2.859283
35.416416 -2.4735234 2.410687
27.270691 2.4016974 0.061302125
23.984215 3.3387835 0.0604132
5.9264541 3.4030414 0.042435683
23.476841 -0.76942796 4.9537001
14.630844 3.5139439 0.052249856
0.27073315 0.13267197 4.9537001
28.307627 -2.3546002 4.9537001
31.28245 5.6741209 4.9537001
10.704416 7.9860959 4.9537001
23.592005 -4.0009842 0.034203779
22.730259 -7.5740151 1.2334875
33.00209 7.6419039 3.2431936
30.006674 -5.9387865 3.1240563
10.377881 -5.7517729 4.9537001
5.418149 -1.1417073 -0.021171182
-0.0027430349 4.5305796 1.3916471
-17.601795 8.3456984 4.9537001
34.144966 -4.3676395 4.9423027
14.144181 -2.8321772 4.9537001
23.55901 1.7029953 4.9537001
21.647585 -5.2145648 1.0334914
36.92379 -2.4735231 3.4721861
-4.8912425 -9.1222429 0.031925946
26.925406 7.6418962 3.9882319
34.144951 2.9928808 3.8855197
-0.8430286 -1.3227496 4.9537001
21.750166 7.7586331 0.66128117
9.7972898 3.2143414 4.9537001
16.623491 6.4504094 0.25181326
-6.3120766 -5.9960437 4.9537001
23.035347 -7.5740151 2.1680043
-14.11137 5.4932775 4.9537001
11.997527 -4.3282957 0.035947427
-17.624159 -5.8686643 2.9491475
30.03812 -5.1186385 0.038214434
-15.740024 -3.2517998 0.024289012
-1.3498772 -0.0015 3.687762
-20.169203 -0.48059386 -0.0068071047
14.691355 2.3557079 0.042328168
-2.9109387 -1.2045299 4.9537001
-23.67304 -9.6974239 4.9537001
16.435532 -9.7620344 4.9537001
14.938854 -0.48284587 4.9537001
5.5612626 -5.8687034 2.4704325
16.314024 6.4457984 1.8444059
22.535242 -7.3207183 3.4432826
35.144222 -3.072238 0.036252096
7.7006903 6.1599808 4.9537001
-5.6726303 -1.9198674 -0.0026187969
22.772017 8.2530994 4.9537001
-17.908632 -0.15756114 3.6726542
34.144932 7.2123542 3.7403483
23.24984 -7.8465619 3.5467811
13.010454 6.440598 1.4471781
-23.143419 -2.9616079 0.032254681
10.275129 7.2248917 4.9537001
14.664146 4.0585475 0.056377135
-15.314175 -0.1672281 4.1932302
9.6895199 2.4173503 0.035323828
22.931667 6.2695303 0.068582192
12.032411 -3.3457677 0.023499204
24.760019 -4.6944432 4.9537001
15.117165 6.4492412 0.45288607
29.783964 -7.0691895 4.9537001
-3.9506426 -7.8037925 4.9537001
31.55592 3.4700463 0.066683367
17.803316 0.66328877 0.031315446
-2.4878583 5.2344861 4.9537001
-3.3535519 -2.5184839 0.0051494413
6.5451646 4.2117386 0.05203877
-19.209024 -9.1721697 4.9537001
30.696831 -6.1614156 0.038984869
15.257052 4.88482 0.062055293
8.5775006e-05 0.70068771 4.6012731
-4.2035279 -0.0015 4.4054551
-14.693136 -4.5293145 0.027384562
8.6607866 -9.3238745 4.9537001
3.5981557 -5.505127 0.87832117
33.323055 -3.2544746 0.035340145
-6.1260915 0.096054472 0.0051696496
2.2462459 1.5278364 0.015908848
26.094105 7.6418953 3.4361014
24.25061 3.656352 0.06176924
14.46223 -9.7270079 4.9537001
5.4263158 -5.7924323 0.52412462
37.765869 -1.2263126 1.1916862
20.186815 -5.6194911 4.4382992
-17.482882 -2.0147305 0.016645102
10.477897 4.8660703 0.059562847
-20.095051 -0.045312162 4.9537001
7.7781577 -2.1761765 -0.00083687867
-23.263397 -4.1738491 0.03174974
22.16452 -5.2145648 1.1653451
32.323864 -6.8718505 4.9537001
6.684351 -7.2826786 4.9537001
28.523378 -7.8465729 1.7700239
22.607306 -7.5231681 0.03899347
24.364948 7.6418929 1.4943956
-23.571003 -8.6526976 4.9537001
-23.533812 -0.15299535 2.8339958
35.610382 5.957921 4.9537001
-14.853016 -7.7862725 4.9537001
9.6391096 -5.5381327 0.46476761
-15.773526 -5.2145648 1.5242059
3.6777766 -8.9692631 4.9537001
10.458787 2.4034116 4.9537001
35.003738 -5.3681421 4.9537001
19.190872 -9.620656 4.9537001
-4.1941242 2.9037704 4.9537001
-23.876371 -1.0509629 1.9537104
29.190943 -5.7382865 0.038813014
14.462998 1.9264174 4.9537001
15.229952 -4.1482725 0.034237694
-4.2447195 -5.7245083 0.031823646
12.429144 -0.6316123 -0.0022747775
9.8286085 -2.2415032 4.9537001
29.340359 -7.5258069 2.5997872
7.7128854 -5.37572 4.9537001
26.751892 7.6418962 0.77181166
-10.002071 -3.3261926 0.019210672
5.2776847 -5.5533752 4.9537001
28.035465 3.0724168 0.063383341
27.276634 -9.5374613 4.9537001
-21.67429 -0.29787955 4.9537001
2.2738395 -2.4978995 4.9537001
-5.3263669 5.5018134 4.9537001
33.785889 5.7652464 0.069146022
-11.787503 8.0744524 4.9537001
-5.0430255 -7.5874424 0.031935763
9.5285072 -5.1434836 0.040747706
34.203815 -4.0730767 4.9537001
-10.41862 -0.16662636 0.30619034
16.670296 -9.8389463 4.9537001
10.590663 -2.8220682 0.013716299
-3.9610474 -2.9116979 0.011345798
-23.433273 -5.7164392 4.9537001
-22.6492 -0.15299535 3.6815252
22.535069 -6.8533936 0.86315179
-6.0333214 -0.18233019 0.0019928075
-11.391273 -0.1918171 4.9057765
-10.964687 -7.377264 4.9537001
-1.216928 -3.8367212 4.9537001
-18.573372 -3.584461 2.8720007
33.4804 -2.2118654 0.032549761
30.974522 6.4958863 4.9537001
14.254288 -5.6194916 3.2623448
-3.031565 -0.0011945354 1.6117148
-3.5013194 -9.3226118 4.9537001
10.452856 6.4398456 1.3061819
16.83036 -0.73757857 0.0057141045
12.840297 -1.1145744 -0.011669835
27.638212 6.225296 4.9537001
-0.80807024 -9.1489315 4.9537001
20.06175 -8.6331959 4.9537001
-16.534882 5.0363503 4.9537001
9.1088924 6.4087 4.4344311
-11.732863 -6.0166531 2.837589
32.991096 2.7451274 0.067498654
34.144962 0.73400104 0.24279726
15.073426 6.4917831 4.9537001
21.632277 -5.2145648 1.3480012
7.3243952 5.3511624 0.061802652
-21.887901 -3.0252962 0.030849321
6.7164211 2.0288718 4.9537001
7.1707187 5.2756977 0.061265826
-23.329704 -5.3752828 0.031727064
19.090216 4.9618096 4.9537001
13.878832 -6.2740211 4.9537001
19.980581 7.7586331 2.3018484
18.33461 3.7776103 4.9537001
8.636529 5.197443 4.9537001
-16.459345 -0.64420903 -0.0066160015
1.9623544 4.1029472 4.9537001
5.3947334 -6.5307851 4.9537001
19.360703 -5.6194916 1.0147485
-17.864347 -5.8686643 2.0077674
-16.365652 -0.16331029 0.8046419
22.818956 -4.5714164 4.9537001
10.252482 -1.6128205 -0.0089229187
22.824419 -6.6178861 4.9537001
3.6727397 6.6161046 4.9537001
-2.063993 -6.9339337 0.032815006
-24.582298 2.9489295 4.9537001
-20.979376 -1.6576126 0.016090032
25.850006 2.5938206 4.9537001
36.630814 -8.9497967 4.9537001
-19.665289 0.90283829 4.9537001
-10.393288 -2.2366574 4.9537001
6.3190598 -1.0861404 -0.019185955
28.009245 -0.84923053 4.9537001
7.6072936 6.4087 4.7400136
-23.876358 -1.6070142 4.1951575
5.6061516 -9.7223139 4.9537001
-8.9329777 -5.7565737 2.7250068
17.42028 8.1906071 4.9537001
-18.122141 4.0249839 4.9537001
3.4891932 -1.9864035 4.9537001
31.039761 0.36647293 0.06108164
-23.366581 -5.6144123 0.03187817
29.472485 -0.95431578 0.028849425
-6.4477639 -6.0897522 4.9537001
18.549137 -0.83666199 0.0076195053
9.0148134 2.6312928 0.036815722
0.17296316 -2.2912796 4.9537001
29.481773 7.6418996 1.8146858
22.887707 -7.907423 4.9537001
34.339664 -3.0050342 3.9771302
-7.1734905 -0.21302959 2.0655558
28.908787 -5.5726027 0.038682707
18.9025 4.4256673 4.9537001
-2.7137206 -0.60018712 4.9537001
18.709393 6.0962186 0.068080492
-14.040354 -0.63972574 4.9537001
16.718681 -2.5348363 4.9537001
-3.05654 4.3360009 4.9537001
-1.0871392 -3.7567773 4.9537001
20.340467 8.6486368 4.9537001
29.361994 -2.3394742 4.9537001
17.303589 -6.993773 4.9537001
22.980576 1.4388992 4.9537001
6.9249921 -5.6195149 1.3944907
-15.456923 -0.65480888 4.9537001
37.474346 -2.4735231 2.0315137
-8.705205 -5.3952069 0.029517485
-16.526897 3.6471176 4.9537001
30.049868 1.4694223 0.064065948
33.903801 -5.9387865 0.86793411
34.144955 1.9988056 4.1888561
6.5086498 2.3612449 0.030180985
16.643534 -3.6948092 0.030022366
-5.6476173 -6.0166702 3.7727184
-11.234216 -6.0166445 4.7570114
-12.672074 -5.2145648 3.2864711
10.163724 6.4326987 2.1431861
-5.420454 -3.9350338 4.9537001
2.2665124 -2.7496164 0.0079169981
23.500069 7.0040922 4.6397505
-17.654997 -6.3388648 4.9537001
23.297583 7.2896323 3.8314984
18.89621 3.3449965 4.9537001
-21.698454 -2.3878396 4.9783692
32.048561 5.0207281 4.9537001
2.8869836 -5.5958014 0.36316332
2.9488964 4.9865627 4.9537001
28.093275 2.8043184 4.9537001
-9.8203106 -6.0166206 1.8555694
3.080158 3.0587199 4.9537001
4.5673032 -5.2119966 4.605195
17.041161 5.1328211 0.064161949
32.726036 6.7485485 0.069086328
34.238598 0.033945799 1.718058
25.830797 -5.499475 0.038662251
32.243774 7.6419029 0.2828463
17.610601 3.9847119 4.9537001
-18.00798 -3.6355546 4.9537001
-11.679052 -3.5787802 4.9537001
13.556625 -3.6138294 0.028031724
-1.4740942 4.9089084 4.9537001
24.708942 -7.8465648 4.2729549
19.904369 -4.7949786 0.037703011
-22.642008 -0.52667189 4.9537001
-0.40735203 -5.0470066 4.9537001
-3.8218093 0.00041301272 0.62614244
14.041275 -7.5789523 4.9537001
-22.557585 5.4807053 4.9537001
24.88545 7.6418939 4.9019489
22.535152 -7.0783539 1.7562979
36.969967 0.48760179 4.9537001
-22.946606 -0.15299535 0.89736742
-8.7915697 -5.6194749 4.3166294
-7.9709949 0.19014795 4.9537001
-21.367596 -5.0676098 4.9537001
36.32814 6.9394908 4.9537001
1.4818909 7.6853695 4.9537001
6.9427061 -5.6195149 1.1863743
-2.5725296 -6.3602948 4.9537001
34.144966 -5.7461505 1.1649166
-10.465477 -2.6892848 0.014195471
20.832201 0.44993588 4.9537001
25.708534 7.6418948 3.4440434
0.73593265 6.4094524 0.75589347
0.0052847574 5.8590622 0.29719704
29.332779 -9.4564695 4.9537001
-22.257843 -0.15299535 2.3837578
-11.432094 -3.6957736 4.9537001
-18.311666 -4.2328563 4.9537001
28.587238 0.66172409 4.9537001
37.765869 -1.9055607 3.8793113
-18.31707 -0.37452111 -0.0082157645
-17.748947 -5.8686643 1.4695854
17.375818 5.1101065 0.064206347
-18.433157 -5.6853051 0.7716223
9.6848593 -2.4371181 0.0057866336
31.592781 7.6187553 0.068946056
-15.834238 -5.2145648 4.1301446
11.424291 -3.4383237 0.024601426
-2.615767 -0.0015 4.2667418
36.265205 7.0996366 4.9537001
-0.00021771531 6.1051269 4.1019936
15.56841 6.436883 3.8986688
-7.1863923 -5.8131027 0.031142799
4.7147613 0.85718769 4.9537001
17.188211 2.2154825 0.045203783
17.381716 4.796494 0.062630884
22.574984 -7.5740147 4.3484068
12.343944 -9.1133118 4.9537001
2.3209219 6.4087 4.3540096
17.405247 6.3686633 4.9537001
-18.573372 -5.3188195 1.8606402
23.580818 7.9030805 0.068875991
9.6701822 -3.4747529 4.9537001
8.5906687 6.4087 4.4174557
0.70072216 -1.8529879 -0.0088048466
14.447501 6.4365869 2.871911
-14.101735 -0.17174567 -0.00025291136
11.588093 -3.6315153 4.9537001
8.0352793 6.44067 0.19330274
29.740921 7.6418996 0.12268892
7.714469 -0.38128933 -0.0041535953
-4.7541833 -7.3047714 4.9537001
10.630965 6.4144359 4.4612379
32.402409 1.4001983 4.9537001
6.0881696 -0.31561533 4.9537001
15.961864 4.0749102 0.057484157
11.445706 -5.3835034 3.5916162
16.371418 6.4504094 0.55150855
-5.291513 6.3193698 4.9537001
29.278538 7.6418991 2.4400475
9.62883 6.7632174 4.9537001
-16.139471 -5.2145648 4.8612556
8.5448771 4.0653133 0.051889367
37.229095 -5.6105332 4.9537001
27.382744 -5.787467 4.9537001
18.931349 8.4678869 4.9537001
17.887842 5.346611 4.9537001
2.6301174 1.5357777 0.016255561
26.438023 -3.0478992 4.9537001
34.144966 -4.6397009 0.89342332
36.046722 -6.284687 4.9537001
33.449081 -3.2974768 4.9537001
-12.466272 -5.6573853 4.9537001
-17.433826 -2.2338514 0.019456616
35.912872 0.73091078 4.9537001
28.148359 -1.197156 0.015787857
12.978247 -5.6194916 3.5570211
-9.0034742 -4.5442591 0.025847925
-5.8857641 -10.684183 0.031992719
13.38359 4.1197233 0.055877779
9.694911 5.6195788 0.06398464
11.445706 -5.5934043 0.80123883
13.958909 7.084446 4.9537001
24.088703 4.9698153 4.9537001
7.0597744 -5.6195135 0.24607186
35.034088 -4.3406277 4.9537001
-0.29363784 7.0015707 4.9537001
3.9767089 -4.8372793 4.9537001
24.054571 -6.8387556 0.039082825
1.2498994 -4.3169107 4.9537001
13.597636 3.4416206 0.050569925
17.601999 -8.1920319 4.9537001
-0.15131858 -5.2171054 0.83866292
30.335703 -5.9387865 1.2962486
28.846279 -1.292696 0.019830685
18.237244 -5.9159555 0.039134178
9.6970148 -2.8114939 4.9537001
16.325924 4.4109435 0.059851192
6.9117379 -6.988945 4.9537001
-0.31038409 -5.2171054 3.6132548
17.635632 -1.3758733 4.9537001
20.874895 -5.1903167 0.038585272
7.4205217 1.6926314 4.9537001
-6.9114389 -1.7649648 4.9537001
26.843033 -7.8465695 1.0731239
29.186758 7.6418991 3.4374712
15.58427 -3.6793842 4.9537001
-1.1764046 5.1033731 4.9537001
12.34653 6.4221354 4.2018695
-18.573372 -4.1689868 4.9579759
-21.718821 -2.3878396 3.4408484
37.059448 2.6260672 4.9537001
-23.732306 -2.3878396 4.9806528
-0.63758516 -3.9522791 0.024693804
-1.3427768 -5.6683602 4.9537001
-8.7068214 -4.5195627 4.9537001
23.341234 -6.917634 0.039061114
34.144951 2.7154975 3.6854119
18.894445 -3.0469422 0.023980999
-10.510416 -6.0166326 0.40610766
4.8703656 -0.035121765 0.00085447665
-3.552721 -1.6761489 4.9537001
17.020489 -1.0483856 4.9537001
-19.81337 -3.6383829 4.9537001
-8.1891556 -5.2145648 1.7982472
35.041573 -1.8699576 0.033555992
12.176277 8.2875214 4.9537001
20.675823 5.7321048 0.067430429
-0.84831309 7.8998637 4.9537001
12.189717 5.6590624 4.9537001
33.219143 -0.76256686 4.9537001
-0.020708736 1.5303653 0.095762961
-16.661367 -9.9076767 4.9537001
-21.347179 -5.5468183 0.031467009
29.452393 6.1249743 0.068716884
5.0870256 -9.370348 4.9537001
-2.2597444 -0.0012273923 1.6880623
-4.4751177 -7.4571762 0.031964947
14.489775 2.6926 0.045136772
-10.051299 -0.1717903 0.54409134
-19.514755 -2.3878396 4.7432146
-23.876343 -0.16362873 4.3807044
-12.389028 -2.0584311 4.9537001
14.833424 -0.90697867 -0.0026981065
27.91148 5.8643045 4.9537001
15.320756 6.436842 3.6660993
18.059944 -5.2145643 4.5185537
22.019184 -5.2145648 1.0464756
-9.8250351 -2.2621999 4.9537001
36.103035 0.033945881 4.2267766
-5.2213154 -9.9152355 4.9537001
6.6373563 6.4133239 1.9615861
29.303303 -4.5665269 4.9537001
12.252209 -8.8186436 4.9537001
16.628775 8.2835598 4.9537001
20.73698 7.7586331 0.83253932
5.3674278 7.5012589 4.9537001
-15.958463 -2.9371152 4.9537001
20.720217 -2.7921808 4.9537001
-9.2880745 0.58298475 4.9537001
18.743336 3.056654 4.9537001
8.6545677 3.9442396 0.050766792
14.311563 6.4326901 3.6514909
34.144932 6.6835032 2.9900856
2.263593 -8.423974 4.9537001
7.5276427 -3.4573402 4.9537001
5.8322749 5.5392246 0.062938102
-16.765482 -3.0535383 0.024671098
8.5884485 -3.7034171 4.9537001
-14.790705 1.84097 4.9537001
-9.4203796 1.4722128 4.9537001
-17.413881 -3.567323 4.9537001
-23.146551 -2.3878396 1.1336038
34.959816 -4.8694549 0.038386453
-14.119157 -1.9806265 0.010682048
-14.004741 -2.3422787 4.9537001
6.3960061 1.0598806 0.015149188
-0.001099372 1.2905619 2.6515579
33.269722 6.323513 4.9537001
17.364922 -6.6885395 4.9537001
-18.573372 -3.7487085 1.06938
4.2798734 -2.7447309 0.0083644837
16.352758 0.21909429 0.021766616
32.815971 -6.8029232 4.9537001
1.1123416 -5.6043973 1.1192586
8.7284746 -4.2830753 0.035021901
13.368747 -6.4570432 4.9537001
35.064011 -9.8177805 4.9537001
22.53483 -6.2070799 4.882226
-9.0622969 -7.1134334 4.9537001
18.253115 6.9487209 4.9537001
-18.573372 -3.1633925 0.054655887
-12.434967 -3.6181364 4.9537001
2.058691 3.2908514 4.9537001
5.6897936 0.32334965 0.0061250627
21.225246 4.1878738 0.061732158
5.3735271 5.7788396 0.064622365
32.205589 7.6419029 1.8547993
34.144966 -3.8693261 1.3384259
26.633512 -2.0549362 0.022676565
26.908007 -7.2756381 4.9537001
-20.20145 -4.6858873 4.9537001
18.884163 3.9564993 0.058959585
29.193178 -6.2645288 4.9537001
8.3702745 -5.6195025 2.3140206
-19.211748 -3.484417 0.028471485
6.7708559 4.2362499 4.9537001
8.4702826 8.1206017 4.9537001
19.158598 7.0386052 4.9537001
30.418728 -9.849124 4.9537001
22.770752 4.5865712 4.9537001
15.497115 4.0834551 4.9537001
14.002213 6.1955161 4.9537001
-18.484526 -5.6194835 3.5978727
-7.505445 -4.2873058 4.9537001
30.496813 0.36919156 4.9537001
7.919086 -5.6195064 2.4961004
14.680291 -7.6615582 4.9537001
15.245622 -5.6194916 0.87336129
8.0985737 -5.6195045 3.8472679
0.71281964 -5.6001115 3.3468816
12.361732 -1.1650552 -0.015966039
-11.93798 -0.19155125 4.514482
-22.055935 -3.0302203 0.031058526
24.044897 -1.2675648 0.0096498188
30.912123 3.1806419 0.065968595
6.6308932 1.1622552 0.016561624
19.78339 6.4906521 0.068841845
30.842691 -7.8894615 4.9537001
-13.181439 -4.1817989 4.9537001
10.809003 2.5604117 0.038543861
12.523245 6.4436779 0.85735309
-16.575686 -0.1625277 2.9233336
23.137325 -9.3232403 4.9537001
-18.904909 -2.3878396 1.2337545
-10.542938 -6.016633 3.5842381
29.7644 -8.4921074 4.9537001
15.203578 0.44492278 0.022203492
34.144966 -3.9547153 0.55157429
22.534603 -5.594162 2.3040502
31.512861 7.641902 1.8227967
37.765869 -1.6564951 0.59029722
9.5300312 -1.6103443 -0.009827191
-15.182117 -0.16772015 1.7027661
27.682989 6.9026999 0.068888113
-19.329393 -2.4604204 4.9537001
-2.1877713 0.4758499 4.9537001
-7.7761402 -5.2145648 4.6229196
-20.629436 4.0695138 4.9537001
-12.136548 1.5776981 4.9537001
12.768567 -5.6194911 4.924233
5.8345742 -5.8687034 2.1398604
-19.135937 2.3220792 4.9537001
10.727353 -1.3366565 -0.013190679
5.0764041 6.4216142 1.1028316
0.32961324 7.5921988 4.9537001
29.427952 1.1717629 4.9537001
34.068352 5.4751058 0.069128208
23.726448 -6.6609235 0.039075911
30.008553 -5.9387865 1.1790802
4.2180929 -5.2119966 2.2060349
-13.38923 -5.6194916 4.616159
4.9410138 -3.7683992 4.9537001
21.497574 1.6332834 0.048804458
-20.623154 2.6720383 4.9537001
-24.401201 7.9045186 4.9537001
-11.251474 -0.23219123 -0.0030572978
19.430349 -5.3498101 0.038950805
37.126377 -1.5296386 4.9537001
-13.215532 -3.1161723 0.020800365
-18.347893 -5.8686643 3.4591334
31.781387 7.6419024 4.8756042
4.043149 1.4903884 4.9537001
-9.2197933 -5.5899048 0.030220531
26.0499 -3.5287595 4.9537001
28.10498 -3.8185351 0.034580737
32.623138 -5.9387865 3.1738667
-1.0084794 -3.1519501 4.9537001
1.8371761 4.1813817 0.04935858
-13.328275 0.8864814 4.9537001
-12.307151 -5.2145648 3.0985329
16.730757 1.9147664 4.9537001
-11.748331 3.9954019 4.9537001
27.834431 1.6860126 0.060789943
22.242443 -4.9665427 4.9537001
31.657551 7.641902 2.4688313
-7.1653056 -3.005852 0.014278769
-4.8900051 -3.6069937 0.019700956
-9.5165768 -6.0166154 2.5698655
-3.3141274 2.0254874 4.9537001
-8.236002 -5.2145648 0.9027968
28.441362 -7.7944126 0.039047182
11.135561 -5.2145643 4.5085602
20.756399 -8.5837545 4.9537001
-5.3836322 -0.95009482 4.9537001
24.259369 6.9331074 0.068898402
10.398696 -6.3967142 4.9537001
-3.9974751 -6.0166702 3.6551805
-13.193054 -4.5939884 0.027008634
11.032684 -5.2145648 0.47245702
12.126689 -7.9299569 4.9537001
33.737518 5.4143052 4.9537001
21.180443 3.3325462 4.9537001
-23.787077 -6.9125395 4.9537001
5.2851658 -0.69645613 4.9537001
-13.052854 5.9942899 4.9537001
4.9505701 -5.8027282 4.9537001
33.398537 1.8242295 0.068640523
2.960855 2.5991201 4.9537001
-6.1035414 -0.012542685 0.49528062
-6.6699476 -8.6663637 4.9537001
22.852636 -7.5740151 3.1313391
11.157781 2.5126908 4.9537001
37.765869 -1.8880012 2.1128929
22.534496 -5.3066525 4.5289531
2.0306573 -0.046657521 0.0010372022
-13.637468 -0.59020263 2.0067921
33.952988 5.5330782 4.9537001
22.114544 -5.2145648 0.5377382
37.765869 -1.2139922 4.3114452
36.644749 -2.4735231 2.4683824
-0.4192538 -2.2278817 4.9537001
21.434679 -5.2145648 1.3247067
-18.573372 -5.3655629 0.61964732
-5.4571152 6.6544838 4.9537001
-2.9939308e-06 4.426403 4.4552369
33.138699 -6.5230064 4.9537001
-6.7847447 -0.84865862 -0.0078591993
-11.422182 2.9287357 4.9537001
-8.5297737 -4.2269921 4.9537001
14.834089 -1.8872613 4.9537001
30.008936 7.5528483 0.068916284
15.933985 3.914767 0.056378655
-18.573372 -3.0681081 2.9009392
-9.6607809 -1.1482736 4.9537001
35.014141 4.9671068 4.9537001
-5.012567 -0.013507552 1.3763541
23.740623 -4.2164869 4.9537001
-5.7551637 -4.3613 0.025431793
14.082945 4.2400141 4.9537001
10.321891 3.801934 0.050742757
-9.5987387 -0.19312955 1.4688252
18.962498 -1.296247 4.9537001
35.221519 8.3716669 4.9537001
11.88539 -5.6194916 1.7683427
-1.1886224 4.4551497 4.9537001
-22.449322 -0.15299535 0.98032653
-22.06028 -1.267102 0.0093806637
4.7015314 -0.95144629 4.9537001
10.620086 2.0913067 4.9537001
20.409307 4.9504142 0.064665638
-0.42820582 -0.00077990897 1.9290209
26.9653 -7.8465695 2.4528782
24.404058 -7.8465648 0.17806472
32.882862 -2.5848465 4.9537001
3.6772683 4.5158801 4.9537001
36.433048 -6.3057842 4.9537001
-8.0977268 -9.6034107 4.9537001
29.535004 -9.0959015 4.9537001
9.1375999 6.4389992 0.65199459
25.095543 -5.9075871 0.038962975
-1.8733616 -2.6653914 0.0068136682
20.140175 -4.0440912 0.033861402
-12.729483 -3.1535342 4.9537001
28.593988 -7.7254863 4.9537001
33.034973 2.5306053 0.06760481
1.1835426 -5.599916 0.55559254
34.144962 1.0274514 3.9615633
28.969557 7.6418986 3.1254406
29.655596 -7.5268378 4.9537001
30.536703 -7.9951897 4.9537001
29.180317 1.7793744 0.063076265
6.8168969 6.4087 3.8393414
15.354111 3.024353 0.049144853
2.9696839 0.92939508 0.011228214
-4.0389924 -6.0166702 1.8571929
19.363817 -4.880497 0.038090672
-16.806061 2.3275998 4.9537001
31.512133 -0.24041457 4.9537001
33.203136 -1.9080666 0.03102883
-13.180487 -6.1034822 4.9537001
24.309111 8.0499716 4.9537001
29.193563 -0.17021976 0.048445988
36.546906 6.5969996 4.9537001
30.1698 -4.181407 4.9537001
7.0530691 -3.05826 0.015599377
14.890443 -5.9635787 0.039391506
-16.37775 -7.9357719 4.9537001
21.456642 6.822896 4.9537001
36.441044 7.2897615 4.9537001
-21.529715 -2.3878396 4.5207586
16.476851 -5.2145648 1.2187043
26.255524 0.90016162 4.9537001
32.730221 0.6161207 0.066301845
26.825232 7.6418962 2.9369233
-4.984601 -7.4928784 4.9537001
-21.217777 -2.0615349 4.9537001
24.488308 4.9137769 4.9537001
34.293697 6.4129124 4.9537001
6.1722498 -1.7645813 4.9537001
19.585106 1.105527 0.040436268
17.227394 2.7538176 4.9537001
1.992424 1.1745589 0.012695195
28.165018 -7.9533949 0.03907004
34.144966 -3.0338731 1.7817943
-11.647715 -6.0166516 2.6548843
29.508835 6.6130905 0.06889236
22.722065 7.7586331 1.9459352
29.559563 7.6898861 4.9537001
-12.51405 -4.822382 4.9537001
1.4580804 -8.6958675 4.9537001
36.158367 -7.4081635 4.9537001
23.923674 -8.6229181 4.9537001
-11.249607 -9.9105482 4.9537001
7.0985475 -5.619513 4.6241665
38.164539 -9.881999 4.9537001
-6.3236151 -8.0641851 4.9537001
-17.840437 4.2847557 4.9537001
4.9639902 6.4272852 0.3889598
33.28233 -4.4261427 4.9537001
-3.5800474 -0.30444732 -8.0580176e-05
21.397993 6.9088292 0.069013983
-0.12217457 -2.3989382 0.0016342259
-19.013182 5.1308022 4.9537001
-24.35663 -1.9465846 4.9537001
17.28389 4.6124983 0.061583772
14.392993 3.4681232 4.9537001
23.49559 2.9396806 0.058356728
-2.2569554 -4.041965 0.024697475
29.340359 -6.7341352 2.5716872
34.243008 0.033945799 2.3564868
1.866634 1.5621029 4.9537001
32.304321 -6.1570115 4.9537001
-0.00062346883 3.6904342 3.4344783
28.537752 -7.8465729 0.094968244
3.0280511 6.4087 2.83813
16.421389 5.3482327 4.9537001
32.46162 7.6419034 3.9772515
-7.6736746 -5.2145648 4.6714296
28.294741 -8.4051142 4.9537001
-17.249153 -9.2545786 4.9537001
-3.9816468 -8.7261801 0.03191698
-22.392712 1.0881298 4.9537001
0.2501342 4.4804907 4.9537001
17.166113 -5.2145643 3.892911
20.473164 -0.45387188 0.020537779
-3.7988689 -6.0166702 4.0520997
1.1001917 6.4113746 1.4708891
-18.009039 -0.15718701 3.2481241
7.769331 4.7716837 0.057704732
-8.9339218 -6.0166054 3.4036903
-2.9772682 -8.141222 0.031889826
-0.00019413505 1.7951961 4.1407862
-9.9153843 -6.0166221 3.9387167
-12.879667 -5.2145648 1.5656745
34.811783 -1.2014859 0.030731339
-14.000286 -9.4188347 4.9537001
24.809805 -7.8465648 3.4428749
-20.501898 -2.3878396 1.5434254
21.591972 -1.6103586 0.0099602509
6.2619448 -4.6461143 4.9537001
32.00853 -5.9387865 3.6213052
24.199905 3.0568211 0.05961081
-19.043839 -8.3684359 4.9537001
3.8480997 1.7124205 0.019282339
13.115656 -1.6168226 -0.0047411644
3.7405431 -5.2119966 2.095103
-15.628745 -0.16605601 1.3794062
-3.5409434 -0.0015 4.4528408
37.155617 -4.4015279 0.038541462
13.671011 1.6669731 0.033683762
22.627083 4.2043972 4.9537001
17.924427 0.78904295 4.9537001
-18.330917 -0.15598769 3.0406003
3.7805669 -3.3768697 4.9537001
33.55846 -0.6185537 0.047104694
33.093048 -2.8760803 0.03420727
33.562447 2.0195262 4.9537001
19.841515 -5.6194916 2.915086
34.144939 5.072042 1.5385026
9.4236956 3.2682726 0.044485349
-11.697456 7.5406928 4.9537001
11.833295 4.5648088 0.058122884
0.63630313 5.3262362 0.062536366
32.744781 -2.3989663 0.032317821
-13.634466 -0.71262848 1.5217586
19.930567 -5.6194916 1.5219297
-1.2416803 5.7454963 4.9537001
-21.226213 -2.3878396 1.7645733
8.7177353 -8.7769337 4.9537001
10.902362 5.0261126 0.060823508
32.634094 -8.1063833 4.9537001
22.26997 -5.9494505 4.9537001
-23.812222 -1.7247982 0.021782139
-13.887457 5.8290281 4.9537001
-16.291515 7.9172602 4.9537001
-2.4867344 -3.9924755 4.9537001
-18.318987 -6.7431083 4.9537001
19.987612 -5.6194916 1.484423
-6.7698107 -8.3468103 4.9537001
12.675477 3.2371206 4.9537001
3.4649591 -1.4441326 4.9537001
-11.345816 -1.5719117 -0.00068864389
-0.18854715 6.0950351 4.9537001
35.083946 0.033945836 3.1396616
3.8176429 2.91886 4.9537001
16.145124 4.1771574 0.058257513
-22.913708 -3.114089 0.032166213
5.5275006 6.7935638 4.9537001
24.086224 0.87156194 4.9537001
20.150852 5.441649 0.066444881
32.184978 -0.86178797 4.9537001
18.015558 -4.1952934 0.034704175
-2.3624933 -4.2482343 4.9537001
8.9350138 -5.8465977 4.9537001
8.1303301 2.9115789 4.9537001
27.522354 2.3923919 4.9537001
35.137985 -0.45510402 0.054262597
-5.5725636 5.9869804 4.9537001
13.84258 -0.4280512 4.9537001
15.316818 5.2171416 0.063881986
-4.7351551 -6.0166702 1.1693586
37.676769 6.8260059 4.9537001
12.458926 -2.8122232 4.9537001
-18.573372 -4.0036502 2.4455645
-13.54695 -2.9742873 0.020315694
-20.873531 0.24964483 4.9537001
34.144966 -4.3029528 3.5384431
-4.9249439 -4.0817256 0.023814961
-21.88323 5.3462634 4.9537001
26.496859 -5.9561162 4.9537001
-0.025721798 1.4675373 4.9537001
-6.4195065 -1.0630212 4.9537001
23.035261 -3.1453593 0.028027806
28.413658 -7.1491375 0.03905512
3.5346382 4.3157201 4.9537001
-15.992747 -4.876328 4.9537001
31.033493 4.9830503 4.9537001
12.234786 5.6188684 4.9537001
-16.531038 -0.16269407 2.3259184
17.90583 -4.4537344 0.036370635
-24.497837 -2.3303688 4.9537001
-18.573372 -3.1546292 0.7711218
35.946835 6.7837267 4.9537001
1.7690433 -9.4153204 4.9537001
-0.0012453758 3.2458358 2.4113636
36.623928 -4.629437 0.03852303
25.107029 -0.13999301 0.038692888
7.0084968 6.4144392 1.8747839
0.0069015753 6.1030393 0.17833406
20.020832 3.3432288 4.9537001
37.749699 -2.4735231 2.6459875
34.144966 -3.0946448 2.6659381
8.8855553 -8.1691561 4.9537001
-12.532296 -0.19057961 2.5674291
4.7013321 0.16822188 4.9537001
-9.0676603 -0.25359929 -0.00080326665
1.0615908 -4.3334584 0.02994132
14.383246 -1.5036476 4.9537001
-10.339727 1.9486444 4.9537001
23.370247 6.8895187 0.068922423
8.5164156 -7.2751813 4.9537001
16.325867 6.4504094 0.4489195
29.978914 7.6419001 1.6045731
12.157652 1.0871749 0.02413892
-12.555221 -4.6668463 4.9537001
-16.006126 -5.2145648 2.9404712
27.177637 5.2614927 0.067506559
6.7231536 -1.4876559 -0.014791344
-17.42009 -6.6729198 4.9537001
25.033905 -1.6762623 4.9537001
31.650843 -7.6473703 4.9537001
26.345163 8.4528284 4.9537001
-11.119974 -0.19933788 2.5885463
-0.63843024 -6.2607141 4.9537001
35.862518 -6.8534575 4.9537001
18.212328 -9.7062635 4.9537001
-11.516104 0.99788195 4.9537001
29.440409 -5.3412557 0.038464788
-11.273518 -0.20031583 3.1092434
-5.6702075 -5.6596055 1.6213732
18.437004 -5.6194911 3.9850848
24.296255 -7.8465638 2.254185
0.0024193639 5.2883143 1.1037199
20.347393 2.8598349 0.054225303
-9.946784 -3.8564188 0.022557653
-23.563313 8.3526468 4.9537001
36.11425 7.8266568 4.9537001
-17.999542 -1.5659169 0.0097534936
12.931605 8.4547348 4.9537001
-5.8771358 -2.470711 0.0064217788
25.927774 -7.8465676 2.8467782
-7.0533214 -5.2145648 1.0854958
-20.978447 -0.15317076 3.2882152
21.642958 3.2291567 0.057629135
6.0485582 -5.8687029 2.5319862
-21.903242 -0.15299535 2.7354472
34.855465 0.12937267 0.065208077
1.6260914 -4.051465 0.0275172
-14.671841 -5.1381178 0.029325765
-4.9278407 -3.5544951 4.9537001
18.848766 6.6433439 4.9537001
-15.300879 7.4707551 4.9537001
12.157189 0.27627781 4.9537001
28.332952 -5.0338459 4.9537001
-6.1971788 1.6852217 4.9537001
16.741123 0.8552044 0.031094419
-23.876352 -1.8381524 1.2102423
12.557387 2.7898657 4.9537001
-21.628155 -0.15299535 3.7300079
-5.9857287 -5.4578552 0.030388981
-1.9060756 4.3169565 4.9537001
20.882 -5.6194911 4.2766261
17.271585 6.4489436 1.5759816
27.81736 0.32149437 4.9537001
-3.999474 -3.9930496 0.023412874
14.675323 -4.189188 0.034596223
-15.147918 -6.3780608 4.9537001
-11.880509 -5.9458342 4.9537001
27.742947 -9.1226673 4.9537001
6.8487935 -1.2865824 4.9537001
4.3653607 7.5385108 4.9537001
32.074921 2.3167498 4.9537001
25.828638 4.5151405 0.065402679
-24.532181 -5.2814054 4.9537001
33.335033 -2.931396 4.9537001
-13.640876 -0.17346284 1.3659774
13.867807 1.2458031 4.9537001
10.561618 6.417747 4.0565853
-15.556441 -5.2145648 4.2719326
-0.99536836 -0.0015 2.4689558
34.144955 2.3299439 0.51535279
-13.640409 -1.0669776 2.0305226
31.219513 1.9744478 4.9537001
-14.99013 -0.1684355 4.0742917
31.922665 -4.2786651 4.9537001
-3.8751209 -8.4640245 0.031897482
32.875233 6.9889851 4.9537001
6.4250255 -4.3551888 0.034720615
-18.573372 -3.8940339 0.96455848
11.883089 6.7827978 4.9537001
-1.6457636 -2.2122462 4.9537001
17.955214 6.4463768 3.9378555
-17.5291 2.990346 4.9537001
27.111549 6.7262688 0.068850957
-3.0431056 -7.5876646 0.031986728
17.944382 -4.9059105 0.038374044
-13.571507 -5.6194916 3.4150784
33.310539 2.4031403 4.9537001
34.744644 -0.083104067 0.061626423
-13.657446 -1.0588677 3.1923633
19.367163 -4.9793792 0.038327873
-6.9473906 -0.046962626 4.9537001
3.6680243 4.0091338 4.9537001
-23.653946 -3.327697 4.9537001
34.281715 8.2400942 4.9537001
19.963348 -1.9410124 0.011406276
10.770315 -1.5541854 -0.0092851268
29.410284 -5.9387865 2.0620077
37.765869 -0.83432853 4.7635746
27.655712 -3.5662272 0.033350803
36.073299 -7.8866229 4.9537001
0.43782571 0.84180242 0.0098181264
-5.3174777 -0.075891919 4.9537001
18.072483 -5.4503384 1.5355453
1.5927529 -1.8454264 4.9537001
-11.742812 -0.19434784 2.3429601
-18.573372 -3.1984532 3.0565636
34.004375 6.6899037 0.069184959
1.1156235 -5.6058249 1.3819417
34.144966 -3.9697561 0.6920861
36.589127 2.3732629 4.9537001
3.6328537 4.0912175 4.9537001
-23.475342 -2.3878396 0.27948761
-5.8911262 -2.6198385 0.0085222917
22.294933 -6.9003663 4.9537001
4.3606062 3.215127 0.038505998
-19.565544 -2.3878396 4.0040622
37.108856 7.740737 4.9537001
-4.4832573 0.00045479558 1.104522
-8.2356825 7.0821228 4.9537001
-10.613489 -1.5003654 4.9537001
33.345505 -7.5322647 4.9537001
6.8255191 -5.6195159 3.1134233
-0.19622438 -4.5862975 4.9537001
3.9993179 -5.2119966 4.0156603
19.296234 6.4491763 3.3481407
24.498461 0.43327972 4.9537001
34.144958 1.6847476 2.3668306
0.63066131 3.6693048 0.04160428
6.6440301 6.4168186 1.6895763
3.5024347 6.4087 4.5111303
-9.7822666 -3.5536423 0.020662863
20.461349 0.44793734 4.9537001
27.422333 1.8807901 4.9537001
29.74819 -5.938786 4.7543235
-23.958828 6.8995328 4.9537001
-7.5071797 -0.51715857 -0.0031002783
24.177258 -2.7363172 4.9537001
3.4157684 1.3889021 0.015555354
0.93923646 4.1712046 0.048888963
-18.573372 -2.8821256 4.994894
23.261662 5.880969 4.9537001
-17.180094 -2.2364888 4.9537001
26.865593 7.6418962 2.7976911
20.732805 -3.5375237 0.0300753
-19.589157 -2.5400374 0.025710385
16.072876 1.6904483 0.038483556
13.291628 0.63771969 4.9537001
27.520468 4.1270595 4.9537001
0.54015934 5.569593 4.9537001
-19.489939 6.373003 4.9537001
-21.73349 -0.98081672 0.0032482515
-22.307468 3.837286 4.9537001
33.313118 1.6198214 0.06875924
17.160154 -5.0088072 4.9537001
25.127626 -7.8465657 1.147193
8.6429787 -4.1638055 0.033606265
18.114166 -4.9180484 0.038371079
-2.6082654 6.8015714 4.9537001
-3.5294447 -5.2462001 0.030965889
-14.154325 -6.0819259 4.9537001
28.364027 -7.8465724 4.8945332
7.8222895 1.8008624 4.9537001
35.055382 -3.1276226 3.2171879
-15.870875 -5.2145648 2.4176111
-0.0011342315 4.1552901 2.5942099
34.144932 6.6364069 0.71378392
18.641611 3.2091255 4.9537001
-8.2820463 -2.3320286 4.9537001
5.4263158 -5.647892 0.18980736
20.256605 7.7586331 3.9078617
34.339645 -2.551501 4.5563912
-16.097622 -5.1549325 4.9537001
-18.41642 -5.8686643 3.614738
30.554813 -5.9387865 3.216373
29.185204 1.7710856 4.9537001
-12.752495 -0.18346199 4.8738294
3.2927866 1.4985932 4.9537001
22.206467 -7.4776649 4.9537001
21.11628 -1.3525516 0.0057834322
31.837473 -5.938786 4.5736523
12.141491 5.0165238 4.9537001
26.670198 2.3982832 0.060496315
21.935993 5.5419745 4.9537001
37.871296 -8.5474672 4.9537001
7.4838901 2.4997358 4.9537001
-23.272299 -0.76703364 -1.3590942e-05
13.988074 -1.9449595 0.0021485745
8.6696901 6.4361892 0.70906067
-21.017332 -5.1152992 0.030848311
27.936993 -2.9329259 0.030230151
20.333212 -4.3283219 0.035631496
-7.0847969 -0.92920679 -0.0088013681
20.830639 -5.6194911 3.6576343
-0.017730905 1.8872495 0.7842418
23.884441 4.90869 4.9537001
10.908381 2.0597644 4.9537001
-3.5487719 -7.3158641 0.032024525
-12.770752 -5.2145648 2.4767096
1.2606065 4.4784088 0.052910823
-18.204483 -0.1564588 4.1612206
37.472729 -5.4287663 0.038915895
22.5345 -5.318224 2.1807647
25.379089 -2.7357566 0.026681066
3.8209043 -2.1396074 -0.003475144
-8.9438438 3.3955154 4.9537001
-11.704012 8.1662121 4.9537001
32.667744 6.7900906 0.069084071
40.814301 0.099964201 0.069476806
23.825586 0.907655 0.048724364
7.7418284 6.4087 2.6036758
28.368574 -7.8465729 1.0520244
-2.9722171 -0.0011474396 1.502282
19.389969 -2.3783703 0.016273111
34.144966 -4.7467294 3.8573968
34.240921 -2.4735231 4.9406238
29.340359 -7.4436688 3.2739866
4.1386657 6.5583344 4.9537001
34.259613 6.7744808 0.069211386
36.93301 1.9384114 4.9537001
32.406666 7.6419029 0.65389687
22.534498 -5.3118825 0.68031782
-13.636371 -0.21158293 2.138469
-16.553122 -9.339241 4.9537001
33.685837 -0.94737166 0.037999697
6.2864394 -3.7944829 0.027507285
-8.2008581 -5.2145648 1.2256314
10.144497 0.99949718 4.9537001
36.089996 -2.6449764 0.036365654
32.561562 7.6419034 3.2173884
-18.785198 -0.15429503 1.6595834
1.8204511 3.4120777 0.038834512
14.605985 -5.6194911 3.7318914
-6.010931 -3.7510579 4.9537001
3.2237935 1.7151903 4.9537001
11.462772 4.6251264 0.058381245
34.144966 -3.2169213 3.5313838
27.107548 1.000867 4.9537001
2.7797792 2.0857267 4.9537001
3.672173 -3.2199969 4.9537001
31.770721 -5.9387865 1.1977628
-4.988533 -0.15859075 4.9537001
34.144928 7.3017659 4.9402928
2.6582978 -7.0268784 4.9537001
16.951096 -3.9690797 4.9537001
-8.2501688 -3.2709529 0.017605256
36.904522 -2.4735231 4.3088064
5.0667467 5.5586205 4.9537001
-12.044662 6.6522331 4.9537001
22.713934 -1.2552353 0.0063281273
-1.8099151 -5.5684686 4.8483334
-21.402599 -2.3878396 1.8707867
34.144966 -4.1608462 0.15181398
7.6617765 -5.6195083 4.7913399
10.911015 -4.0546932 4.9537001
28.529789 -2.6339438 0.02906378
-13.096643 -3.243005 4.9537001
8.2266073 -5.208755 4.9537001
32.629997 -1.644411 4.9537001
10.068265 8.2383556 4.9537001
-16.599943 -0.16243732 0.21971448
-10.297544 -0.19212577 1.5223566
21.873442 8.2487745 4.9537001
34.144966 -4.7705836 4.0514007
11.715143 -0.22456205 0.0041326592
22.459923 -1.8618052 0.014468547
-18.004114 3.391391 4.9537001
38.122234 0.83048856 4.9537001
11.629388 2.298882 0.036915056
-11.346862 1.3012965 4.9537001
-15.861663 -5.2145648 3.4008222
22.832941 7.7586331 0.68190372
-13.230635 -5.2738791 4.9537001
6.3148727 5.6432123 0.063652277
-0.97056258 -2.1936371 4.9537001
-1.3527471 2.8118925 4.9537001
18.731903 1.417905 0.041384459
29.396688 7.6418996 1.7114021
24.566074 1.4877752 0.054046463
23.2976 6.6904836 3.0364523
23.457342 -6.8060055 0.039069399
29.340359 -7.4455466 2.2259295
19.866362 -5.6194916 0.63720548
-5.6559129 -6.0166702 1.2371835
9.186306 -0.93837976 -0.013976631
36.471985 2.307616 4.9537001
17.955547 2.9040737 0.051478658
3.3519027 3.9393752 0.047047332
-9.7436533 8.1956358 4.9537001
-13.153584 -5.316638 3.5716434
30.469345 7.6419005 4.2368088
35.019478 0.033945814 1.0859865
-18.573372 -5.2479506 3.2784772
9.2524319 0.73998511 0.014824081
12.853025 6.4371071 2.1878493
10.52376 2.5837581 4.9537001
5.0913935 -1.6815257 -0.012020886
6.9895701 6.4087 2.6919553
9.6947355 -3.5503907 0.025534445
6.4828544 6.4188633 1.5304258
-0.034259837 -6.0273504 4.9537001
38.16116 -4.4744611 0.038825784
-10.233083 -8.6843386 4.9537001
-16.185627 -5.2145648 1.5999933
-16.344107 -0.16339056 3.8998864
-1.928375 0.51440436 4.9537001
-12.037276 -5.2145648 3.1354628
17.068594 4.1407366 4.9537001
20.158722 5.4464631 4.9537001
16.846359 6.0029287 4.9537001
4.6696115 -5.2119966 0.82829946
2.004663 2.770469 0.030058187
-10.538937 -5.8266406 0.030999925
-19.275091 -3.9573069 0.028836094
36.66013 -5.9062581 0.038951524
26.659937 5.7643952 4.9537001
8.847168 1.3777757 0.021993158
8.2812614 6.3959126 4.9537001
-5.1946893 -8.0937347 4.9537001
24.523411 -0.16073208 4.9537001
4.3281498 -5.2119966 3.2939036
20.625507 -3.8331857 0.032429844
23.930931 -7.8465633 0.87378919
-5.8301535 -7.7083211 4.9537001
22.535002 -6.6747169 1.1339672
-4.5740876 4.766026 4.9537001
24.919436 -8.5500221 4.9537001
-7.5660458 2.8468075 4.9537001
-21.110737 -0.1531066 1.0368525
20.126505 8.5272722 4.9537001
-11.254049 -1.63606 4.9537001
2.4799659 -6.7945466 4.9537001
-22.434675 -2.3878396 1.311376
-23.044371 -1.8849326 0.023272587
30.049694 0.071104467 4.9537001
18.24258 -5.6194916 3.1751301
10.258267 -0.56929457 -0.0048570246
19.341888 -6.3333883 4.9537001
10.337611 -5.2145643 3.7873211
23.267015 -2.2604706 0.020004844
2.6547265 -3.9731314 0.027326254
-1.2247072 -4.2653685 4.9537001
-21.182281 -8.3386822 4.9537001
-4.0109606 3.3908408 4.9537001
32.290825 -4.2915115 4.9537001
-7.0956526 -0.076653168 4.2086244
22.534475 -5.2515526 4.1868114
10.516112 4.3553581 0.055761334
16.905561 -4.8985291 4.9537001
-16.644075 -0.16227289 4.679852
-20.74201 -0.6849308 4.9537001
20.003 0.30344209 4.9537001
-6.3469796 -7.8811064 4.9537001
-23.860783 -0.15299535 1.1781753
-1.0643834 -0.00021680724 1.1057711
37.229061 -0.69680202 4.9537001
-21.074444 -0.1531242 3.7478552
31.716055 -7.4432282 4.9537001
-20.569258 -3.5742805 0.029798951
33.899502 -2.7761457 0.03461656
-17.909922 -0.15755633 3.413486
33.683376 -3.6806333 4.9537001
31.649742 7.641902 0.76898903
23.297575 7.5824494 2.2147868
38.363613 -4.1184916 0.038864702
-14.36633 -5.9700813 0.031744439
37.428371 4.0015979 4.9537001
28.313541 2.2029147 4.9537001
-23.876377 -0.87237793 1.6489069
22.474287 -5.2145643 4.4062366
-17.730864 -0.15822349 4.8705344
-20.482315 -2.3878396 1.5297503
11.868176 5.9375067 4.9537001
-16.661497 1.5405657 4.9537001
4.2592998 6.3514771 4.9537001
8.7506676 -5.6194992 0.56512141
31.326853 -3.2750456 4.9537001
5.1471672 -0.14996707 -0.0010289918
-21.393078 6.0788536 4.9537001
-15.596396 -0.16617654 2.9796875
32.612213 2.6000056 4.9537001
2.3780613 -5.2695389 0.036457587
-12.597909 -6.0104289 0.031679075
2.5537322 6.0023475 0.067359366
12.551617 -5.5861306 0.040334299
30.15917 6.9172816 0.068965189
34.144966 -3.5980613 0.80473739
25.894539 -1.9467111 0.020709818
-4.3011231 5.9165802 4.9537001
6.7671657 -1.9786485 -0.0054177199
18.483412 -0.64527088 0.011708302
21.521795 7.7586331 3.4781332
37.719009 -5.2779484 4.9537001
-0.00093413889 2.0112748 2.9233871
-4.8299575 3.7327573 4.9537001
5.3404474 -3.5556996 0.023222417
-15.671089 -0.16589823 2.9523809
-9.5352888 4.3100033 4.9537001
4.7538929 -5.2119966 2.0327973
-23.876347 -2.0523913 4.9763942
-7.9571667 -5.2145648 3.9569111
28.933794 1.147109 4.9537001
-18.288635 -0.15614523 0.7909832
29.001936 6.6526608 4.9537001
24.919218 -4.1359544 4.9537001
-12.579993 6.3396583 4.9537001
35.43404 0.033945851 3.3508737
31.895418 -8.1516981 4.9537001
19.391365 -5.6194911 4.2954388
17.504551 -3.7506268 4.9537001
-1.7135965 -4.860918 0.030915659
33.242821 2.7288272 4.9537001
-1.8175894 0.5004704 4.9537001
-21.150658 -7.8365331 4.9537001
-16.265715 8.4968309 4.9537001
-15.425939 3.9401662 4.9537001
0.27211687 0.49638572 4.9537001
-15.811988 -2.3843768 4.9537001
25.488651 8.5398617 4.9537001
32.975185 -5.9387865 0.47935927
0.0064260531 5.9745612 0.64112091
2.0078969 2.1657572 0.022372872
18.767824 3.5300593 4.9537001
-1.5926754 -0.0015 2.4764595
-4.6708655 -2.2461162 0.001791185
2.22363 -1.9728367 -0.0068224589
34.822281 3.6990592 4.9537001
34.243 -4.8363547 4.9537001
11.546635 6.5595946 0.068725578
18.280813 -5.6194911 4.4509192
31.759653 7.321506 4.9537001
27.504892 -7.846571 3.6112061
30.888264 -1.8955008 4.9537001
15.187689 1.4190756 4.9537001
-12.609831 -8.1722174 4.9537001
21.092413 6.5777884 0.068886608
-1.9710882 -5.7206149 2.4825387
21.945288 4.0229611 0.061477397
-24.06266 -7.711453 4.9537001
-3.7878494 5.3047118 4.9537001
-4.7036805 -1.9228157 -0.0036510779
23.734596 -2.7654896 4.9537001
28.169247 -6.6585951 4.9537001
18.52648 0.048434027 0.024699831
-9.1627207 -9.4189558 4.9537001
34.144966 -5.0998244 4.0723743
17.529509 1.1944448 4.9537001
34.137997 -8.6639185 4.9537001
37.852432 -9.6415358 4.9537001
-20.85545 -0.15323043 2.2847917
15.109682 6.7155428 4.9537001
12.641855 -5.830759 0.039983444
22.14715 -0.52402174 0.023154937
-14.923924 -5.6194916 3.1387851
24.230345 -0.6692977 4.9537001
29.462223 -1.4233629 0.022128517
17.831644 -1.8996753 0.0074135419
-16.973288 -0.16104624 2.1040335
-13.62902 -0.23858732 0.8845225
-5.9036007 -0.040369418 4.5787373
30.638855 2.0077884 0.065235287
-18.541162 -5.6194887 0.47596207
35.070538 0.033945818 1.6152648
30.622192 -5.938786 3.9993753
2.0527513 1.4349773 0.014887339
0.69114316 5.518981 4.9537001
32.844585 -3.8565593 0.036434844
9.5768528 -4.0504856 0.032567732
32.41246 7.8410015 4.9537001
23.743086 6.1116128 4.9537001
32.784336 -5.9387865 0.19381732
-15.303409 0.40482581 4.9537001
35.971539 -0.82706183 0.045883324
-12.805718 4.8514118 4.9537001
20.264835 -5.9966888 4.9537001
16.265888 -5.5328202 4.8185492
-1.2122636 7.8725061 4.9537001
-14.113262 -6.8989482 4.9537001
24.366867 2.9440877 4.9537001
-14.545211 -1.1413265 -0.0068753082
34.144947 3.9919655 3.6109626
28.229979 -7.8465724 4.0270543
4.7178841 6.9872956 4.9537001
8.3752213 -5.0873594 4.9537001
36.582893 -4.4000449 0.038379069
30.977587 4.0574937 0.067017145
11.275508 4.1369958 0.05446694
-2.0770974 -5.7206244 2.5537417
27.164013 4.3341427 4.9537001
-2.403343 -9.1432638 0.031980559
-8.230278 -5.2145648 4.4906268
28.468489 7.6418982 1.8545833
7.036633 6.4087 2.861146
-17.67222 -2.396446 4.9537001
-16.766775 -5.3151989 1.3940659
-1.5739225 8.0355434 4.9537001
-9.7322683 -0.18270379 0.974078
0.89172643 -8.3861046 4.9537001
23.226633 7.7586331 4.1264019
21.010939 4.9996085 4.9537001
10.752909 -0.25507608 0.0018382592
4.752111 -4.8951621 4.9537001
-2.2379911 -7.2290902 0.032491915
23.003891 5.1889396 0.066342719
-1.0950907 -5.2171054 3.5803363
11.228269 6.0228963 4.9537001
0.35369024 1.4902542 4.9537001
18.837143 -5.6194916 3.3345044
26.157034 -8.3550024 4.9537001
12.127993 1.4189569 0.028021406
-11.081491 -0.19426265 4.862535
-14.86397 -5.6194916 1.5478253
-16.996681 1.6577334 4.9537001
25.784464 7.6418948 1.1002765
3.7880101 -0.0059863315 4.9537001
-19.725769 -8.6530781 4.9537001
-6.285059 6.1941199 4.9537001
9.6972971 6.4087 4.219183
-18.038841 -0.15707597 4.1100478
19.669312 1.1001968 4.9537001
-3.0546055 -0.97581297 -0.012533883
3.4046347 -3.7745991 4.9537001
-0.87536746 7.8235288 4.9537001
22.534821 -6.1827469 3.7204509
34.898197 0.033945799 0.18043141
7.609323 -5.6195087 0.041681658
-18.573372 -3.5926702 3.7513049
6.1212029 -5.8687034 1.0449862
3.3086064 -5.5923748 3.69331
-0.73737651 -5.2171054 3.9445322
-15.894892 -0.16506435 3.0738394
23.712679 7.6418924 3.9470737
24.110535 1.6870613 4.9537001
11.414233 -3.7004085 0.028446997
23.308943 1.8385557 4.9537001
-18.971237 -4.5841889 0.029391831
24.696821 -4.466969 4.9537001
2.8636131 6.4099646 2.1468041
-15.650485 -5.2145648 2.8729668
29.0121 -4.1400652 0.035989687
17.717272 8.4037933 4.9537001
9.2258844 6.4087 4.0981817
-23.684769 -5.2677264 4.9537001
34.144928 7.2631536 3.0127544
-11.676577 1.8339223 4.9537001
35.025814 -3.1276228 0.53720975
-11.863269 -1.6523184 0.0015946086
-0.43679753 -0.61749065 -0.0076157809
24.580494 2.8049374 4.9537001
2.6224797 -5.0202017 0.036001116
