# .PCD v0.7 - Point Cloud Data file format
VERSION 0.7
FIELDS x y z
SIZE 4 4 4
TYPE F F F
COUNT 1 1 1
WIDTH 1563
HEIGHT 1
VIEWPOINT 0 0 0 1 0 0 0
POINTS 1563
DATA ascii
2.5394318 0.54638827 0.75738394
4.2039547 2.5008051 0.20015502
1.4286225 2.7992802 2.1960952
3.2785945 1.5512857 0.19024305
2.2009947 0.45397195 2.1088417
6.0822206 3.5139673 1.7797353
4.2168465 0.96550637 0.2060068
1.9602962 1.5250881 0.20949218
3.4380946 3.6838064 1.1958233
2.8278527 0.18122414 0.2178901
0.83742881 1.0202785 0.19957629
4.1332164 0.91990131 1.305131
4.4688187 1.2793292 0.8047393
5.7059817 4.1562591 1.008741
2.0942633 0.14736766 2.0761185
1.1525514 1.5500132 2.2052813
1.8570967 3.3810098 0.88185412
4.6474938 2.3725843 0.19616704
4.7171068 1.7522103 0.87327927
5.117384 1.7440653 2.1400692
6.1759338 3.777499 0.20613198
5.9329605 4.2116523 1.1858491
1.4557489 3.3225815 0.74171287
5.7613869 2.6549299 0.86848998
3.5281117 0.28778505 0.18700936
4.5981598 2.1537731 0.20877747
2.2743213 3.2217042 2.2052159
6.0333176 3.3355398 0.52544475
2.9464293 2.6484134 2.1917078
1.4309936 2.1343839 2.2002237
4.1371441 2.6279972 2.2059586
5.4120378 2.3753593 0.19739658
3.4236889 0.18419208 1.0951376
1.9199764 0.41151983 0.82763267
5.6960421 2.422374 0.46791369
1.6214266 3.0526557 2.2015028
1.3896466 1.2831776 0.18270305
4.3663511 3.8869395 2.0652032
0.4117904 2.6071427 1.6377172
2.7753448 0.20386747 2.2005899
2.5681596 0.17319532 0.32775041
0.96005619 1.029955 0.18691425
4.6417928 3.0245044 2.1901343
0.4591485 1.4251792 0.42505896
5.6623759 2.3763077 1.2882804
0.81419992 1.8417773 2.2134523
2.2668614 1.6929986 2.2052999
4.1594105 0.2146975 2.0956676
2.5631142 2.0132327 0.20743009
1.4224384 1.6384214 2.196826
3.6130786 0.7886644 1.5833008
4.4729438 0.68781972 0.84549713
0.98256397 1.1505122 0.20020308
1.9427555 1.0886815 2.2030694
0.39104962 3.0140085 1.7505867
0.47240147 0.70874369 2.1515417
0.461797 1.4347491 1.4709344
1.4910691 1.4179012 2.2105505
4.2583075 0.93447781 1.8055062
0.39969721 2.7419887 1.9441675
5.2104816 1.7511635 2.1867087
4.490891 2.8335462 2.2167635
4.5002913 1.0520068 1.8183988
5.3362947 1.7432039 0.5791961
5.628757 2.2503059 1.8905854
0.49505648 0.10242814 0.65427989
0.449898 1.9398906 0.64973253
4.5173411 3.0652874 0.19772711
5.5085974 1.8891259 0.36985809
5.7897506 2.6741641 1.3991665
0.4014627 2.701103 0.57367128
0.81084174 0.10697051 0.24226904
0.9143188 3.2025032 1.7326097
2.0241232 0.13177446 0.22213803
3.8690817 3.78988 0.53010619
4.9843163 4.0003929 1.2394403
0.69580626 1.7766306 2.1810727
4.045845 1.1716403 0.19254732
1.1195917 0.24026445 0.69999862
6.083478 4.2381196 0.33311117
3.4083531 0.78366405 0.21415429
3.1656604 3.0776739 0.20849308
2.3409455 0.37967169 2.1719804
4.3019934 3.5305846 0.197394
1.3675575 0.28190839 1.3569707
0.73929024 0.10977987 1.3107272
0.48842773 0.33338848 1.8744999
2.9279952 0.62282848 1.0959169
4.3312645 1.1181836 0.21795735
5.6669421 2.3500118 1.8471779
2.3280582 3.0417128 0.19463557
5.8988543 2.9659879 0.51758397
4.1446934 2.3589175 0.22356245
3.2197871 2.372927 2.2027597
0.50423819 0.23172307 2.0716078
5.1086493 2.2968426 0.19015108
2.8195107 3.5831411 1.8985864
3.0041158 0.64314187 1.1209929
4.843286 1.7483919 0.6818825
4.2453189 0.92426217 1.8679161
6.0908761 4.2361345 1.6392612
3.6534319 2.3740566 2.1951547
5.5878448 4.1209173 1.8216367
2.6306853 0.58131927 2.0603356
1.3615484 0.13830316 2.0368664
4.3244371 0.20686415 1.0622331
5.5716786 2.0752873 0.64963198
2.9900351 0.1674594 2.1283078
2.2148194 0.32319972 2.184916
3.2769904 0.3901861 2.2034571
2.2130446 1.0122468 2.2155561
3.3805037 1.289376 0.19050334
2.6429687 0.58029318 1.2515651
0.41321266 3.0898817 0.93520039
4.828301 3.4719837 2.1961567
3.7921042 0.21170729 0.96709424
6.0007524 3.3047528 1.5026175
0.4945707 0.2460748 1.5229859
0.9315027 2.3671811 2.1996429
2.6682556 1.3690692 0.20612651
0.54921883 1.7876598 2.2056639
4.4709096 1.4487189 0.47394907
3.5832064 0.3188071 0.20803067
1.5390331 2.5153275 2.2113531
0.87042844 0.93944031 2.2001987
2.6474824 1.386093 0.20764796
2.4730315 0.56383497 1.1648813
3.8208573 2.0198383 0.20531398
5.5222168 1.9551982 2.1521389
0.42826572 2.3757989 0.44596463
4.3576441 1.9902704 2.2011225
4.9799953 4.0120277 1.3808258
2.5688019 0.17259255 1.285014
4.1992722 3.0302241 0.20618652
4.3231544 0.21654798 1.96796
3.3772981 3.6971684 1.6354634
0.69825596 0.1485815 0.75516403
0.75979722 3.1864336 0.55240119
4.0294991 0.22342138 0.83052039
0.92030668 3.1127889 2.187125
5.4987569 3.9915781 2.203912
0.41631016 2.8095031 1.4153525
2.3953695 0.16244684 0.42637354
6.1824994 3.7988594 0.93217993
4.1334887 0.22277048 0.78789282
2.8407681 1.4552213 0.18416309
1.073807 2.7643812 2.2069228
4.3377123 1.7263229 2.1993001
3.059902 3.0206196 2.2032585
2.188252 3.4555957 0.94495285
6.2966781 4.0666056 2.1321993
4.4491301 0.22606218 2.168633
2.1194756 0.45319667 1.3886845
5.8019018 2.7326741 0.66364461
0.85183388 3.1634076 2.2038324
0.48555219 3.1001914 1.3065426
3.6394169 0.76319492 1.163167
5.2997131 3.438406 0.20607744
0.52074379 0.46233866 0.18418966
0.46605313 1.3645545 0.23825541
3.246572 2.5880239 0.20380457
4.4913063 0.46664339 1.3301947
0.6459372 3.1338289 2.1524208
4.3327756 3.8843637 1.9250667
1.9428312 2.9112043 2.1943035
2.6445634 3.5408769 0.18982546
5.8867393 4.2054954 2.0065682
5.5824318 4.1180816 1.1526662
0.46027216 1.3402107 0.43824843
2.8191147 2.637769 0.20801063
4.4699774 0.47731203 1.3163176
1.1724017 0.25246003 0.51864594
6.0053005 3.3175139 1.1747755
6.0236807 4.2264657 1.0918931
3.8065162 0.84189761 1.4203711
4.0883389 3.6552415 2.1925383
4.4852867 0.62143415 0.44618651
1.488677 0.13703287 0.31048635
3.8583405 0.2057244 1.12446
0.88018197 1.9921091 0.1980789
4.4775953 1.0616951 1.8054678
3.3968182 1.9163913 2.1948841
0.40273345 2.724905 0.21555425
3.8547268 3.6851132 2.2085249
0.75391787 0.17888954 0.65051007
4.8661389 3.90957 0.21270265
1.0069098 0.21796396 0.88046789
0.41965032 1.830977 0.43487796
0.49628109 0.49838245 0.20302612
5.556881 2.0193012 2.1059246
0.43228525 2.1858299 0.23940429
1.9425186 0.14928755 0.63681316
3.7904062 0.82169229 0.65693688
5.1679349 3.0923665 2.1927423
2.2822363 3.4606524 2.0991948
2.3951623 3.0594683 2.1981549
4.4797411 0.77048564 1.7124968
1.8213476 0.39807305 1.032042
0.43406847 2.377501 1.9057131
1.6388222 0.34534603 1.9893671
6.0331421 3.3279095 0.47201192
1.0592754 0.11895752 1.4264864
2.5150898 2.8702598 2.2021062
1.1068498 0.11025683 1.961745
5.514081 1.8936254 0.31597921
3.5393026 0.73645175 2.2082803
4.5259604 2.2200804 0.20247753
4.3065825 0.20837697 0.95509601
5.0433931 1.7460877 2.1466532
0.42298648 2.2961848 1.4802589
3.2652514 0.71864855 1.578362
4.1983919 0.22456717 2.1969893
2.9425812 2.0022209 2.194896
6.1381345 3.9268475 0.1923936
4.0493388 3.818656 1.0587163
5.7002058 2.4296958 0.82231343
4.4556255 0.22394547 0.59079117
4.3295832 0.94823855 0.57511383
6.1558599 3.6845629 2.0602534
3.3836448 2.0981507 0.18346046
4.5815191 3.8199563 0.20657238
1.1270052 1.9125898 0.19765101
4.4775209 0.62446189 1.2063617
4.3802767 1.5765448 0.20891929
4.7334304 1.7335385 1.5574591
0.85234898 0.11305909 1.2892512
3.0330997 3.6247139 0.66253424
1.0348431 1.8014666 0.19381994
5.5327406 2.3872206 2.2074585
6.1656289 3.9856713 2.1860485
5.8895731 4.1872201 0.96344489
0.8179509 3.1668222 1.129673
5.3533549 2.0353405 2.2010047
0.94095886 0.18979084 2.1959643
1.8836459 0.19378123 0.18238081
1.2760314 0.12223564 1.0983652
3.318969 0.19583988 1.0925231
2.9868681 1.0634832 2.2028439
2.7302999 0.76493347 0.19140869
5.7618613 3.798501 2.1975002
5.9939108 3.2296541 0.90022916
1.2895786 3.2633531 1.6413321
3.1014593 0.17398283 1.6358265
3.3134606 3.6824274 0.5596149
2.2526827 3.3863237 0.21785788
6.2185874 3.8210959 1.9933215
4.4661255 3.9313829 2.0054712
1.7850776 0.38482118 1.962543
2.957232 1.6522384 0.19861589
4.0563655 1.6024864 2.2115028
2.2996829 3.0831361 0.1922971
3.3105364 2.2768426 2.1929748
0.41590536 2.9174159 0.6672405
2.5813661 2.7839313 2.2229829
3.7656603 3.5490677 2.2133064
6.0721583 3.4952946 0.43649811
3.4467716 1.3846396 0.18881258
1.9483796 0.63708937 2.2080791
4.4919043 1.7404865 0.73768371
0.50335318 3.1194892 0.61268634
5.1437612 3.7918656 0.22381262
5.6551795 2.2965996 1.4920007
0.48751241 0.15061057 1.0124809
5.585772 2.193326 0.77777481
6.1596842 3.6946151 0.3729403
0.68729407 0.14308634 1.2775799
3.3681571 0.19896382 0.95000648
5.5226574 4.1274905 0.27833176
1.7113765 0.13661568 1.2204373
3.5411696 3.704318 2.1343188
2.264797 2.5325928 0.20041396
0.76166606 0.84028113 2.1800854
3.4594407 0.1936591 2.1908092
1.3345187 0.28592741 1.6511884
4.4564028 1.6680847 0.79604506
3.4443536 3.7062795 1.6049079
6.2750721 4.0061784 0.20496286
2.682426 2.3525715 0.19332579
0.48910326 0.36188555 2.0038903
3.1355567 2.9316092 2.2010677
0.9858402 0.20439981 0.97746325
2.9355588 0.15673833 1.3329114
2.7944074 1.0729419 0.19827937
2.8594337 3.0625925 2.2012923
4.4645052 1.2070053 0.29244465
2.0639629 1.9339679 0.2003077
2.2586956 0.58560014 0.20315461
3.9175146 0.87375689 1.4366044
2.2890358 0.49570748 1.0504708
5.6616349 2.2906125 0.27083993
4.9552212 2.1212149 2.2010052
2.517704 0.20439535 2.1854601
1.13613 0.23534352 1.3701175
1.6015637 0.36058047 0.38193369
6.0641155 4.2318373 0.80745101
4.0162582 0.57537377 0.1876379
4.2099833 0.92120081 2.0305004
0.79090899 2.9589772 0.21164474
0.71881139 0.1014123 1.5935074
0.49589956 0.31422755 1.2321919
5.8862567 2.9319384 1.6522502
1.8551096 0.39616928 1.7107228
3.2744544 3.4475436 0.20244151
3.7926364 3.767422 1.479816
1.1816206 0.13219753 0.79587525
0.79244828 0.10876545 0.37536305
1.2569088 0.27109098 0.41297919
0.49006611 0.40976405 1.4663019
3.7257035 3.7549973 0.63063109
2.8936982 0.69724065 2.1907783
4.4575262 1.43129 1.4569339
4.9282742 2.7376318 0.20996372
3.7274818 3.752532 1.7106416
3.0962582 1.2186254 2.2055287
6.1705027 4.0644822 2.1907222
4.4328279 3.8984017 1.9363581
6.1293235 4.2332411 1.1511899
1.2908432 0.12738538 1.4321133
2.5996029 0.36774251 2.2004428
4.4660769 1.325228 1.8963406
2.4673369 3.2340333 2.2109632
5.0250301 3.5333312 2.2040017
3.0145972 2.2546365 2.1965723
0.43928626 1.6503345 1.5241233
4.1886063 0.91351449 1.0655572
4.4900331 0.51967436 1.6912262
5.128171 4.0376945 0.44902182
1.4726615 0.12232096 0.79926342
3.1350799 0.85845166 2.207113
2.2690797 0.49918556 2.1182551
2.8955083 0.26318574 0.20064777
4.2826123 3.8528957 0.37352014
1.0105219 1.3595951 2.1943018
6.3462172 4.2370505 0.63910139
4.2396832 2.4432039 0.19979343
1.8597506 0.40970415 0.32749274
1.4144342 0.40782624 0.18855929
1.0817229 0.21215433 0.54461366
4.0113897 2.7915266 2.1976452
4.4827156 0.97643971 2.1654756
4.7020345 3.404639 0.19816786
3.5360987 0.17806108 1.9493232
3.869683 0.85020149 0.39960951
5.0024333 3.1491685 2.1915927
5.2964988 2.2788892 0.19772179
0.50694567 0.83675665 0.21281077
3.4001963 3.7004824 1.5046506
3.3415866 3.6798956 0.5262686
4.9879727 4.018507 1.4329487
1.4019926 0.13697764 2.1206443
5.5673571 4.1120472 0.46014875
2.3576384 3.4869299 1.8043325
3.3359721 3.3459268 2.1970122
3.4560182 1.9544016 0.21746211
3.2316213 3.6587358 0.46008247
2.7052934 1.9311559 2.192328
3.0045991 2.7438211 0.20958176
2.3322892 3.4753923 1.6946956
2.3855834 0.76148289 0.21387325
5.8589263 4.1845779 1.1452769
1.121346 1.5977618 0.18645288
2.4167757 3.5042679 0.83970726
3.9784844 3.8143702 2.1226752
3.9438226 3.8145523 0.58209705
3.2415555 0.18012178 0.46558625
4.8566208 2.4843853 0.19110239
1.9997861 0.43668011 1.1948279
5.3625546 2.4931617 0.21419531
0.80571461 2.0771556 2.2081368
3.4149561 0.72415239 1.7136425
4.0449076 2.6208701 0.19902061
0.69527137 0.51732045 0.20432439
0.49025857 0.4139061 1.4061611
5.9953036 3.2310371 0.21942468
0.81758773 2.5188944 0.19207454
2.0980158 0.4650515 0.83046925
3.3543563 1.2281481 2.2126486
3.9401722 0.19568172 1.9638305
3.0291655 2.0408525 2.1920707
5.5926065 2.1233914 0.96789718
3.6370935 3.7481675 1.954741
4.9194646 1.8094276 0.19891161
4.4999328 0.42114401 0.81843096
4.2448177 0.19436178 0.27585027
3.1719837 3.6478863 0.98007751
4.3710341 0.9473145 2.110491
5.9683423 4.2243519 0.66648191
3.680306 0.78779775 1.9749712
3.9881978 0.20817718 0.69164264
1.2704345 1.9867748 0.2166613
2.3341293 2.0277851 2.2090571
4.46207 1.5654924 0.74420518
3.1475019 1.9164966 0.19703317
4.4046698 3.8935914 0.7493912
3.6083236 0.63480544 0.21042909
5.318274 2.8947492 2.178803
5.2634296 4.0643597 0.49285197
1.8978885 3.3982127 1.8706175
0.70473033 3.1597247 0.37580615
1.7590613 3.363642 1.3239657
2.8772097 0.6145032 1.1211504
2.2342167 1.5743147 2.2094762
5.2962174 4.0659213 0.51055145
5.0634861 4.0082412 1.2609712
0.48165908 0.65017349 0.62306941
0.42575574 2.8680031 0.82340914
2.8851306 1.5777725 0.19313255
4.0577869 2.8064442 0.21221723
2.159142 3.4178777 0.33542559
1.3994255 3.2904644 1.2953836
4.3267803 1.5391213 0.20459151
0.50989884 0.10364372 1.8560569
5.0807281 2.6220121 2.1969225
6.1169758 3.6227891 0.58700573
1.5161074 0.12923256 0.50115007
5.3761954 3.9712501 0.19240209
1.4907892 3.303951 1.4887624
3.8887985 0.84772593 1.2377884
6.2426238 4.0546713 2.2045588
6.0141068 3.3325055 1.8771939
4.7331166 2.6577559 0.18292491
5.0620604 4.0235848 0.7859838
3.45399 0.60860288 2.2068567
4.2427769 2.1672258 0.19893935
0.74322933 1.7412226 2.2019334
0.48961461 0.1110566 1.1993743
3.9508314 0.25487763 0.21203223
0.93750346 2.2903047 2.1935217
0.73726642 3.1734583 1.7230915
0.8159349 1.2247201 2.1902142
4.8630552 2.2136047 0.22054124
3.1148007 3.6485271 0.92265469
4.4738407 0.87494314 0.39486241
4.4819574 0.69405216 1.9508456
3.7483919 1.5246247 2.2047813
3.6851008 0.20403816 0.31623632
1.9435712 0.64429921 0.19026624
1.5391688 1.7202971 0.21201122
3.2492335 0.40191075 2.1963887
4.1858902 0.91096765 0.83092171
1.012604 0.20898536 1.8789777
3.7632461 0.83011329 1.5650532
3.2361519 1.0083433 0.18320116
0.74689299 0.10040004 1.9843974
2.3640623 0.14105959 0.55358297
2.6417651 0.78380334 2.1996205
6.180263 3.7556243 2.125993
5.4851828 1.859975 1.8731937
4.7218604 3.6915343 2.1965857
0.68134719 2.1963582 2.2019861
5.6400223 2.3198175 1.7737415
0.99783015 0.74225819 2.2018244
3.8152342 0.82998371 1.0977715
4.4092512 3.8859313 1.6847185
4.767765 1.731758 1.2358567
4.6049809 3.6476281 2.1749451
4.4602747 0.2393499 1.5628217
3.8378501 0.83168387 1.5307192
3.2957518 0.72537261 1.1900089
3.6047504 3.7275546 2.0969307
3.0444162 2.5049784 2.2152879
3.07182 1.0615836 0.19955993
1.0633782 2.8875339 2.2043836
2.9655275 3.6048813 1.1443808
2.5228758 2.8071468 0.18939863
2.7580326 0.60075355 0.6934073
3.5588086 3.4109607 0.19323274
3.8787236 3.7842779 2.1099358
4.2859936 3.877912 0.8187902
4.4811516 0.87137914 1.4747332
5.8084426 4.1733375 0.52424031
2.9379168 3.5990341 1.1218462
1.0353547 0.13206002 0.23911133
2.1919303 2.3614194 2.2011969
1.7081264 0.36023372 0.99678355
5.3202105 1.8990958 2.19999
3.5117178 0.17999491 1.7244987
1.996034 1.017019 0.19567022
4.7950802 3.9584329 0.7697593
0.93669325 0.12298494 1.0686218
2.3173575 3.4860873 1.0233489
5.188601 2.4831624 0.19787776
0.40603215 2.7681367 1.2001863
2.2882156 3.2568817 2.1859148
4.4532146 1.2381352 2.0936909
1.3684967 0.29057616 1.0006226
3.9524624 0.20830753 0.63132983
4.468555 0.97126234 0.28157535
3.7593603 0.21274675 0.80094939
3.277137 0.52269208 0.19140846
4.4789033 0.43382141 0.96336281
3.2847242 1.1774554 2.2132154
6.0665803 4.2277799 0.95927984
6.1042948 3.5277665 1.700425
4.966114 2.9391985 0.18437909
1.3397374 0.54132694 2.2106719
3.9818976 0.87079817 0.69418812
4.451829 0.91606194 0.65189463
1.9314138 0.14548796 2.134753
3.9857004 1.2659727 0.2133145
5.6555247 2.2913523 0.97771043
0.48346019 1.5464332 1.7474777
1.9768451 3.02721 0.20279086
2.0819774 3.0544434 2.2088807
1.1049876 0.13094392 2.171438
1.5007026 2.1205273 2.1958807
0.44604477 1.6871092 1.9926062
1.6034905 2.8856535 2.2020192
0.61216736 0.72284657 2.1999519
4.500999 0.56498897 1.5216361
1.9271332 2.7691319 0.18177173
3.4119961 0.74498445 2.0096669
4.4051743 0.22678772 1.8287545
0.92637563 0.10840266 1.5284644
4.3450642 0.79028147 0.2063363
4.5088835 1.7174231 1.0906106
2.5927982 0.56640273 1.2638214
6.0686722 3.7275884 0.20363151
1.8068311 3.0995655 0.20433088
1.2488947 3.2712243 0.68770915
2.1037712 0.44676131 0.67050362
4.0016594 3.6230264 2.1959658
4.091382 0.88419968 1.9011271
0.81461936 1.1865369 2.201236
6.3702812 4.2458262 1.2874994
4.9614596 2.1565804 2.1888263
1.2160676 0.63489169 0.20072542
6.3413868 4.2449598 1.0766149
2.0778885 3.4144275 1.577036
1.351326 0.12714843 0.59436047
5.7996111 2.776387 1.2747924
6.3303037 4.2817645 0.9090274
4.4655495 1.1419187 1.1898184
0.4716495 1.3504409 0.97440106
2.6379626 0.18952423 0.69838339
1.6216265 0.34113753 0.8147096
5.8409076 2.7977166 2.1851122
5.1216106 4.0499663 0.29402712
5.1326027 3.4667416 2.2043164
4.0157757 3.8278165 0.5525192
3.2596312 3.6638229 1.2561973
5.3328848 1.7438102 1.8716649
0.94773471 0.19349763 0.89522821
3.6929994 3.5080047 2.2036977
0.45671266 3.1305957 0.33829224
1.5023016 0.13783735 0.94973564
1.9772056 3.4033594 0.29468417
6.3456039 4.2705579 2.1148658
4.4828644 0.97623336 1.3607241
5.8238554 2.725775 1.9448973
1.3137307 2.7676363 2.1889591
3.3231165 3.6796658 2.0433786
2.136188 2.8534248 2.2028451
5.877965 2.9362469 0.21305929
1.3551396 0.28384432 1.8981453
0.45943046 1.3615783 1.2118567
3.0783629 2.6885583 0.19400486
4.4932003 0.65370083 2.1028302
3.4978213 2.6293206 0.21356787
1.5097157 2.9056878 2.2033165
0.73628008 0.38013336 0.18856369
2.5436289 0.81831837 2.2100086
1.01511 1.2815071 0.20073256
3.9428279 2.2378588 2.2017598
1.4225438 2.1797385 2.2032368
5.4066072 1.7340901 1.9562559
1.5555139 1.9802407 0.22003464
4.996305 2.908819 2.2023311
4.0425663 3.8357701 0.5052352
4.4897127 0.31867281 0.44994909
3.2342699 0.46829107 2.1958466
2.9798756 2.516295 2.1824968
3.1668043 3.6334288 0.90718913
4.4663906 3.9134095 1.2889266
1.1905966 0.26747265 0.4668172
2.1972213 0.48206931 0.55170244
0.48248523 0.81603765 2.0456326
4.4560013 1.1928397 1.7011203
1.7292612 2.9532022 2.2015288
2.8810875 0.25297031 2.18818
2.9323659 0.97813678 2.1983359
0.47671726 0.4267275 1.9445829
3.1452234 0.19837037 1.1722842
0.8047086 1.97598 0.20714264
1.8412616 0.37079951 0.36609724
4.4025068 1.3561159 2.1903222
4.4617667 1.4627807 0.70462966
1.9325231 2.6200364 2.1940053
2.0815477 0.14546736 0.62249935
1.3665775 2.4156632 2.2084241
0.74209243 3.1757786 1.3702577
0.52810961 0.091148928 1.7929145
5.7897863 4.1638756 0.32084578
4.3776312 3.8969159 1.4641303
4.004344 3.8272502 1.1465142
3.3890812 0.71394193 0.48229092
0.45563775 1.4567336 0.44868731
3.4363568 1.8385935 0.19919197
1.8231601 0.3799895 0.49097866
1.851756 3.3906608 0.74337727
3.4641607 0.76728141 2.2096055
2.5521748 0.52373147 0.95938146
5.2084866 4.0530071 0.46328741
2.0015559 2.4775727 0.19409214
4.4686832 1.0584537 1.1141036
0.89318347 0.10597024 0.46851689
3.8551302 0.19274405 1.655736
3.3439331 0.71520865 1.0952951
0.69453156 3.1467001 0.53595483
0.46373153 1.2612923 0.89722818
0.44586456 2.2142839 2.0148761
4.9942565 4.0126505 1.6073886
5.0804486 3.1566801 0.19253908
1.7135506 3.3494375 2.1860938
4.2150254 3.8618331 2.1834021
0.46663576 1.6862584 1.5103878
1.5168064 1.7802438 0.20277196
2.493659 2.1529493 0.2101274
1.8020982 3.3827503 1.2904575
1.6352011 3.350832 1.5701169
2.549119 2.808428 0.20550418
1.8327867 2.1126876 0.20786564
5.0663295 1.7413441 1.7731305
6.1802669 3.7790616 2.1067309
4.1375933 3.316824 2.1996312
6.1829486 4.2404728 0.42191005
1.0506873 0.14421493 1.0064733
1.4411986 0.40728894 0.20112973
4.1853504 0.21917346 1.0562667
0.73938239 0.10733239 1.0024723
5.2619958 2.4867115 0.2025556
5.884048 2.9391022 1.8694168
5.6979842 2.3924427 0.40292019
2.8555849 0.35222983 2.2109241
0.43518361 2.2695434 0.85654193
4.5945935 3.8128521 0.20598985
0.59289509 0.35267982 0.20052141
0.44582534 1.8300741 0.93653673
0.45672947 2.9001999 0.21371783
1.425267 3.3164036 1.2053713
2.7816498 2.6317496 2.201308
4.4625368 3.8993356 1.4258054
1.3285081 2.0952232 0.20168301
5.5437326 2.0266404 2.0584354
3.2463892 2.653039 0.21005748
2.2008026 1.0259076 0.21002874
5.2122788 1.7358836 0.47505736
4.2320156 1.7784622 0.2046369
2.9953983 0.22669795 0.21424383
3.6197937 0.48771244 0.19234307
0.89723051 0.76558238 2.2035511
4.0935326 3.3566957 0.20041233
4.3957853 0.23286763 1.1385596
4.0337591 0.21081752 0.34936553
4.156251 0.96430463 0.19535506
6.1391697 3.6493497 1.4822148
5.8382282 2.7963269 0.42592955
2.9489803 0.17348239 1.3315756
0.82167321 0.12169166 0.56148642
2.5033181 0.9746244 0.19664373
5.8153176 2.7806833 0.24217477
3.8880944 2.9093599 0.21138345
2.2317476 2.1300492 0.20118482
5.6545162 2.308826 2.1166618
3.9390075 0.21803689 1.7988842
2.0015736 3.3992839 0.29964855
3.238215 2.2678976 0.19916357
2.9531019 0.26467663 2.214438
2.0269494 0.43597654 2.0643137
4.345912 0.94673836 0.48431998
0.49513814 0.41006997 2.2030084
3.875128 1.4835529 2.1967969
5.4273677 1.7514757 1.8294611
3.240283 0.67689848 2.0291924
3.5913572 3.733597 1.9777752
4.2971096 3.8922505 0.90965146
0.47049862 1.0522294 1.2684346
1.1265048 2.1855857 0.20770197
1.7636157 1.406707 2.2010138
4.4680605 1.7148226 0.7735942
2.3204777 2.9353449 2.2012508
1.2942466 3.273047 1.8967642
4.7694697 2.1261203 2.165185
3.9486437 3.7928808 1.5884446
4.0381074 2.0272632 2.1917229
2.8885589 2.3961871 0.19842513
0.476134 0.39734307 0.71994495
1.0107179 2.5201111 2.2093096
4.9824424 1.7441083 1.7153854
2.2371693 1.3712603 0.21270391
2.1242626 1.006391 0.21395257
3.9585834 0.21320331 1.7008766
1.0244894 3.1185198 0.20047826
5.6624837 4.1321192 0.70507419
2.5027533 0.15726525 0.78944141
6.1348081 4.2302985 0.60848957
4.5048251 2.9757752 0.2125161
4.5495367 2.4321003 0.20391354
4.4808235 1.1833595 1.0326208
3.3055348 3.3419437 2.2090726
3.4437308 2.050612 2.1840332
2.5741954 1.9736446 2.2084517
1.1831322 0.12194693 1.5734829
4.4636941 1.8689765 2.2140493
1.8044753 0.38861477 1.1704882
0.6343897 0.12011719 0.40220284
3.5235748 3.5023267 0.19988765
4.4912634 0.48987308 1.5521971
3.2802498 0.72732425 1.3625569
2.2856541 3.4623404 0.59325463
1.3437371 0.1230065 0.34755826
3.7835591 2.9940464 0.18705431
4.3199711 1.6954474 2.1886499
2.490082 0.17178573 0.36720455
2.9086125 1.8614204 0.19565475
2.0193031 0.6416648 0.17716892
4.5263348 3.4462409 0.2030897
4.6635761 2.1775541 2.1954002
3.1027591 2.8615394 0.20169051
4.9079275 4.011086 1.0804945
4.9769464 2.0118189 2.1962068
5.98312 3.8562181 2.2097476
3.8711746 3.2234764 2.2101877
5.454967 1.8289675 2.2135904
0.48082817 0.70776266 0.56010312
0.50803125 0.35701519 0.70380217
4.4765191 1.6417806 2.1686621
3.0956612 2.6089754 0.20654079
4.093925 0.20652393 1.7760955
1.351603 3.2842865 0.79602259
5.9786248 3.7490733 2.2060761
0.40172899 3.0791342 0.76803571
3.6310835 0.79435515 0.94146562
2.2542648 3.4692276 1.8214618
3.0206525 2.9026184 2.2037904
2.2435665 2.6583173 0.20817369
3.3251224 3.6701965 2.0251999
4.4637327 0.92767364 1.5044342
2.7266767 0.1622771 1.7071863
1.8954825 2.1561382 2.1991723
5.7221036 3.7475433 2.191479
0.47418696 0.7579416 0.54437786
0.49132168 1.0313811 0.624035
2.6087334 3.5461457 1.4949931
1.7279195 3.3080981 0.19569308
0.54939306 3.1317561 0.5865733
5.1747942 2.614146 0.20161127
3.2519364 3.6755257 1.9341486
5.972105 4.2316613 1.5810518
3.8234773 2.9339767 0.19260621
2.8646967 3.5832369 2.1338868
3.2684536 1.0390557 0.18817917
1.9658571 0.14293572 0.99509138
3.9139686 0.86540568 1.6527503
1.65255 0.37855929 0.9941783
1.5835319 3.335222 2.2118084
1.0282756 0.22939229 2.1579301
1.9005022 3.4040174 1.1173061
1.3270574 0.14502802 2.1335437
3.6169949 0.1986177 0.61763752
1.3275961 3.2187047 2.1952574
1.300687 1.5455601 2.19175
1.967 2.4217038 2.2031462
1.6639409 0.10447093 1.8594735
5.4121218 3.1593809 2.1989071
2.5678322 0.55440855 0.93581277
5.7266431 4.1478848 0.82051814
4.9471917 2.1019776 0.2011078
5.1928577 1.8990186 0.1885701
5.3288512 1.8869394 0.20889193
4.8501244 1.7399205 0.77824777
5.4937749 1.8652413 2.108144
2.5029042 3.515475 2.133415
4.4609752 1.4352117 2.1399477
4.0921392 0.2137913 0.95052809
3.7975922 2.7792499 2.2073326
3.5809455 3.4957445 0.19086167
0.45002645 1.1077074 1.2574354
4.2775831 2.2979939 2.1973927
1.8772576 3.3835411 2.2129314
2.859699 0.16937873 0.74701911
4.4067211 3.8872645 2.2015164
4.505188 0.46487865 0.26439181
2.1052566 0.51498288 0.19154958
0.48846075 0.27414167 0.32401639
4.5499501 1.7213131 1.708975
0.73871911 3.1860232 0.77021927
0.45807233 1.241816 0.58438361
3.4164701 3.6865113 1.7262909
1.7338079 3.3629258 0.81159729
5.4728055 2.3103569 2.1981986
0.44231474 1.911401 1.8676069
4.1275287 1.2798519 0.17971958
3.6422503 0.19635257 0.50854725
3.2415581 0.1972653 1.7264882
2.6791701 1.0037966 2.1908727
6.1631441 3.7461352 0.20229362
5.8981433 4.2036943 1.5762517
0.46853209 1.1691717 1.6458625
6.1668019 3.7250128 0.92504501
3.5254183 0.18651091 0.18944725
2.5772963 2.1046 0.19017728
1.4694711 1.3809596 2.2074878
2.8175073 0.60998499 0.67050534
0.80454159 0.74521846 2.2053993
6.2711015 4.2676764 0.43693602
2.4865561 0.55770022 0.54956722
3.1121957 0.18113196 0.48233443
3.0285475 1.2985228 2.2070954
1.4847071 3.3320489 0.70393753
5.9004931 2.9886241 1.9922301
0.76436234 1.063049 0.18793136
0.49616486 0.39255917 0.86398691
2.965389 3.0533211 0.18708208
3.1901166 0.68989325 1.6988798
4.0896606 2.6576471 0.20819154
0.58009672 0.15844315 0.18827625
2.5422459 1.5274788 0.1978002
5.2597342 1.744061 2.1944361
6.182415 3.78056 1.9971503
5.7605572 4.1777868 1.1101344
1.5573468 0.15715063 1.8436238
4.4738474 0.70648044 1.5247283
4.5009456 0.4558976 1.8573495
0.43267459 2.1574075 0.94426656
2.4367661 1.5859072 0.19690965
1.5460033 2.6776876 2.1893282
4.468576 1.455247 0.77680802
5.7017751 2.4334981 2.1341579
5.4560332 1.7455372 1.2973447
5.0637822 1.7455773 1.4181062
4.4523697 1.7213606 2.1415601
2.1231942 2.3163502 2.2076592
0.41006219 3.072603 0.72370708
2.392086 0.13636082 2.1377254
6.2249842 3.8716996 1.6532916
5.6089635 2.2595327 2.197269
1.5866401 0.35990801 2.2003832
4.2425623 2.0492051 0.19413076
6.1760988 3.7670865 1.2727556
3.7166972 0.36864644 2.1958878
2.0329981 3.1559467 2.2005191
1.6363345 0.11063154 0.37362158
3.0939472 3.1733966 2.1916795
2.7132604 3.5442514 1.8133656
2.0276594 1.6473558 2.2119231
2.2831349 1.9662466 0.19130225
4.1981001 1.733887 0.20079069
3.816246 1.5492239 2.204679
3.5817149 3.7358475 1.5645281
0.48434013 0.32113561 1.5732834
1.8142971 3.3777046 0.20270698
0.60934138 3.1476567 0.2652505
2.5255377 0.16753322 0.5659107
2.2566833 0.48883188 1.9206842
6.1795588 3.8099365 1.4927589
4.4844947 1.0399849 1.3528285
1.495661 0.13617687 1.8924648
5.6506629 2.2747004 2.1010983
2.6536272 0.91946 0.20546326
5.9526906 4.1833448 1.6387125
6.3286448 4.2828889 0.4265762
4.4936457 0.60934424 0.55181432
4.7938981 3.6965284 2.1809845
4.1185241 2.9434309 2.1856441
5.8008018 2.7438803 0.69547546
0.7019825 0.12425661 2.0598807
3.738764 2.2894847 0.1947699
2.4822559 0.54943031 0.62942886
5.2443261 1.8665684 0.20630595
3.2281747 0.18145978 1.89843
3.3620615 0.7198568 1.7885839
3.0950356 3.0188994 2.2007074
4.6866064 3.9490976 2.0532577
2.6099041 0.27178699 2.2049463
3.4118609 0.19252232 1.2883559
0.48300388 0.36656448 0.83994943
5.8108568 2.7031803 1.5962889
1.0651907 0.12148116 1.392719
0.99836445 1.0538576 0.19863385
0.44871658 2.0709581 1.2099944
4.8394499 3.9895079 2.2056849
0.48581073 0.66588819 0.56244427
0.81249702 3.1923227 2.1498888
1.2382332 1.0951267 2.1848471
0.4305039 2.5604055 0.27767268
0.58936602 3.1245716 0.64784777
1.7865301 0.13711977 0.92375237
2.8058159 0.17205527 1.5170288
5.5944605 2.1353033 1.6438442
4.4810162 1.1295918 0.36008137
4.2937784 3.8577607 0.59052408
3.3353219 2.9034762 2.194294
4.7215977 1.8499874 2.1953518
1.326483 3.1078639 2.2161624
1.108479 0.11020787 1.1604453
1.8384758 0.40869486 0.40787786
5.7644 2.6405008 0.31882527
2.1778536 2.7188323 0.18758363
4.4688993 0.84386349 1.8600676
0.4722549 1.7458714 1.9400002
4.4455032 0.87699383 2.1979187
1.559672 1.4409206 2.2038627
2.88853 1.2800115 2.2004194
3.8369818 0.80583543 0.19300696
6.2418203 4.2531247 0.50645399
1.0076478 0.21077204 1.3365443
3.4634616 2.5116417 2.189409
5.4706292 3.8067002 0.18966742
3.2174947 0.18101087 1.1038121
2.4963207 1.6335413 0.19356699
2.1971395 2.5214632 0.2125611
0.9417901 1.8294551 0.21741289
0.43598065 2.028738 1.808036
4.4816933 0.73241735 1.3062499
2.6151109 0.15903658 1.166651
3.6070826 0.18782997 1.7140757
5.1496115 2.3318989 2.2074373
1.0171833 3.2104995 1.0288279
6.1945806 4.2483935 2.1641238
6.2347822 3.9171162 0.88234347
3.3187847 0.19136021 1.9536767
1.2831732 0.27194235 1.4648119
5.0515232 2.9716766 0.17563158
0.43453223 2.2417138 0.24019502
1.9968268 1.7631229 0.18439201
5.0510712 3.6218107 0.2001715
3.436137 2.3954606 2.1981485
2.4364913 2.201004 2.1817188
5.6713367 2.3671637 0.27488327
3.375725 0.19143647 1.221341
2.1152301 0.27984744 2.2195036
4.2148972 0.93484926 1.2955773
2.865952 0.63609296 2.0301785
2.9232051 0.16743143 0.84312636
5.651134 2.2841971 1.6604534
2.6100056 0.56575722 0.64321959
5.9442706 3.6038058 0.21145624
4.9430442 3.9959209 0.63628882
3.2878742 3.1083584 0.20263627
0.45916754 0.96121919 0.73958576
4.4982843 0.6358301 1.1725156
0.45864478 1.5622807 1.7935213
4.6907139 1.7152191 1.979553
1.5394242 2.9464085 2.1995747
3.8816352 1.1509484 0.21073167
4.4766273 1.0390598 1.40977
2.5160482 3.5147784 1.2776864
1.6124197 0.34298164 0.39905053
3.9060864 0.58807778 2.1942122
2.526742 1.0191169 2.2071686
6.0558896 3.4411764 0.40811414
2.7016187 0.81324351 0.1979118
3.9382026 0.20604587 2.0443974
0.49727848 0.16423646 1.5076785
2.9168322 0.83393192 0.20153587
3.7587354 1.7193269 2.2052155
3.9901319 3.8157859 1.5527277
6.1328897 3.6427495 0.95714378
0.96885419 1.8490585 2.2021735
3.2341287 3.4470634 2.1941125
2.378346 3.503608 1.2879494
1.3639898 0.28904411 0.39129096
6.2579441 3.9744036 0.81108189
0.42130914 2.5746017 1.3263152
3.7831769 3.8005989 1.2975148
5.6838827 2.4011412 0.8766973
0.43359315 2.2574828 1.1957139
1.5505006 2.0383773 2.207093
2.5307424 3.2438719 0.21652135
0.42840818 2.1308293 1.4500144
5.2992258 2.996347 2.1994214
0.50351918 0.29186609 1.3947475
0.43004104 2.1795411 1.1641442
2.4109068 2.8077338 0.19013128
0.9625653 0.11393438 1.0081027
1.1255393 1.3192904 0.21358865
3.30598 0.90256184 2.1987002
1.0708416 1.1996497 0.21376273
5.9836259 3.1938851 1.3210911
4.1445675 3.3946583 0.19665405
1.8142926 0.35436407 0.19616
2.7883477 0.17299321 0.29515794
5.4767556 1.8237113 1.0320804
0.92710662 3.1994951 1.0842677
0.46884775 0.9448598 0.61466271
3.5954397 0.18352321 0.41436321
2.7507391 3.5551627 1.173097
3.4068851 3.1106641 0.19895329
4.4723368 0.83784038 0.9913395
4.2424073 2.9207215 0.18731146
2.8144102 0.73704296 0.19619267
3.8633921 3.7788072 2.1049941
0.90506417 0.2049149 1.4110554
3.2250364 0.69368684 0.69894105
4.505877 0.2451261 1.5632628
0.90573668 3.2029369 1.7081842
3.8007207 0.8812719 0.19559413
4.1793261 3.4214292 2.1827614
3.8868725 3.7845204 0.56845164
4.492836 1.5005455 1.2991616
0.72070414 2.2567537 0.19980454
3.9000525 2.4032149 0.20681542
2.2133403 3.2741518 2.1881647
5.8782525 2.9442513 0.44744718
6.0753641 3.4929821 1.5849597
2.9268575 1.8203481 0.20264697
2.7776434 2.4957778 0.20738621
6.3123946 4.0949516 1.7546741
2.9525971 0.16332921 2.1137066
2.736397 0.6003527 2.1810365
1.8439982 2.6192601 0.21018898
5.2998991 2.116533 2.1990087
4.2735085 0.2254706 0.2772066
5.2432451 3.6585939 2.207377
4.3179226 2.4255576 2.2178648
5.3137426 2.2771137 0.21269079
1.9705729 2.744554 0.1911848
1.1417111 3.2485127 1.7937999
3.3792987 3.706742 1.314134
3.9864964 1.950358 2.1863165
0.78272736 0.26574484 2.1894846
1.0720179 0.68436426 2.1991646
4.849967 1.7463144 1.6816553
1.7139032 2.7966363 0.20776869
3.3087149 0.70982802 0.98994225
4.7320971 3.9628053 1.5421349
1.3777047 0.29872432 0.83574194
5.7877865 2.688746 0.22824177
3.7800889 0.82843441 0.89256227
0.44298646 1.8957611 0.82278216
5.0171614 4.0174804 2.0809915
0.59302258 3.1310682 2.1102092
5.58108 2.100904 1.4824263
3.6256094 0.77361333 1.5527314
4.4779606 0.89143038 1.8639785
4.4360523 2.122499 2.2167418
5.1500549 3.3418288 2.1904016
0.50687915 0.095440723 1.8273604
0.42205906 2.5611856 1.4794403
4.6035624 1.7323856 1.7774429
3.6097176 1.4452286 2.2154059
6.16084 3.682606 0.21012126
4.7730074 3.9791644 1.8970661
1.2215325 0.14341338 1.733757
0.4541209 1.7319123 2.0371842
0.75156569 1.2625587 0.20670094
2.8402767 0.18810639 1.5941085
1.5486898 0.43267527 2.2171512
0.41017655 2.9733982 1.1186823
3.8252847 2.0848918 0.20016362
3.0830526 2.4489853 2.198278
5.4661088 1.7812986 1.54412
4.9076867 4.0095229 0.65005845
3.1693056 2.4597807 0.19927795
4.733489 1.7416219 1.1650678
4.0369272 1.5724876 0.20263843
0.82334435 0.11621729 0.85715371
2.8647428 0.17653298 1.1242945
5.0943375 1.7449446 0.89758587
2.3978789 1.4879078 0.19286051
3.7016094 1.1419654 0.20218803
0.70791125 0.099396549 0.7410866
2.0202639 1.8635403 0.18767467
3.1739042 0.17508934 1.0871229
2.3193216 3.4724567 0.86370689
4.3695879 1.5766143 0.20592342
3.0888724 1.5904562 0.19810088
4.4176254 0.94422561 0.91748166
4.63448 1.7076747 1.8317016
6.1998782 4.250484 1.918713
0.81230223 1.6485895 0.20296682
1.3636496 2.4932384 0.20624223
5.5408382 3.0357566 2.2163055
1.4913862 0.37392807 0.18528742
0.69609869 0.12048656 1.2076674
6.1285424 3.664094 1.2170131
1.8390175 2.4363813 0.20700143
4.6916227 2.1471059 0.20266411
5.5474257 2.0312788 1.935703
5.1869874 1.7616839 1.9964528
5.5492969 4.1216455 2.1756544
5.3271546 2.5026803 0.21420269
4.8112302 2.1981409 2.1828139
4.1951952 3.8538768 0.18912342
0.75586438 0.15352556 0.78806967
5.9837184 3.2395067 0.7687456
4.1667986 3.8582394 2.1159778
3.3687303 0.37946394 2.1929073
2.2178693 0.15355836 0.93599147
1.9275737 3.3904455 0.64052677
3.7872839 1.5948313 0.19862935
0.43485492 1.8675941 1.3458362
5.093502 4.0456262 1.9202516
1.3299778 2.1798477 2.2030585
5.6645775 2.3243546 1.7208861
1.8388418 3.3815203 1.8443564
4.7046723 3.9336309 0.71524441
4.3005252 0.96977472 2.2036719
3.0916803 3.6496518 0.61207241
5.0400023 3.081573 0.19174226
3.4048116 2.8735888 0.19510557
3.342803 0.72847533 0.85432094
5.6238523 3.618458 2.1927664
1.3174231 0.13494597 1.3477969
6.3116393 4.2627816 0.5227074
2.9678891 0.61307013 2.2129686
2.575352 3.5226157 0.23899749
5.9695473 3.1589379 1.7967366
1.6991584 3.357743 0.74696106
3.252394 1.1488259 2.1989214
1.1932756 2.7913747 2.2071297
0.41776299 2.8584971 0.19945504
4.4217415 0.47231594 0.19874667
4.147049 0.90366012 1.1314447
3.2623837 3.6596601 0.21033871
4.5161033 2.8823578 2.2265716
4.0789309 2.6197422 0.2079602
0.41856754 2.8684847 0.64033109
4.3760543 2.2404339 2.2032323
5.1507616 3.727993 0.20307589
5.9611812 3.1650238 0.20072378
4.269412 3.6823857 2.1955156
1.9542797 2.6062148 2.190079
0.93922979 3.21297 1.2342663
3.4646046 3.669204 0.17579292
4.0648527 2.0942867 2.2015476
1.803418 0.15872404 0.46284503
0.53331369 1.5437565 0.20554522
3.619467 0.20641461 1.3480049
2.8294003 2.3544362 0.19286598
2.0794179 3.4414613 1.7767973
2.3978341 1.1801277 0.20655139
5.376761 3.0578043 2.1864684
0.46310696 1.0597513 1.0896256
5.7551346 2.5813096 0.47383195
0.8466059 2.5512533 0.19673336
2.5199583 0.16837464 1.6410649
0.42495248 2.6354747 0.59619731
1.758415 0.36947125 1.765708
2.1737821 2.2974751 0.20239225
4.6129036 1.7416655 0.76865155
4.264513 0.9415971 0.58046615
2.6579916 2.2816825 2.1877108
1.8324369 1.3234981 2.2019191
3.1199653 3.1813681 0.18901967
2.610646 0.56829309 1.1298925
6.3130751 4.1251559 0.99861956
5.0743399 3.1757903 2.205965
1.9756823 0.53065264 0.18368843
5.5822287 2.1002305 0.50830448
4.344605 1.7605686 0.20953073
5.4545431 1.9659556 0.19466996
0.416024 2.6034667 0.5101561
4.3167505 0.7889033 0.18976046
6.0918527 4.2222371 0.39880443
1.5741113 0.33977818 0.41573107
5.3137593 3.4379125 0.19616534
6.2523184 4.2702446 1.0920712
1.459875 1.3126274 0.22326535
2.8025932 2.0374362 2.1948655
2.0645454 0.15656154 1.8162673
5.2476659 3.1986225 0.19215785
0.94932187 1.4589937 2.1961007
1.8686051 0.80943006 2.1826775
1.1887927 0.37236726 0.19945113
0.41924363 2.3256042 1.5792459
3.9212387 0.1892159 1.6302053
5.5293789 1.9805559 1.0756011
4.3096218 0.92577988 1.4131809
5.624507 2.2268879 1.2498814
3.2373359 2.0172985 2.1885951
1.6576347 2.6085563 0.20665371
5.928091 3.0998816 0.75830394
3.3751216 3.2887547 0.20406808
1.0169125 2.4001946 0.19957307
5.1860466 4.0471706 0.9164511
1.7311275 1.0720307 0.19890268
2.7248371 3.5694165 0.44925421
4.8142037 3.9766374 0.24983919
3.9100688 1.9682864 0.20325559
4.3392196 0.78548211 2.2158782
2.4427664 0.5225603 1.9765092
2.7232118 0.597054 1.9084581
3.759198 0.82609117 1.62517
4.8306422 3.0296452 2.1889255
0.97209644 2.2713051 2.1920922
1.5651125 1.8341138 2.2046776
0.44174436 2.3113201 1.7530396
4.5053964 0.85470164 1.3329655
3.480758 0.1929765 1.488114
0.48624974 0.24843141 1.519473
0.43387166 2.2979188 0.70971096
2.9203093 0.63710803 1.4034226
4.4742727 1.3320171 1.4961025
4.4093351 3.8885686 1.4532446
4.329421 2.7696674 0.21346878
2.0159984 0.43368301 1.0566533
4.9458923 3.9019227 2.21331
5.9570575 3.0950432 1.7992512
0.43949264 1.8806458 0.64070946
2.0709622 3.428237 1.4206926
4.0159912 0.21510124 2.0733361
4.6451879 1.7201291 0.58958393
4.9199858 1.7605605 1.7358946
4.4431496 3.894331 2.0312524
4.0997477 2.4622881 2.1944783
3.144712 1.9344505 0.20599234
0.47513551 1.46228 1.5809752
0.80111051 1.8965765 2.2017474
2.6697073 0.58284897 0.32836267
2.5797737 2.2373841 2.2085047
1.5478954 2.4585934 2.1740787
1.0857844 3.2333229 1.5910523
2.7175066 3.5455756 0.28866723
4.3142033 0.20286787 0.43806839
5.1138334 4.0441008 1.2632754
5.5474162 4.1196828 0.6294558
1.3078806 2.80404 0.19872987
0.47912472 2.9014449 0.20807119
6.0512414 4.2204499 0.29102233
0.93143725 3.2064419 1.4897784
3.1300235 1.0397339 0.20438032
6.0891876 4.2388487 1.4247167
3.5110967 0.75819623 1.9436915
0.5864678 3.1313839 0.981556
3.5652139 3.7235479 2.0319984
3.1978877 3.2732518 0.20598443
3.064008 1.1900456 0.20959902
0.46513596 1.1390686 1.7609912
5.0836425 4.0399995 0.81762922
0.87688029 1.4522167 0.18356131
1.7351897 3.3651197 1.732564
4.0599995 0.21746431 1.9690329
2.7251842 0.16692553 1.0324934
3.1631479 0.68705344 1.9767721
5.2414641 2.0063381 2.1925631
2.4252131 0.84622717 2.2177222
0.56520796 2.0037484 0.19827463
4.4672203 1.1435536 0.25044757
2.3508756 0.14441933 0.23268479
5.5368547 3.5939496 0.18932314
3.5694194 2.0689113 0.19582185
5.3910456 4.0825243 1.1588759
3.1809735 0.18537909 0.77557176
1.3436768 3.2888386 1.9377022
4.9282541 1.7365826 1.2500178
6.2879577 4.0636187 0.95026952
2.4849665 3.5065162 1.5860637
4.1171665 0.21954739 0.49839407
0.8461566 2.2931764 0.19920252
3.0645621 2.7715449 0.21018478
5.9009361 2.9839883 1.2808926
1.8443755 3.379977 2.0011504
3.0247793 1.4463787 2.1955514
5.8720136 4.1874723 1.4099846
3.9090879 3.1631267 0.19756004
1.5174307 3.3124757 1.9755279
3.911355 3.0431411 2.2015667
4.2698216 0.94081688 0.2118123
3.1066113 2.1137407 2.1869357
6.2472019 3.9570103 1.232852
2.8531687 0.61405331 0.57819545
4.4573278 1.5306098 1.1936535
2.4795117 0.7816478 2.1950808
6.2550874 3.9249651 1.256132
1.2380948 0.21510649 2.1949253
6.2281699 3.9139886 0.6076901
4.9066253 3.7075765 2.2002864
2.5116131 1.2563573 0.21379539
4.2976446 0.92684925 0.42964154
5.2195354 4.0524611 1.6755443
2.0357351 3.2806578 0.19918555
2.8304489 1.1871028 0.20660229
5.986208 3.2523968 0.73677266
4.465487 1.5509105 1.6246109
2.3102589 1.1798693 2.1872306
3.0190737 2.04936 2.1960855
5.2852592 1.7442287 0.87201947
4.0456619 3.8280802 0.24082649
1.3271044 3.2689066 0.34378093
5.0440483 3.9575117 0.18832985
1.1864004 1.2985691 2.2000015
3.0281847 1.9370298 2.2113342
4.4825468 0.94510353 1.4303092
3.1081507 2.7616599 2.1946566
6.0188265 3.2783051 0.19841708
4.9158645 1.7379073 0.20435916
5.8925047 2.9562097 0.79071331
1.453396 1.8424373 2.1923275
4.7897983 3.3911281 2.2075272
4.081501 0.20970321 0.37016004
3.2769446 3.5685058 0.17592245
5.6779294 2.3678689 0.31523505
3.009095 0.98006636 2.2162576
2.681637 0.17079316 0.52355522
0.47544071 1.1671345 2.192976
5.9284859 4.2013721 0.59236568
6.2258306 3.8923404 0.2454609
1.6457815 0.36821166 2.1841462
1.6620691 3.3545339 0.40858695
4.4959121 0.22580481 1.6794994
0.54067284 3.1203387 1.3227437
3.6518853 3.7497942 1.8200381
1.9670136 1.8582745 0.19766469
1.0688472 0.20245984 1.3808287
4.0812063 0.18997645 1.568401
0.4790664 1.1653219 0.22750734
5.5149083 1.9635921 1.8218164
2.8495476 3.5778723 1.126498
1.0254276 0.21370657 1.8424965
3.8056281 0.21959022 1.508376
5.6364646 3.9372275 2.2157857
3.4116421 3.1184824 2.2057567
3.6522136 3.5606637 2.2040963
1.6689869 0.13090353 1.0091772
4.3965278 2.3011012 2.1929133
4.3639541 2.2701039 2.1827674
4.9999399 1.7349616 0.61744404
4.4915419 0.41661602 1.4459289
3.5197968 3.444344 0.20217897
4.0179977 3.4300499 2.2081246
5.4506793 3.0297787 2.1863065
5.9240751 3.041044 1.8395827
4.0799584 2.4359274 0.20123978
6.2126555 3.7744186 1.7758088
4.8159833 3.9684255 1.0664544
1.4762638 1.3580663 2.206187
0.46152526 1.216095 1.1851685
1.6677406 2.4653881 2.2001476
4.2957935 0.23702776 2.1861637
5.7925181 3.1273234 2.1930003
4.7074227 1.7403352 1.5477288
5.8771744 2.9318795 1.7816788
3.5547969 0.19700313 1.0734435
0.50021535 0.12029289 0.30292431
2.7128687 0.57253283 0.20173728
3.3229682 0.77631748 2.1886725
3.0872128 1.2332093 0.1848027
4.1206565 0.90178537 2.1873252
5.9828901 4.207027 0.81905764
1.0260367 3.2356462 1.9511631
3.7282655 0.19968231 0.28053197
4.4751711 1.3693458 1.3398929
1.8882755 0.39742845 1.4574263
0.43007773 2.1854801 1.8605487
0.40950978 2.723031 1.7889018
1.8623531 3.1073875 2.1937292
3.8098717 3.7770376 0.53242105
5.6941371 2.4294436 0.46006733
0.43140739 2.4417584 0.49075013
3.316016 3.6708472 1.8095033
1.1027086 0.85053039 2.2062733
1.6971815 3.3566372 0.77018273
3.320564 0.18514954 0.95543593
4.4045949 0.9646852 2.174108
2.4723876 1.9369692 2.1876664
2.7391157 0.57662129 0.33372861
6.1901989 3.8133292 0.47791362
3.1831896 0.16347066 0.869533
0.7772994 0.15784448 0.45687431
1.035768 1.7971854 2.1983011
1.4665298 0.14670242 0.95721656
3.2468443 2.4307992 2.1996863
1.4447131 2.2150512 2.2137704
0.42499611 2.6991498 1.6156808
2.7726102 0.17399113 1.4250015
5.6604428 2.3848035 0.19543205
3.9796968 0.19254062 1.918135
3.3614244 3.6871738 0.72870696
3.7411377 0.48145324 2.2067027
1.3213322 0.12316023 0.36511198
2.5327802 3.5223126 1.7684122
2.5999908 3.5324347 1.0065426
3.8485904 0.85081846 0.35711378
2.7673018 0.16485298 0.48809785
4.3141098 3.8697512 0.96963668
2.5633988 1.0303826 2.1885509
0.57637876 2.4048724 0.18900524
0.4138633 2.375509 0.64884812
3.4312289 3.0521986 2.2039976
4.0834179 0.21184951 2.0515151
2.3207273 0.27973819 2.200469
2.4054267 3.251132 0.2161368
6.2589164 4.0475726 0.20010723
3.8604567 2.9756751 2.2042785
1.5839776 2.075062 0.18761788
4.4571619 1.6439172 1.7672557
1.4621365 0.66934031 2.1912656
4.2858629 2.5408337 2.1990733
1.2296257 3.1675792 2.1756668
0.50369686 0.26375961 2.0453417
0.49876788 0.57753408 1.3308607
3.3569787 0.72259378 0.23575723
2.615242 3.2612951 0.19432501
3.850641 3.5553527 2.2055624
2.2768757 3.2114913 0.2006446
6.1380119 4.2102566 2.1973691
0.65607405 2.1186445 2.2061713
5.0709558 1.7518374 1.4942889
4.2299452 3.583935 0.20244825
1.7779217 0.12120806 1.6952085
4.6558557 1.7326922 1.5008378
0.92249298 2.1007462 0.22015278
4.2691975 0.94319105 1.8370701
1.1588583 0.24157426 1.177687
0.46550885 1.0105586 0.75061935
2.1800997 3.4467506 1.5385453
0.81008571 0.17972559 2.2050881
1.9673891 3.4202304 1.2792964
5.4258709 3.2495856 0.20525075
4.9189091 2.6716316 0.18932232
0.91550887 0.19409187 1.2584943
1.749107 3.3869312 1.2613459
1.6767701 2.3166037 0.21568981
1.436229 0.29358089 1.4647356
5.7241759 2.5033734 1.4735827
0.41168034 2.6983206 1.2421132
5.7599506 3.2736249 0.18485187
1.744468 0.37589324 0.23815648
1.6983039 0.48399201 0.20210096
5.466814 1.8413317 0.85921574
4.1425657 1.5953411 2.2065213
3.8791349 0.19858816 1.3562897
4.3715305 3.7494035 0.20291355
5.4550619 1.7502685 0.8166393
0.45620701 1.5502529 2.0468705
4.4273825 0.96092141 0.3233465
3.8624022 2.5535643 2.2083199
0.41471922 2.7744341 1.3024592
1.7168369 3.3683305 1.5114144
4.4723711 0.58958369 1.818001
2.926475 1.7078232 2.2020888
4.1442881 2.8946409 0.20752892
2.6444237 0.59263676 2.2012556
2.7296596 0.17728673 1.640613
0.56583166 0.56783432 2.1988547
1.2109936 0.45421454 0.19245301
2.0919623 3.4435413 0.24119759
2.9638104 2.5970054 0.20668006
2.0400045 0.39930168 2.1849074
3.3949463 0.46213415 0.19123416
2.3955986 3.484163 1.034789
6.3161721 4.1510801 0.97071403
5.5346842 1.9929228 1.948261
0.45636523 3.1116092 0.6846
3.8281219 2.7193642 0.19863537
4.8361683 3.451134 2.2108338
0.45439711 1.353784 1.6873374
3.3408458 3.6856167 1.4071583
4.0003853 0.86993456 1.0532421
3.6236591 2.4957137 2.2042022
0.64531142 2.6697001 0.19561717
4.7102575 3.9438732 0.54395962
4.4695344 1.0611802 1.8591872
2.8050675 3.5709381 1.5237439
4.8111849 1.7436682 0.82390153
2.4056637 0.86014903 0.20178702
3.3843882 2.1087782 0.19017106
0.7542724 0.14533587 1.1604396
2.3762212 0.55362839 2.2097082
0.41308638 2.3668563 1.1334102
1.1008823 0.23116174 0.33625609
3.0609748 0.16329163 0.49412465
2.8370156 0.61151838 0.35460001
1.3492827 0.13022357 1.8933866
4.4649315 0.70418352 1.9791714
0.96957237 1.9919206 2.2000599
3.4501996 3.5428603 2.2028368
5.6696362 2.3284392 0.4542259
4.1540842 3.8407583 1.380378
1.2650183 0.26696727 0.70580006
2.1261032 1.1092755 2.1950011
0.87696916 2.2708793 2.1913395
3.0235784 0.18756367 0.53036451
0.85472429 3.1627159 2.2145576
4.9116478 3.626487 0.19114889
5.1955886 4.0489149 2.1605587
2.6032989 0.54747212 1.6816319
1.0849099 0.31291664 0.21637063
2.1001616 0.53895426 0.2067546
4.4684153 0.62288916 1.4609529
6.1239204 3.6210637 1.9241127
0.87098777 3.131531 0.19302654
3.6017756 0.78070885 2.0111294
0.45587596 1.4884775 0.64482224
5.8969469 4.1772566 0.50138891
2.0956154 3.4254332 0.31241244
4.478375 1.0691226 0.60070646
3.1224077 0.51292634 0.21345963
5.5105901 3.9105761 2.2188764
5.2174435 3.3929846 2.2108946
2.3075004 2.2928495 0.20226039
4.8848276 3.9960067 1.3807276
6.0615292 4.2197909 1.2754679
5.009356 1.9655689 0.19447491
5.1269236 4.0350647 0.73497766
5.8048577 2.6954305 1.7493421
5.6303282 2.2372379 1.7784001
2.4795287 1.5791925 0.19692454
3.2140079 0.69640601 1.5858933
0.72845268 0.42111546 2.1956792
2.0427551 0.83026832 2.191849
0.84463626 0.11444156 0.98026812
1.3068371 3.2911241 1.1718688
4.0192184 0.86924547 0.98867929
0.47570792 1.026637 1.0134261
4.7037711 3.9252832 2.1939456
2.9066882 1.3064344 2.1952171
6.1296115 3.6053936 0.90086919
0.44976416 1.7705147 0.66349918
4.6205349 1.7333201 1.8881165
2.7394996 0.14793822 2.0910153
2.5647907 0.17689556 0.47224104
5.5512338 2.2045238 2.2082312
2.7416196 3.5541747 1.4046676
4.8847523 2.7381783 2.2020898
3.9807789 1.9689438 0.1769049
0.5033862 0.48473525 1.4214635
0.43181062 1.9567024 0.89121652
2.2771397 3.4704211 2.0702422
2.7978389 3.5743706 1.4460146
3.2282257 0.58752292 2.212249
2.4085374 0.16758159 1.7631767
1.0371879 3.2089703 1.4376612
4.4889088 0.45119905 2.0014124
3.7770386 0.81789732 1.8288274
0.74105299 3.1744323 1.2609338
2.7803037 0.17267609 0.64149815
5.8363585 2.7679901 0.30471784
0.46659964 0.67744899 0.80429196
0.47516388 1.2836878 1.7491915
5.6314459 2.2721457 1.5117315
1.4623804 2.7719405 2.2026296
4.8847895 2.8644688 2.217051
1.8056229 3.2441447 2.1974206
2.6894035 1.7985313 0.21319228
2.7012491 1.4673383 0.18266122
1.5570613 3.3304999 1.8773639
3.844429 0.22167529 1.4659936
4.6746716 2.8688698 0.20381546
4.2812872 0.2111105 0.38388479
1.2602978 1.886338 0.19551241
5.2122841 1.9836493 2.1840479
2.7911901 0.78901583 0.19460392
3.089695 3.222111 0.18579583
0.51577371 3.1032031 0.2058741
6.0272055 4.2192416 0.27975261
6.3350086 4.2228456 0.38827217
2.0072813 3.4044521 1.7749697
1.2263571 2.7410054 2.2187278
1.0052769 0.19970128 1.6828074
4.3884335 0.9472453 1.1305951
5.0106459 2.4406004 2.191292
3.5662482 0.77975428 0.86923844
2.7278254 2.8625491 0.21484791
3.9101501 1.4688395 0.19122858
0.42848501 1.8784765 1.5018427
2.2787757 2.7335792 2.1972661
4.1393776 0.4672285 0.20008269
2.8526652 3.6061714 1.7786767
2.6254866 0.57368302 0.19360901
2.375104 0.15181598 1.9527949
