# .PCD v0.7 - Point Cloud Data file format
VERSION 0.7
FIELDS x y z
SIZE 4 4 4
TYPE F F F
COUNT 1 1 1
WIDTH 1562
HEIGHT 1
VIEWPOINT 0 0 0 1 0 0 0
POINTS 1562
DATA ascii
4.4960566 0.37226459 2.0653462
0.49043021 1.0862606 2.1864882
5.7043304 3.1404407 0.19077936
1.6059127 3.2613606 0.20077337
1.5377818 1.3292049 2.1941707
2.1041245 0.45071289 0.26498413
3.3911419 2.2700341 0.19640616
0.93609291 0.19030878 1.2782009
0.98745477 0.20102018 1.7796301
2.4232001 0.51769364 0.74981385
1.6530335 0.40754315 0.19628273
6.2936869 4.0684705 1.5229481
5.5931783 2.1517997 0.37765139
4.4889402 0.79092884 1.4854062
1.4079032 0.29297554 0.25910386
6.3692188 4.2942801 1.244963
4.6334138 3.9363241 1.9451103
3.9383225 3.7888641 2.1395361
3.3741944 0.99005795 0.19602935
1.5381765 3.3093665 0.41653365
6.2862558 4.2847252 0.4026365
4.7164612 2.3578334 0.21224539
5.8732529 2.9109912 1.8154707
4.3067198 3.3564012 0.19885829
0.88335228 3.1976936 1.5936046
3.9625506 0.21059713 0.82320207
1.4958172 3.3223641 0.61454064
2.8604069 3.5503628 2.204329
5.914041 4.1968088 0.38428169
0.46261266 1.0471233 1.3156862
3.5200574 3.47171 0.19184501
2.0914197 0.89342892 2.2058539
2.7436321 0.60243094 1.9434386
3.8549995 2.8940589 0.19348165
5.6637549 2.3422816 1.774416
0.98692757 0.11473668 0.20417514
4.2441483 0.91818905 2.136868
4.3764749 2.2861092 2.2088301
0.44203788 2.3031738 1.6172689
3.3320069 3.6773646 1.8360696
5.9956775 3.7537444 0.20714366
1.4109201 1.4955044 0.1900598
2.0134695 0.152255 0.42408371
0.41859275 2.7919607 0.98769051
4.3364124 1.5944438 0.20271507
5.1948075 2.5833395 2.1992109
3.1365933 3.1521931 2.2069981
5.7879496 4.1471891 0.25785547
4.4760399 1.1669778 0.79836053
1.9367433 3.3379471 0.1999336
5.1283512 1.7933832 2.2036035
1.9662799 2.8742361 0.20347138
3.4468939 0.74632305 1.1890085
2.7344422 2.6437728 0.20105614
1.0897663 0.56059349 0.19973059
3.1865261 1.1707772 0.2042318
1.2851173 1.2030241 2.1920729
3.5040305 0.76427597 0.80684793
6.1828275 4.0781474 2.1912024
0.53884518 0.79031551 0.20822705
4.4782352 0.78980267 1.3314238
4.0709128 0.98072094 2.1999404
1.2778518 3.2839065 2.044838
0.54938608 0.87959492 0.19561689
2.7184029 0.16539571 2.1867929
2.6038225 0.23774463 0.20674977
0.80102336 2.1056767 0.21984068
0.44427812 1.8771721 0.61822855
2.4508033 2.2185111 2.2182422
0.45663688 1.3726816 0.73395824
4.2591653 2.8763449 2.1990802
5.2588682 2.6317136 2.2031016
0.73944038 0.096382685 1.7336489
4.8141303 3.9781923 0.46874279
0.80132902 0.12598334 0.25400105
4.4660511 0.84086114 1.1242756
1.1943669 0.25730926 0.53602934
2.6143165 2.9310546 0.215877
4.123137 0.88782716 0.60022479
1.1367801 2.2296343 0.21444133
1.9497967 2.969666 2.2182488
0.90391028 0.19159466 2.0292156
2.667398 2.5468736 2.1911812
3.9522538 2.6579556 2.2045264
3.1891205 3.6347699 1.2541122
1.6815438 3.2049356 2.2154219
2.9925544 2.685544 2.218894
1.1105309 3.2199447 0.87250966
5.753089 2.5807779 2.0615609
5.6008286 2.2140672 0.96506751
0.78869939 1.938953 2.1999047
2.1362567 0.14549296 0.89400607
1.93014 3.364872 0.21727842
4.2659912 3.7187054 2.2069204
3.6882195 1.7474111 2.2038951
1.8052456 3.3843765 0.3663761
4.4964457 0.30200478 0.99823385
0.41125673 2.7095141 1.698622
4.4131184 0.95450282 0.96614951
4.8776164 2.2272232 2.1847806
4.5779505 3.5889738 2.2129962
1.0346692 1.0477982 0.19389296
0.41378033 2.3265877 1.3279237
1.0950236 3.0900698 0.20468161
3.3363998 0.19632193 1.9860969
2.6238966 0.91437483 0.20125638
1.9405391 0.1283257 0.84847015
1.3915894 0.31215355 0.8537311
0.70298111 0.15116516 2.0094824
1.5643281 3.3533766 1.2860916
1.9305469 3.4123373 0.19987145
2.2613735 2.0324938 2.2157922
3.6087399 3.3057082 2.2077823
6.0458336 3.7631245 0.19609928
3.1827073 0.68879658 0.95485914
2.541816 0.15146819 1.3898927
3.9367731 0.20637715 0.47526312
3.871614 0.20391206 0.89624673
1.4051661 0.1335862 1.7253146
2.9090743 0.76602995 2.1936347
3.4260747 0.86122316 0.19575423
3.6871936 0.20379573 1.0615591
4.2295599 3.7638257 2.2029805
5.1151853 2.7027433 0.18590456
4.1523409 0.91285074 2.1242201
0.79329056 2.2852309 0.20112681
1.0642129 1.1582483 2.2068481
0.49745136 0.37010092 0.69171166
1.4981055 0.32482442 1.893373
4.4677038 1.5890335 0.46923721
2.9112921 3.601666 1.5177985
2.325521 1.426759 0.21472563
0.43780187 1.951665 0.94940579
4.4523463 1.5860335 0.3355301
4.3961873 0.218536 1.5536898
0.5463106 1.7842671 0.20724334
2.9167871 3.1855958 2.2108841
1.460921 0.15282364 1.9885072
2.2479808 0.48046556 0.33972013
3.2665684 1.1616102 2.213851
4.1611371 3.8524327 1.4270134
5.8247342 4.1816592 0.56694007
5.6169958 2.1737857 1.9387822
3.5382161 1.8373457 0.19800942
3.5784795 1.8040661 2.2057738
4.197546 0.92071885 0.82302916
1.2604671 2.0052516 0.2097446
5.5038056 1.9527341 0.26669526
1.5289484 3.2273786 0.20698938
1.6423119 1.7119304 2.2122405
3.665498 0.96180689 0.21027228
0.48233175 0.25767985 1.587056
1.2628962 2.3016102 0.18609595
5.0645838 4.0335956 1.1497824
2.9437802 3.6213539 1.7945973
1.7190752 1.419129 2.2032418
4.4463587 3.9099643 0.96786463
4.6727772 1.7222308 1.0968406
3.8511252 3.3730755 2.22367
3.030267 0.48736307 0.18490264
4.4049659 0.22838721 1.4439801
1.9878601 0.81008321 2.1930237
2.641119 0.16385658 1.3545749
2.4070506 3.4954977 1.5282085
4.2556801 3.8583674 0.5603894
4.4061089 2.4762633 2.1893759
1.0294529 1.6020583 2.1869464
1.5831466 0.39630067 0.20255694
4.2843761 3.8672643 1.8038828
5.8867412 2.9773767 1.4365922
0.47351065 0.64112419 2.0677989
3.0585797 1.2369368 2.2166944
3.5488615 0.19792417 1.7642832
6.2116919 4.2550001 1.7116655
2.2469857 3.4499912 0.43968198
4.6021619 1.8185474 2.2028215
0.42666927 2.4855447 0.78113222
0.99573541 0.76312298 0.20015502
5.3423753 1.7576946 1.8957771
0.691486 0.69468701 0.19024305
3.4768438 1.707564 0.19797932
2.0176256 3.3820705 0.21655275
6.0631127 3.4683557 0.58927512
2.0810511 3.4117968 1.8863124
2.0030408 0.66524452 2.2107925
3.9044816 3.8054109 1.0972458
6.1322989 3.9903305 0.19957629
4.0216031 0.26006892 2.2098691
2.4072754 0.15581858 1.6039655
3.8663328 3.601069 0.18815625
2.4253097 3.2708752 2.2016854
4.40026 0.94613415 0.7321589
0.42447284 2.5880053 1.7616124
2.0449815 3.3412304 2.196167
3.9910386 2.3322592 2.2098958
0.60034227 2.0158575 0.19804722
5.9944081 4.2015433 0.7177794
2.9446025 0.1879583 2.1706886
3.3329074 0.73876846 1.7828338
3.2466769 0.201943 0.18441974
0.71132487 0.33008143 2.1870093
0.438198 3.0936189 0.79654706
1.4387293 1.2935058 0.20521586
0.73962188 1.7410319 0.18671072
4.146246 1.781733 0.19170776
2.429842 0.15572312 2.0949659
2.9190257 1.2327784 0.20595865
4.5123715 3.9237833 1.0693134
2.2497973 3.4196506 2.2054048
1.7182181 2.9300098 2.1970587
2.4433386 0.26845267 2.2050617
0.42681152 2.3339489 2.1898906
3.3706448 3.6956575 1.750484
4.0261221 3.3743725 0.1899932
4.6643767 1.7263314 0.395172
2.0041652 3.4071681 0.9357174
1.5196043 0.81319338 0.20740129
2.2383776 3.4515858 1.5040256
3.7895827 2.1593494 2.1901343
1.4383967 1.0894424 0.20023711
4.1033926 1.1662866 2.2088828
6.0897613 3.5424581 0.5639503
1.8624401 0.40777263 1.761413
2.5810895 0.55870754 1.0570786
0.49384731 0.48799607 1.5291529
5.4691916 1.759756 0.88449508
1.4501517 3.3094442 1.5271568
4.0985541 3.5852792 0.21210389
1.3784845 0.13330746 0.98677361
3.462816 3.7023807 1.0685241
3.4685211 3.4728086 0.21705678
4.2711039 0.74441379 0.20728879
5.7500763 2.5622056 2.1493387
5.3953738 2.4235947 0.21055044
6.1312337 3.6493165 1.4593413
2.0231271 0.81610036 0.20605968
4.4837127 0.70821667 1.6895555
0.93706429 0.20460096 0.65716076
4.3594284 0.54475111 2.1876605
1.3183806 0.11619531 2.1266763
3.4999413 3.3703947 0.21500245
2.4062641 3.4911544 0.39051253
1.7691574 2.5374234 0.19525491
4.4738173 1.0300009 1.7132725
4.5976057 2.0534356 0.19551513
3.9887516 0.43685719 2.1967931
4.4442616 1.4020455 0.87961924
0.45955417 0.59966063 1.5780345
3.8392568 3.7849636 2.0522795
2.6229923 3.3458018 0.20669606
4.1110725 0.72705662 2.2065706
3.528723 0.18584655 0.41020751
5.2709455 3.4498942 2.1810727
2.1250811 2.3516426 0.19254732
3.5758672 1.0464791 0.19251911
2.6673222 2.3807249 0.19973046
4.7246509 2.2210586 2.2141542
1.8025279 0.38240716 1.1800421
0.46506876 2.0105193 2.1719804
2.0667701 3.1436605 2.1973939
3.1069887 3.6271136 0.23035933
1.7743044 0.38378891 1.0441295
1.5447437 1.4443364 0.19306593
2.3446589 0.1475628 1.5174465
0.44878548 1.2247624 1.2342089
0.44654927 1.6486156 1.9134365
0.42466474 2.3879843 0.98045188
4.2879219 3.5405333 2.2167721
2.4457338 3.3712146 0.22356245
6.2848163 3.9697037 0.65684056
1.4588933 3.2967868 0.57576084
4.0871358 3.8359268 1.0558226
4.9345946 4.0043306 1.6530428
4.5020275 2.2464406 2.1763411
3.6401463 3.4099262 2.2022736
3.9008734 0.20534927 1.471344
0.91532964 0.70241523 0.19634365
5.2928572 1.7297767 2.0830114
4.2677279 3.8580346 1.5398675
1.0288597 3.1077812 2.1949251
4.2559519 0.48923111 0.20137174
3.0959661 3.6209707 1.6032817
3.376492 3.2062991 2.2046807
0.43865868 2.1050684 2.0809329
1.174597 0.2545929 1.4744554
5.0024619 2.8974195 2.2034571
0.66248661 0.49813071 0.2155562
0.60897553 2.5180044 2.1905034
5.6072521 4.1426978 0.51021457
2.279593 0.14611298 0.96053666
5.3802657 3.944613 2.1961567
1.1138279 1.3787417 2.1886921
3.5552936 0.78819704 1.8446417
1.1306509 1.4664472 2.2030025
1.2975343 0.13015679 1.2554535
3.9449389 3.8032405 1.8467391
5.9718051 4.20432 0.84092104
4.7540159 2.7608144 2.1915474
5.4052849 1.7732418 2.1069613
4.8078809 2.7187939 2.2113531
4.3478403 2.700031 2.2001987
4.0933957 0.88666356 0.89690661
1.8369547 3.4126894 0.27792239
4.8428502 2.0039482 0.20531398
2.9287803 3.6070361 0.22392352
3.7397366 0.21233898 0.36933234
4.9296589 1.7586191 1.1507205
0.44414967 1.9670081 2.1685634
2.9644318 2.3147423 0.21701674
0.45717186 1.4573733 0.71538973
4.8555093 2.9302664 0.19614902
6.0279818 3.9279301 0.19451129
3.5887508 0.78513765 0.62909186
4.4564486 1.5275521 0.90352339
4.5086999 1.7392215 0.6635319
4.3246837 2.9404414 2.187125
4.4736137 1.7476685 1.4027156
2.9037344 1.4412847 2.2144403
3.0280056 3.6211734 0.40938616
1.4052784 1.3598973 2.2076797
1.7293177 0.14721636 1.5160135
1.3741779 1.4792922 0.18416309
5.427609 1.7592864 0.30316624
1.2863846 0.26533902 0.83415663
2.913729 0.6317867 0.91231406
2.398941 3.4975517 0.44366515
2.0968764 0.45148322 1.8860811
4.1992455 0.91590065 1.9483181
4.5055876 0.22523427 1.1192552
2.0834947 2.8723974 2.2133944
0.58572257 0.93079472 2.2038324
4.2269406 3.4426777 2.1921635
4.4209709 3.8662844 2.2067339
1.6051167 2.1575766 2.2060776
5.6097102 2.2370572 2.1841896
0.77258754 2.5265379 0.19969766
4.6970277 2.8457716 2.2038045
4.5448003 3.2366419 2.1977658
3.8857589 1.5115919 0.20867741
1.6393589 0.13921487 1.343114
5.0930495 1.758382 1.2857344
2.4131217 0.17009591 2.0202415
0.52906156 2.1476092 2.2132337
2.9440832 2.6928978 2.1803434
1.242352 3.276386 0.2849001
2.9654224 2.4304881 0.20801063
1.0012107 1.5588355 2.2089748
3.1959841 0.182886 0.48001033
2.3263059 0.16195634 1.9461349
1.8111097 0.39817935 1.0632718
2.4877443 1.2514327 0.20122465
0.91606766 0.45937467 2.1925383
4.4628983 1.3338386 0.67635179
0.86626744 1.6770409 2.1845324
0.42962039 2.4170666 0.68237609
2.6725998 0.58164245 0.98413539
2.7059333 3.5509403 0.74801153
3.8898711 3.7869444 1.3360265
3.6787648 0.80796897 1.1442212
3.2990015 0.18950805 1.8489782
4.1992016 0.82499886 0.19226141
1.4320179 3.2981305 0.96807927
1.740612 1.6088759 0.2139865
5.8260098 2.8544669 1.7976527
5.8836384 4.0661068 2.2030261
1.0097547 2.1786745 0.19285142
4.7264686 3.8410084 2.199728
4.4204302 0.22715908 1.3804672
4.1889439 0.57464319 0.19807133
2.9158113 1.2104181 2.1927423
4.6422815 3.0967326 0.208719
4.4937029 0.47427601 0.41077685
1.6138272 0.2337501 2.2095423
3.6070781 2.8978236 0.20618755
1.5270846 0.31611943 0.3572588
3.1864758 3.6468472 1.8177449
2.6435235 3.5470872 1.7098902
1.4774894 0.99438834 0.21024671
1.160985 3.2451305 0.50298917
3.1579151 0.34929705 0.21038288
4.4948678 0.67172694 1.1047602
3.0069435 0.66089094 1.163722
3.5908308 0.80581868 2.2024777
6.351779 4.2236495 1.1985954
0.54922813 3.1287186 2.1302538
2.8956578 0.17952158 1.0711334
5.3570666 2.7321019 0.2056095
4.4086752 3.0594532 2.2007532
5.6783557 2.3726747 0.48600268
2.7638934 1.6180997 0.1923936
4.2216454 3.7373135 0.20358814
3.7154918 3.7488501 0.608693
3.2338829 0.18555066 1.1351089
3.4478183 0.19371338 2.0939953
5.1722541 2.1000099 2.1898663
3.9362392 0.19810319 1.7017298
1.0645396 0.17657688 2.2065725
4.3769555 3.8931627 0.61133653
2.891382 1.07094 2.2221706
3.7919259 3.1098409 0.20891929
5.2614226 4.0658183 1.527944
1.0586894 3.2332084 0.49234802
3.8568394 0.20729543 2.0298252
6.186882 3.79318 1.1337444
5.9676023 3.2612603 1.78877
4.0139141 1.1703687 2.1860485
3.4165602 3.121213 2.205708
3.0144827 1.7824819 0.20278727
4.2137275 3.8603518 0.64429617
0.46459475 1.060041 0.99342114
2.3003812 1.8080446 2.1823809
5.7181873 4.1524706 1.0696647
1.0463176 1.7487447 2.2057006
5.3341155 3.2306728 0.20284393
0.4976936 3.1240442 0.92889398
0.61340934 3.1382654 1.0656067
4.3438826 0.67327106 0.19769049
2.4909921 0.90870792 2.209425
0.44896537 1.775004 1.5904291
3.541404 0.77469194 2.1746006
1.0176177 2.9089615 2.2178578
4.5658722 3.9103436 0.30554906
6.1279583 3.6969066 1.5276424
0.65721279 1.3035128 2.1936507
0.48123598 1.0747381 1.7379953
5.3223491 1.8540338 2.2115028
0.64579618 0.4445163 0.1922971
6.069766 4.2132516 0.2841619
3.3848114 0.18911467 0.86926168
2.4776597 0.16050862 1.3664401
1.6282785 0.14657807 0.80008119
2.8714852 2.6868696 2.2022951
3.9799562 0.32457575 2.1888125
5.5081477 4.1040854 1.17883
3.4676507 0.76644164 1.4815611
2.2422833 1.4125072 0.19511859
2.9702392 2.3876369 2.2238126
0.45076022 1.9822718 1.8363211
3.9816151 0.78689075 0.18628864
2.7619581 0.18371049 1.5916607
5.3043919 2.3585341 2.1928308
6.2363806 3.9472625 1.0709287
4.0067773 2.2972996 2.2052214
0.47810715 0.97054493 1.5693349
3.9633155 3.8082509 1.1399019
3.5293527 0.74833786 0.95850372
2.31758 2.5868328 0.20041396
0.73241007 3.168087 1.1860542
6.1136527 3.557622 1.3681579
3.7158968 1.1382253 0.20623612
3.0542159 0.17995483 1.3038831
4.9896617 1.7423981 1.1542659
4.561059 1.7187777 1.9206175
0.96123099 1.7723395 2.1933258
5.556993 2.0604596 1.4336956
1.3772151 0.93225402 0.20106758
3.0445445 3.6211305 1.0250667
3.8287389 1.0016848 2.1923137
2.5385034 0.73506558 0.19827937
2.6729717 0.57903624 1.4488542
1.5323749 0.60868597 2.1915953
0.42823952 2.9745886 0.53661984
3.1922655 0.84550267 2.2031546
1.0409346 0.56921959 0.19800827
2.5077727 0.9067018 0.18966416
0.94217873 1.4823897 2.2167957
0.40962905 2.5754886 1.2080065
1.9049417 0.14919463 1.6637135
2.8253431 0.60734862 2.2045662
1.8661792 1.6514239 2.1896718
2.2927637 3.3857343 2.1954978
1.5694966 0.33340165 1.1662333
0.46164241 0.85153729 0.71341252
1.7985721 2.8146613 0.21164474
2.4107511 2.5815198 0.20676674
0.67657071 3.1557288 1.7264221
1.3241529 2.6618264 0.21868776
0.71489018 0.14506574 1.4268372
5.5209775 1.9600264 1.289108
1.0434334 3.1150753 0.1940736
3.0178411 3.6277792 1.0648655
0.4421812 2.3154593 1.0919917
3.4000187 0.74305505 1.1053909
2.0793288 3.4377861 0.92770571
1.6299542 0.34414703 1.4255037
0.5594458 2.5681796 0.19077837
0.44457284 1.7806538 1.5881025
0.61448318 3.1498499 0.3119556
1.2382414 0.25495064 0.63168263
4.9603782 1.8615571 0.20552868
0.91248012 0.11287313 1.2972568
5.7551742 2.6054804 1.1460674
1.8406163 3.3792055 0.25392541
3.9870894 0.37886879 0.17205505
5.6783938 2.4269011 1.5608883
4.105504 2.1783285 2.1972218
1.8446604 1.8371012 2.2109632
2.6877437 3.5614038 1.1711277
1.0840447 0.21761517 0.30379438
4.2772136 1.6915536 0.2022572
1.9094648 0.14375496 0.79730767
1.6076986 1.1403176 2.2022653
4.9635315 3.9330561 2.2076986
2.4204671 1.5398391 0.19958955
4.1458759 0.22488153 1.7780464
1.187593 1.1026094 0.19691345
1.336338 1.9588362 2.2006478
5.603065 4.1158452 0.89310199
1.1396437 1.5391678 0.19430187
5.6755023 3.8473151 2.1810904
1.832503 0.40236589 2.161931
4.7699409 1.7425482 2.1202717
2.1906691 1.6077243 0.18855929
1.3027039 0.1122497 0.36629236
0.65663898 0.14151934 1.3175275
0.90900922 3.1929522 1.6221722
1.9618471 0.42801046 0.31817713
5.4587231 3.9228911 0.21105745
1.8019497 2.6244061 2.1874125
3.3203924 1.1482148 2.1915927
4.5834775 1.743118 0.8117826
4.0523324 0.88203841 1.7773421
2.6147645 0.95889372 0.19852775
4.2706985 3.8649154 2.089808
3.2503915 2.5322027 0.21059957
2.5827706 0.56697744 1.3692786
5.1917601 1.7345004 1.9604708
0.47340629 0.88326108 0.677993
2.6947508 0.58608031 2.1397965
4.9981666 3.5155187 0.21746211
1.989333 1.9824066 0.19795957
1.3319892 2.794924 0.19232807
4.7942648 2.7826028 0.20958176
1.0918617 2.5645528 2.2111382
4.5349808 3.9315541 0.4185423
3.6558127 3.7458589 1.1407027
4.8586626 1.7436663 1.6188543
3.9807928 0.87193364 0.63721013
5.9377146 4.2045231 0.97116202
2.8439913 3.5955365 1.8610803
5.8831854 4.1836343 1.513401
3.9798515 3.8243885 1.7144725
0.81508887 2.9161124 2.205364
4.1292057 0.56578857 0.21419531
1.3269808 3.284688 1.8041155
3.2584643 0.24193615 2.2006655
1.3512427 0.14013675 1.2232361
0.70018244 0.73656905 0.20432439
4.4488106 0.21787041 0.89249492
0.46436888 1.5198381 1.0939356
2.157954 0.16681862 1.2126173
2.889302 3.1728435 2.1794655
0.43111083 2.3206012 0.40570354
4.4641991 0.58808213 1.8360654
4.0264564 0.20204684 2.1338661
0.9704206 3.2068622 0.2154386
3.442138 1.7582719 2.1982219
5.4632015 4.1099634 1.625441
2.0175269 0.42600444 2.0796773
1.3216422 3.2575798 1.4116455
1.4332908 0.30424383 1.2026905
4.3833323 3.8857429 1.6875482
0.6146543 0.12240908 1.4907764
5.8544893 2.8470204 1.7306186
2.4185226 0.52019644 1.1032834
1.8800361 1.7543421 2.2166615
2.1405189 3.0235474 2.2090571
5.7871985 2.6510582 1.1963199
5.438096 1.7343478 1.5119944
3.2061634 2.0265682 0.21885219
0.5734694 2.2340963 0.21042909
0.98377645 3.0065739 2.178803
5.5818563 4.1277699 0.73114043
5.4855728 1.8253525 1.3295404
6.1419454 3.6586633 1.1049268
1.0365446 0.19964859 2.198724
2.786346 0.16224971 0.45282298
4.1235323 3.8481033 0.28871405
0.47381639 0.66383052 2.0211892
2.5271385 0.52860653 1.1142319
3.8767335 2.8954194 0.19572079
4.2384229 3.8663316 0.96942121
0.69642651 0.15119267 0.63518834
1.4162359 3.2937682 2.1744053
1.3768857 0.65293062 0.18940136
3.6965759 1.6787159 2.1948309
5.278378 3.6871965 2.2045915
3.5413206 1.9730815 2.1931324
5.6801558 2.3868892 1.7253164
4.4656868 0.40752071 0.19779328
0.54427701 0.098691553 2.1140702
4.2905087 1.1122532 0.19240209
5.8072538 2.7010534 1.701667
1.5861484 1.4061769 2.1822512
2.1492767 0.15348364 1.2024519
3.55354 1.1747705 2.1822567
6.2274222 3.8751178 0.18292491
0.43481606 1.7577618 1.2524846
1.1906086 0.60072118 0.20685658
1.5223262 0.11596645 1.8543918
6.130939 3.6157253 2.0761588
4.4703903 3.9164927 1.11887
3.9509158 0.21320415 1.0024027
4.8389325 3.975672 0.89626807
2.3395739 0.51392502 0.54174376
3.7212784 1.7320685 2.1902142
3.8854277 1.6489042 0.22054124
6.1324439 3.9038022 0.19984508
0.45575169 1.3877217 0.44020218
5.7400746 2.5446365 1.6306533
4.4257007 0.22014692 1.8458287
0.5921855 0.12269581 1.0079349
3.7775302 0.21409182 0.30745089
0.94565117 2.2549028 0.21201122
3.115222 0.17345506 1.8002193
0.75207853 1.4603821 0.20961517
4.7825942 3.9660511 1.3780737
4.319788 3.6144044 2.1990097
5.8683062 2.9178002 0.47300285
5.9273462 3.2824669 0.20204252
4.5930905 3.1699758 2.2078998
1.1125177 0.42121369 2.1996205
0.76766372 0.16521508 0.63431609
3.3419545 3.6878622 1.1621004
1.7750543 1.7452382 2.1965857
3.2753186 2.3322062 2.2019861
5.1448522 4.049511 0.21080148
4.2722178 0.61904079 2.2018244
3.5311325 3.7210608 1.4716486
6.2557364 4.253633 1.1134019
0.97922546 3.2081292 1.8399458
1.1265712 2.9769468 2.1749451
5.1297321 1.7611289 0.75731754
0.43462673 1.4809483 0.28507078
0.49666277 0.14167739 2.0040333
2.0155916 2.6455207 0.20349948
1.6356013 0.12297958 0.9632293
0.63166672 0.11760005 1.3691363
3.3848252 2.1277328 2.2043836
4.4908557 2.4524617 2.2056122
2.9774756 2.849508 0.18939863
6.0263758 3.3647079 1.3472433
4.6089706 3.2168918 0.19323274
4.4567862 1.6864341 0.84737051
4.0605326 2.1273937 0.19301747
3.8388972 1.7668778 2.2083328
2.8971879 1.2518326 0.20096342
5.203084 3.5990229 0.20424312
1.0451547 0.53838372 2.2025633
2.9546936 0.26320773 0.20119691
4.4144678 0.21713513 1.8015773
5.2392683 3.1451526 2.19999
3.787457 3.7571173 0.88574827
0.75068074 0.16886082 1.9081219
5.333179 3.3889174 0.20016234
3.9699028 3.4501083 0.20227648
4.8698497 3.6496992 0.19749823
4.4588814 1.2552503 1.1676961
4.1309695 3.845006 1.9735785
1.1445714 3.2663379 0.97411126
5.6432528 3.4999604 2.1945727
5.4489541 3.6832204 2.2109373
1.3040265 0.27569762 0.9499675
6.1096406 4.2319055 0.30939832
1.1209898 0.3305735 0.20656177
5.8318872 3.8788583 2.1914084
0.90869451 2.4968317 2.1893587
4.9510846 3.9924254 1.9689568
3.2789986 3.672672 1.5674633
5.8302822 2.7749803 1.3125107
5.5593538 2.0617354 1.9030104
1.8655719 0.39275995 1.4391013
4.1918869 0.77675492 2.187865
4.9223261 2.7944584 0.21898733
3.6074412 2.4251907 2.1877828
0.93052042 2.51086 0.2133145
1.146831 2.6062126 2.1922312
0.59193069 3.121058 2.0945783
4.1402216 3.8388712 0.68774337
4.2969022 0.5705235 2.2088807
1.2417884 1.9353191 0.20427807
3.9203382 0.87394935 0.96290195
3.4920347 2.4545903 2.2015736
4.1254191 2.3643134 2.2020192
3.7038364 0.56362349 0.19995196
2.3777046 3.4953952 1.7482977
4.304553 1.8672571 0.18177173
2.3058066 0.16113436 0.85380185
2.723031 0.59213626 1.6381215
4.1047878 0.43369612 0.20757976
1.6903584 3.3549082 0.82688957
3.7695277 2.7538745 0.20257013
2.6426034 0.577371 1.5667485
4.06989 0.90123618 1.1901796
4.2224922 0.89600545 0.59989399
0.39781472 2.7659769 1.9627732
4.6973162 1.7255288 2.0018554
3.1110649 0.66949916 2.1099274
3.5146263 0.45351526 2.1988225
6.0563002 4.0539293 0.20123595
3.6094892 0.20219636 0.40977633
0.67460412 3.1449614 2.0750597
3.9340553 3.8054435 1.6307418
5.7024436 2.4896123 1.8459127
0.99857366 3.199497 1.60945
2.945775 2.6597176 0.18918818
4.4472799 3.5691321 2.1884236
0.82161534 2.7637923 2.2150793
4.7328229 3.7851048 2.19226
3.6869149 0.1999018 0.54503912
0.46274722 1.1194509 2.1735849
1.2143862 1.9524319 2.2132285
5.0415859 1.7433931 1.4546248
0.99427092 1.5635113 2.1775889
4.4540663 0.93617815 1.7800052
3.1246917 3.1178546 0.20548509
3.7095172 2.7279127 0.16651303
3.8188634 2.2310336 2.2005608
0.49791759 0.41846117 0.64886165
2.8002183 0.17703399 1.9031141
3.7553356 2.1753294 2.2010689
3.0855064 0.18759155 1.6354295
5.494802 4.1038394 0.91101211
2.3206258 1.9317535 0.20481299
2.3630307 3.2853165 2.1905067
6.0796061 3.4283903 0.54781991
4.1042094 0.89188296 1.542116
2.0398121 0.25839657 2.1939859
1.7723383 0.37274981 0.5266214
2.098783 0.45601195 1.680163
4.2407269 3.8577564 1.9462087
2.3336043 2.0519066 0.20745033
2.5132632 3.5207789 1.2378261
3.7526438 1.7567179 0.2192506
5.5297866 4.1121392 2.213568
1.8433133 0.55070341 2.2033165
1.8662634 1.1678592 2.1885636
4.1153584 0.2166788 1.9562023
1.8897631 0.8935253 0.20073256
2.0908911 3.4234674 1.7457761
3.033216 0.75704658 0.2032368
4.4051652 2.9049821 2.1884758
1.4812396 0.13606013 1.5253782
1.5164959 1.7018094 2.2023311
2.5474885 1.7108449 0.19992696
0.4623138 1.127687 1.1639812
5.0779037 3.1498377 2.1958466
2.8879647 0.63411814 0.84753633
3.6993361 3.115155 2.2055709
5.0315022 3.5895786 2.1975911
3.4380271 0.76241064 0.55934209
6.0397491 3.4434645 1.3254873
1.527716 3.3046632 1.2830086
0.46530765 0.8338697 0.38646287
5.6443725 2.2727423 0.35556859
1.4086435 3.1882534 0.18817997
6.1562209 3.7387733 0.97571284
3.1060848 0.55282003 2.1806977
2.2081459 2.4472368 2.1987762
2.0250778 3.4267206 0.62744772
3.8346298 1.4855988 0.203942
6.2411833 4.250433 1.0139303
4.7204103 1.7467331 0.98519146
0.46639881 1.718888 1.6124283
0.45978615 1.940576 1.4200541
0.4785049 1.0687842 0.49564147
3.193135 3.6638691 1.0590798
6.125114 3.5671954 0.97041368
5.0293546 3.2283938 2.1838357
2.4549949 2.6804667 2.178472
0.45111462 1.8083693 2.1417863
2.2066846 0.52416289 0.19340774
4.1958408 0.21652305 1.2838697
0.80852902 0.094934769 0.2166307
2.5207057 0.5875594 0.19303465
0.95806074 0.65094846 2.2027512
1.1427968 0.25606158 1.9729011
2.3235316 2.1642711 0.19603702
1.0242201 2.089329 2.2030096
5.9931817 4.2372799 1.3824372
2.8985219 3.5973718 0.84731686
3.082972 1.6559906 2.2056279
5.3629832 1.7408707 2.0407615
3.2503729 0.2648809 0.2019722
1.0649517 3.2204642 0.67129809
3.2914469 3.2735522 0.19617742
2.8558714 0.18683606 0.61433882
4.8676581 1.7390118 1.1190854
2.6544449 3.5383143 0.92042214
0.47210202 1.1196698 1.135367
3.4277298 1.1772239 0.2073961
1.6973081 2.7779307 0.19120502
2.3768344 2.2397392 0.20277196
4.364522 0.95766497 1.2339135
2.4428065 3.5103381 1.3166072
0.4295094 2.6524527 1.5191696
3.4202089 0.75862521 0.81137532
2.9877484 0.63615942 1.7010869
3.3071237 0.71257353 0.57944095
1.7386444 2.8429611 2.2022939
1.9263216 0.87657601 2.1996312
1.996635 3.4068267 1.4173717
6.0296555 3.3590724 0.18900025
6.1471524 3.6817443 0.59117389
5.8872223 4.1931176 0.28317729
0.57070589 0.11442041 0.4750849
5.4698176 1.7983252 2.0209434
1.0375831 0.096034564 1.4374049
5.3963408 3.45399 0.17665514
1.9746016 3.2324665 2.2109241
5.6989617 4.1372476 2.2008739
3.1796894 0.70168221 1.210049
1.3050505 3.2877438 1.6482763
1.1523633 0.11137964 0.90315807
1.0279231 0.12475751 1.6082205
3.8885252 3.7154832 0.18982981
3.4960949 0.77862358 0.57708693
4.7912536 3.0668676 2.2038987
0.95751566 3.0812349 0.20168301
2.1832552 0.4625982 0.92465037
3.5566511 3.7239749 1.9804059
5.2987556 2.1549981 0.21002874
2.3135414 0.48644328 2.1305268
3.4109793 0.5488742 0.2046369
5.92032 3.0257728 1.9480658
3.6992464 0.80280536 1.2238078
5.6525645 4.1365032 0.82044798
5.6095624 2.1870732 0.38674092
4.3926749 3.8979483 1.7586169
4.4646187 1.2662505 1.4826289
5.4481101 2.8610382 0.19535506
1.4500391 0.18821175 2.1937456
3.2337713 3.2246382 2.200938
3.0485499 0.65628153 0.86267239
2.4623916 1.4093362 0.205717
4.4827371 0.72388083 2.1530974
1.4542325 0.27913272 0.20634052
4.9935026 3.7519639 0.21138345
4.1969986 0.19353661 0.95014155
3.3958807 3.691958 1.1056409
3.2907658 0.72611582 1.1033345
1.8945025 2.8651426 0.20488289
3.2558095 0.71630794 1.4690655
1.3377126 1.0642762 0.21443798
4.5561433 1.8487107 2.1953471
2.1205792 3.2256551 2.1932821
2.2672987 0.13906211 1.5017949
4.8084888 1.736051 0.76525342
3.4010139 0.73695648 0.6721369
3.4482465 1.5466211 2.1914208
4.5959315 3.1800494 2.2122765
2.9921558 0.19633405 1.5069822
4.6834354 3.1166935 2.1924992
1.364066 1.7807101 0.20770197
2.0471764 0.14591214 1.8560253
4.2304373 1.1626921 2.2072315
1.5131481 1.0047227 0.20125085
1.4483714 0.82602072 0.19482148
4.4549603 2.5424442 0.1651849
0.8087278 0.15657541 1.9868689
3.5917785 0.21215689 1.805113
2.862781 3.5782161 0.47980887
1.5973929 0.1378957 2.1968279
4.0343342 3.364949 2.2093096
0.46869862 1.2261759 0.41792557
3.8346908 3.7928047 0.6588909
2.8015554 3.5712392 0.44776097
3.105634 1.23403 2.2100136
5.5427055 3.7352283 2.2004783
2.2116077 3.075443 0.20525032
1.9913185 3.3194027 0.19742975
3.2678118 0.18166676 1.4221888
5.0317655 3.2147183 2.2125161
0.54415876 3.1436749 2.0273507
6.3324599 4.1678524 1.5144399
5.2678757 1.7495581 0.38542366
0.91215169 3.1900351 1.6587799
0.46746922 1.2310891 1.619802
2.5564032 0.1651037 0.9950797
0.76764113 0.11374538 1.7515855
4.4532061 1.5463462 0.45219266
4.7127223 3.5005245 2.2020602
1.1133335 0.12468465 0.53140205
6.0144672 4.2147269 2.0597985
2.7847078 0.18691826 1.9640464
1.9718168 3.3998442 0.82483929
2.8127561 3.3097336 2.2023137
1.6529006 0.4105517 2.1870544
5.6402941 3.008914 2.1886499
2.8264027 1.4362921 0.18093145
6.3170052 4.1431189 2.1071978
0.804142 3.1727509 0.68420881
5.9929438 3.2376943 1.5227001
0.4588376 1.5598102 1.0707773
5.3253279 3.9610441 2.2016907
3.7409406 1.729604 0.19382341
1.9329915 2.8573053 0.19620673
4.5179243 3.1917381 0.20974739
3.902986 3.7708828 0.39590299
5.2967234 4.0975351 0.85728478
5.9482718 3.1324894 1.4523855
2.0242276 3.4156458 2.0556979
4.4599171 0.98608118 0.18674749
2.9231451 0.62414891 0.88107306
3.7283235 2.2947462 2.1886656
2.0281007 0.43403122 0.48478383
1.8471808 2.1148443 0.20607603
4.2008429 2.9577014 0.22406892
4.725112 3.9638655 0.72247285
5.6362586 3.4260714 2.1834583
5.2176523 2.5161636 0.20379041
3.7199316 3.2531011 0.20817369
2.8859155 2.9808228 2.2020102
5.038846 2.0765738 2.2100289
0.55709833 3.1222329 2.0280139
1.7018356 0.48065749 2.1991723
6.2574744 4.2839479 1.4017687
5.5298471 2.4672749 0.17958485
2.5437822 3.5396523 1.9599011
5.4149895 1.7645805 1.5246166
4.3271904 0.40999323 0.19569308
4.8800035 2.3289323 2.1886117
5.7309909 3.8273885 0.20161127
0.50573695 0.11137976 1.137313
2.5105169 0.56726092 1.8599876
3.9158137 0.22695911 1.2597544
2.4289551 0.96823734 2.2082582
3.8170104 3.1274681 2.1881793
2.8967063 1.5084413 0.19304642
2.1360984 0.16245578 1.7827559
0.45682377 0.76826721 2.0219102
2.6943853 0.59017915 2.1163027
1.3044494 0.29021236 1.2601922
3.6721742 0.20581847 2.1039567
5.5097022 3.8576031 0.20206451
1.6334857 0.35359955 0.30357361
2.5479982 1.0380021 0.19525756
2.5419555 0.16917095 0.34896952
4.5571284 3.1357541 0.20314629
3.9450638 1.0191495 0.18663715
2.766536 1.4689025 2.1989071
6.1451974 4.2402959 2.0646343
1.8782921 0.3185026 0.20155762
0.42207602 2.4035337 1.519027
4.1651044 2.9083619 0.1885701
4.5416341 3.8725848 2.2088919
5.1239543 1.7485259 1.0497912
1.432616 1.6233698 0.20421197
5.519516 3.2139642 0.19076446
3.2173991 3.6520345 1.6706171
4.4790516 1.0939997 1.2698593
4.9079967 3.4301805 0.2073326
3.64252 0.20912734 1.6131794
0.42870802 1.7860703 0.30998021
6.2298703 3.8789384 1.1030947
5.3625865 4.0867109 1.9628693
6.2364912 3.9092832 1.2226759
3.0228953 0.60232913 0.20372385
1.6810163 3.3551626 0.54885507
0.46170926 1.700402 0.89491272
2.5612144 1.4871851 0.20122136
1.8633323 3.150852 0.1839501
5.9288821 3.6679797 0.20415746
5.3214421 4.0621724 1.4851087
0.78033328 2.7566252 0.19636008
3.907176 0.85020262 1.6441151
2.5480905 0.63015497 2.1981986
1.0319231 3.2356634 0.89550698
5.4180431 2.440361 2.1797197
0.66830432 2.1067212 2.1958644
3.8961751 3.8060691 0.23048253
1.071115 0.11508867 1.3232141
4.6773219 1.7273489 1.5853447
3.6260369 1.4296334 0.21631505
1.5891358 2.1075246 0.18535371
4.0428371 0.19451571 0.42891121
5.749579 2.6350732 0.80855626
3.1419492 3.6590314 1.0592222
3.8697047 2.566807 2.2074878
5.2247925 3.8965101 2.1919246
6.1458983 3.6636546 1.4471471
2.4399405 2.5222325 2.1868396
4.2537427 0.2374084 2.1583052
2.1361785 0.15045938 1.759851
2.8292744 1.437144 0.20709531
5.827455 4.196846 1.9029868
3.0501699 2.5384865 2.1926692
2.2660918 2.288568 2.1879313
1.3285638 1.1842053 0.18966033
3.5750847 0.19896951 0.94773966
1.969327 1.302386 0.19624782
4.8892803 3.1256044 0.20819154
2.7003489 0.28504047 0.18827625
0.44262815 2.5080135 0.1978002
2.389009 1.7964683 2.1949651
4.0136642 3.250917 2.1972792
2.7156811 2.832757 2.2089581
3.9842155 2.9176805 0.19783157
2.4798675 1.9584997 0.19125283
0.44712186 2.105767 1.7474126
2.3686776 3.4823105 1.9048984
3.2034726 3.6519046 0.78843242
5.6286459 4.1395822 1.9494616
0.44927096 2.0067167 0.40992641
5.1866832 1.8585409 0.18965429
3.1563921 0.17252754 0.98670733
3.3732133 2.9279029 2.186533
4.2377677 0.21485311 1.2199036
2.4549351 2.7690926 2.2076592
1.8154706 1.9522136 0.19747533
6.2981639 4.2475238 0.43292063
1.4083315 2.4402816 2.2140133
4.4842987 0.5749346 1.3541977
3.5511572 1.1783972 0.20038313
2.5667286 1.1831115 2.1941307
0.8176055 0.12074379 2.0278549
2.7719126 3.3368633 2.1958878
1.2063971 2.724107 0.200519
6.0851927 4.2038007 1.4946375
2.9732304 0.20981881 1.3526608
2.4127793 2.2373087 0.20069215
3.6186833 1.3829266 0.21192306
4.3104744 0.91086727 2.1658287
0.49387461 0.55725121 1.1896091
4.7096276 1.8189913 2.204679
2.2375956 1.4035051 0.20242275
3.9745474 3.8179872 1.6510077
5.2819009 1.7511636 0.60897714
5.9482327 3.0730293 0.38550097
5.1495905 1.7507379 1.1447767
2.5928538 3.0917933 0.19193752
5.103322 4.0449014 0.51362026
5.5499287 1.9931283 1.6498679
0.46691674 3.1147189 1.1662523
2.8100638 0.16803145 1.1018046
2.9514265 0.19110796 1.7666103
1.9380097 3.3838773 0.67478085
5.5024261 3.2995753 0.19887272
4.2122135 0.99311072 0.20936698
2.3774796 2.9384599 2.1809845
4.476615 1.0136386 0.82985079
0.64746714 0.12132263 0.52365535
4.4477963 3.6100547 0.19133176
0.42277047 1.9260031 1.8879911
3.7333338 0.21236928 0.79355633
1.3200297 0.27902961 1.6777904
1.6844317 0.14864177 0.20617726
6.3643403 4.2560196 1.4574562
1.691124 0.35907343 1.9386097
0.40836775 2.9528291 1.0934212
2.390028 0.50486445 2.0691383
0.50056231 3.11887 0.54989636
3.3905716 2.1430511 0.19673002
3.4732413 3.2556765 2.2036085
5.5880919 2.1734009 2.0326331
5.636476 3.1369119 2.1986339
5.6176057 2.1842432 1.1023977
3.9882441 3.8200023 0.97511441
3.2518184 0.5391826 2.1853597
1.1349535 0.67665386 0.19965436
2.6977892 2.682555 2.1848471
1.6739193 3.3449516 1.8806134
6.0234504 3.3106282 0.25729617
4.5037909 0.50908083 1.4212401
5.0273647 2.5096693 2.2112348
2.7416394 2.0119147 0.20004047
3.4778364 2.779211 2.1936562
1.8454185 2.3941646 2.2044351
6.3063478 4.0758467 1.5486466
4.2314367 3.0113134 2.1953518
4.3009377 1.7012746 2.2161624
5.2030301 3.2505705 0.1962027
4.5854287 3.9445038 0.65338367
1.9309562 0.41454262 0.55187112
5.5355272 2.0395508 0.91142052
5.9998794 4.2081623 0.93265224
1.8363024 2.4204352 2.1954679
0.91199738 2.806344 2.1979187
0.60019469 0.10597202 1.1227305
0.46470308 0.85982651 0.767088
2.8420272 3.5840201 1.5022265
3.9888074 1.2736207 0.18596847
2.5203228 0.16220114 1.6063942
6.0127802 3.3649311 1.6014236
0.71982378 0.14222446 1.4795567
1.203333 0.64361525 0.19381885
6.3187985 4.1864738 0.41209465
1.6379503 0.13880515 0.78877181
2.6431513 0.7323032 0.21741289
1.1501502 0.11660599 2.0493693
6.0573063 3.4290683 1.5387732
0.39120421 3.0706835 2.0504012
3.4270067 0.73626286 1.9622887
3.8931634 3.8020453 2.2074373
6.1032495 3.5628603 1.5683668
0.56105167 3.1265554 1.4855703
4.2021866 0.91585261 0.53592014
3.5835936 0.77978426 1.2941992
1.2673304 0.12343261 2.1546538
5.6950641 2.4417615 0.5668813
1.5824023 3.1162598 0.21589988
1.4385073 0.29676166 0.99669987
1.8040129 0.72290373 0.2001715
6.2952847 4.1095285 0.79946136
0.88778311 1.0625036 0.1817188
1.0884173 0.84474134 2.1896968
4.3593178 3.8858986 0.76513946
1.4503207 1.5544922 0.21950349
1.5081704 0.14920913 1.6214954
4.3840704 3.9056163 0.23866737
1.1492125 3.2346494 1.6809775
2.0360074 1.6453272 2.2133462
0.54432237 3.1269646 0.65097624
5.6993928 2.3937378 1.5463563
4.6980209 1.7282292 0.22817521
0.84019738 1.9320382 0.20263627
4.2827654 1.4109436 0.19306514
5.6528783 2.2676361 0.2671085
2.8806872 3.0615723 0.18728928
3.5325823 3.2710207 2.2037525
6.2759728 4.0455184 1.6897994
3.6462162 0.81522989 1.6604468
0.47641754 0.98290241 1.354666
3.2343278 2.8316295 2.1993837
2.4051013 1.2255527 2.1821344
0.78272367 2.6427438 2.1942122
2.9974039 2.0241234 0.20716859
3.5268886 3.5713203 0.21146373
2.5971146 0.5653314 1.1654215
3.2173469 0.69849712 1.4218316
4.6559491 2.2657316 0.20786652
5.6973624 3.2850442 0.20153587
5.9468737 3.1158664 1.7487894
3.5112615 0.19727966 0.81181741
2.0625641 0.45094022 1.241323
1.3528445 3.2772377 1.4657741
3.2127771 1.699222 0.19411255
5.432045 1.7657561 0.25987527
0.48252463 0.42206571 0.20566663
3.3118412 0.32339793 0.21009789
2.0245934 2.1914322 2.1937785
1.2410123 3.2943625 1.1873219
1.0215858 1.3048826 2.1926548
1.5170329 0.47789961 0.20381111
3.3117239 2.8932953 0.207093
1.374261 1.1045361 0.21652135
2.7099051 3.2246752 2.19946
3.0438066 1.9414977 0.19942151
3.7951901 0.19554558 0.48258996
3.0657969 3.6134903 0.83960384
0.82324076 0.1665678 0.44048527
0.76236081 0.1076427 1.1241351
3.047323 0.60417426 0.21358865
0.41338879 3.0604749 1.216731
0.43854114 2.0438237 0.21376273
5.2608981 1.7397087 1.2845632
0.51751721 0.092276454 0.9893207
0.42621228 2.3721433 1.5620503
0.60107791 3.1388612 2.0519907
2.3376832 0.1751771 0.62344879
4.9546313 3.946486 2.2205832
3.9891069 2.4476891 2.1883154
4.1130419 2.8553734 2.2103441
5.0056515 1.7329123 2.0479362
2.6125069 3.5474496 0.42502475
2.158205 0.43547985 1.8308241
4.2122159 0.22177775 0.95579284
4.2681437 3.8488765 1.1054045
2.917562 0.21367033 2.1833377
2.1418538 0.65010303 2.2015903
0.45079374 2.11396 0.34059456
1.5899975 0.38734126 0.20260501
2.1246653 3.4456692 1.5865383
0.62923503 2.6079745 2.1955941
2.0074244 0.54057693 2.1827614
4.986815 3.9776497 2.2024522
0.88188612 3.1840775 2.175931
5.4179115 4.1151938 1.4862802
5.1161346 4.0326843 0.89015371
0.64389062 0.13796318 1.5977821
0.40694082 2.8699217 0.90955466
5.1265087 2.760453 2.1896377
0.44473907 2.1380403 1.2941356
6.1894336 3.7935984 2.0907757
3.2268147 3.6470842 1.3406783
5.8912268 3.6357059 0.18398395
5.5627789 2.4761424 0.20512325
1.3905144 3.0810096 2.2101891
2.4033196 1.9822828 2.1990087
0.87361705 0.11862469 0.70739639
4.5922718 3.3626418 2.207377
4.0438614 3.8324037 0.30669987
2.068222 0.52247411 2.2126908
2.6647315 3.5527306 0.37784433
3.9026446 0.85250175 2.0614083
0.42231262 2.4029958 0.35578775
1.000891 3.2145813 1.7202874
5.4094505 3.8774278 2.1894846
6.3546638 4.2644677 1.7225928
0.71828735 0.11573067 1.6841058
3.5050714 1.8335801 0.20776869
1.0399876 0.10706315 1.5457864
2.2907205 0.49684128 1.2403436
6.15554 3.681093 1.4557409
4.4876552 0.44765508 0.52950442
4.2118835 3.8624077 1.3652805
6.1070409 3.5505497 0.62293208
6.1575379 3.7149258 2.2043207
2.6495626 3.5405991 1.7463447
3.9164402 3.2599006 2.1823153
3.6350787 3.7270765 0.39652357
1.9284095 0.58937478 0.18497887
0.66521055 0.87621534 0.21674165
5.8107228 2.7304301 1.0379708
4.4631033 1.53134 0.97764063
0.40826297 3.0001838 1.2052472
2.9490533 0.45750675 0.20676665
5.4969268 2.152668 0.21540582
4.4719591 1.7313923 0.35834509
0.48729712 0.73705578 1.0433489
1.5416081 2.992512 0.20065369
1.9338634 0.13208753 0.53212279
4.9315629 1.7401741 1.2107934
5.1350842 2.236392 0.19621925
4.2064009 0.90139616 1.6468157
6.2614532 3.9794743 0.83550513
4.466794 0.64195871 2.1535716
0.46209297 1.5969321 0.19827805
4.3300633 3.3336961 0.19583568
1.8893058 3.4084549 1.9255059
6.1968374 4.2431092 1.5149217
3.2123184 3.6629198 1.7072771
5.1347933 3.9699879 0.20263843
3.2028198 0.77301139 0.20092106
3.595612 2.7806084 2.1989295
0.59496349 2.682147 2.2004666
4.5596919 1.7324476 0.91041434
3.0813231 0.55368167 0.20218803
2.169549 1.7839259 2.2099123
5.766325 2.6309178 1.5481944
3.7371712 0.19279073 2.0031681
2.2181931 2.9368184 2.1994171
4.0883684 1.6079327 0.20592342
6.2178645 4.2613115 2.1442626
3.8894532 0.18679389 1.514738
4.0936852 0.69901049 0.19859686
3.6607387 1.7010398 0.20247672
3.490845 1.7273725 2.2029669
1.3395884 3.1820853 0.20624223
4.0938864 3.4944975 0.21630535
4.4863772 0.41806427 1.7126195
5.4606967 1.8418492 1.434806
4.9381933 2.2501998 0.2041005
4.2466316 1.4346102 2.2070014
4.4973893 0.26637131 1.043222
3.149425 0.74056071 0.21043742
4.2673712 0.3574858 0.20528787
1.2833514 0.12525569 1.3332574
2.3979919 1.3938724 0.21420269
1.5655626 2.9276478 2.1828139
3.5265813 0.19628255 0.43578732
1.7421944 0.37073901 0.61924869
4.7002969 1.7383007 0.44356644
1.3683763 2.4519989 0.19918427
3.0238271 3.6222839 0.82722467
0.45826229 1.6706268 1.9337255
2.7126923 3.1202984 0.19439858
1.9980659 0.42666054 1.0293975
4.4834499 0.38411537 1.2751105
3.9575751 0.87525254 1.9904922
2.7819829 3.2187676 2.2030585
4.4750023 1.1806136 0.64294839
4.4684439 2.4062147 2.2018216
1.6582043 0.11405097 0.54151267
5.9933753 3.2822523 2.2036719
1.4987259 0.2084004 2.1895587
2.7078211 2.4988401 0.19174226
4.4654121 1.2997166 1.1960318
5.4029665 2.6533973 0.20060521
3.4781575 1.5198373 0.19276652
0.4414835 1.6231382 0.98192936
4.6036124 2.390049 2.2018785
4.441155 3.894006 0.30541721
3.202667 0.17732364 0.92821616
0.54388934 1.0003675 2.2033565
2.1521716 3.4479539 1.9096287
4.0175872 3.6834035 0.19892143
1.5589237 3.3170483 1.605996
0.97616696 2.3405228 2.199455
2.3945241 0.71073264 2.1987467
2.8584216 0.17191018 1.2678525
1.2677095 2.4033601 0.21033871
2.126519 3.4513624 1.9068129
1.072881 0.22945735 0.25262502
0.45767894 1.6239401 0.89826024
4.474628 1.7138363 1.318887
0.51703149 0.098976076 0.45761293
3.2689881 1.613402 0.18969052
0.50159603 0.091615751 1.9058373
0.96308112 1.0793446 2.190079
3.8492174 3.2161212 2.2048342
0.45942107 2.0045345 1.116931
1.1066117 0.23058775 1.2418785
4.5559969 3.7815995 0.19779418
4.3923702 3.5931447 2.2055452
5.7372389 2.5437453 1.6470176
2.8540473 2.0607507 2.1928658
6.3303466 4.2879744 1.1291685
0.69554389 3.0396173 0.20655139
3.2480278 2.7467928 2.1864684
5.0300469 3.621943 2.1896579
0.42603928 2.6480598 0.92882109
5.7828445 2.7158277 2.1303799
3.4391177 3.7071748 0.34445244
6.3356104 4.1662011 0.47869271
1.457171 0.12327801 1.9772756
5.9177613 3.0213599 0.88400573
3.5737519 3.3636088 0.20534983
0.78855669 0.17610832 0.36623576
5.2487793 3.8945079 2.1877108
1.2489545 3.2639685 1.4606441
3.0943093 0.35903427 2.1890197
2.5675106 1.3305401 0.18922316
5.8598843 2.8801172 1.6578344
4.2795553 3.0389977 0.20596492
2.7982037 0.3325986 2.1836884
4.8532257 3.1490972 2.2025657
2.7764044 3.5885835 1.8517734
4.1747303 1.5599548 0.19466996
2.3719974 0.52159071 0.58539075
0.49000078 0.51834768 0.51853627
4.4866934 0.91613817 2.0762274
2.0350575 3.426167 0.86968672
4.465003 0.20991749 1.3507442
0.910806 0.12360437 0.74244761
4.0965323 3.8106773 1.8363061
4.4830732 1.2574422 1.2239701
5.5585947 3.8885548 2.2001028
0.86767113 0.18796894 2.1921577
0.40874296 2.5357571 0.51758921
3.2835941 3.067045 0.18267746
3.3909171 0.73405594 2.0959115
6.2520022 3.9915717 1.4108479
2.3206325 1.5281386 2.2119937
2.9555881 2.0212858 2.1970801
2.9349678 0.16362631 1.7651448
2.8269007 2.2651227 0.20092972
6.2466488 3.9567106 0.52365857
2.7632802 0.1664753 0.42185026
0.44208598 1.4977071 1.1723872
0.50793332 0.13981593 1.4593438
3.2418063 3.6401799 0.26164925
3.109503 1.6370158 0.21450472
6.0370955 4.1949749 1.2320976
2.3139381 0.26705572 2.1991892
6.1122313 3.5662897 1.2428149
6.0017853 3.2463245 0.67152447
4.4456224 1.7117873 1.0217739
4.9880247 1.7358987 1.9480785
1.0850265 0.12718306 0.29467434
6.3148994 4.2042851 0.37875542
4.4757118 1.4048103 0.82676113
6.1976209 3.8421073 0.7502861
4.4896631 0.3864381 0.92729175
2.4484572 2.7333572 2.1978693
0.64586186 0.091358528 1.6787924
1.1573117 3.2485464 1.6773303
0.48984978 0.13387673 2.0043402
5.2128768 4.0571146 0.90056658
3.3948202 3.6976304 1.9925369
5.1344051 4.0509534 1.2894286
2.409445 0.14812142 0.90782171
5.6594143 4.136498 0.75854033
3.7967634 2.6238308 0.21250831
6.3479462 4.2095213 0.41969326
4.9315391 2.2600136 2.2067444
5.3299747 3.7301321 0.20346287
5.1936574 3.6414905 2.2007799
1.8966568 3.4003069 1.388905
5.5800233 2.739363 2.2002358
5.166563 1.8709227 2.1931736
1.1169757 0.22725466 1.6471095
6.2112803 3.8722887 1.9587351
0.48352548 0.92582351 0.82358927
5.5038376 1.8450427 2.0712938
5.2127132 2.7521594 0.20174728
2.0546379 3.4319315 0.9950695
3.8636172 1.3975742 0.20850463
0.49608755 0.45741463 0.26581636
0.45806792 1.3580869 2.1656792
1.9684554 2.4993577 0.18733594
3.3560326 0.17275617 0.73957819
0.40651107 2.9856105 0.56147599
4.8714843 3.6369586 0.19665881
2.3013048 0.96224004 2.1987298
1.2988702 0.21784145 0.20807119
2.1427093 0.15049759 1.6931353
2.5345404 3.5256772 1.6896687
0.87891841 0.65772808 2.2043803
0.84214461 0.4332175 2.2092233
3.7644749 2.7589712 0.20775563
3.7526877 2.2185025 2.1847689
3.6713576 3.0152068 0.19501409
1.0783075 0.23173162 0.84310889
1.7310057 3.3728745 2.1178572
4.0116673 0.61936921 0.2038766
5.7354536 4.1639071 2.183295
1.1277595 1.4687918 2.1835613
0.45238137 1.6424234 1.439669
5.0671954 2.5932522 0.18959254
2.0891571 1.209307 2.1930022
3.3898113 0.73697019 0.83470213
4.5118222 3.5548651 0.19256301
5.476675 1.8713279 1.3295795
4.4372959 0.95927072 0.68043143
4.1206884 0.23107249 0.1923649
2.3814001 2.4730399 0.17943498
4.5008898 0.61452162 1.6049824
0.46981636 0.58665234 1.1235626
0.94255656 3.1966701 0.29426119
3.7959335 2.3055415 2.2013121
3.445272 2.3864858 2.1954086
2.8565252 0.61851835 0.73928958
2.6655211 3.4083962 2.2043679
1.2275705 0.55513102 2.1960709
1.7202672 0.14422178 0.23527575
0.46885034 1.1999847 1.8259306
3.6987708 0.80403775 0.56450969
2.3611519 0.16191617 0.87020057
2.5614283 2.0858214 2.204757
0.50137931 0.34329966 0.42958176
0.64662659 3.0634491 2.1911232
0.58119553 0.75150615 0.19756004
0.98856139 0.19985735 0.61727238
6.3506894 4.224256 1.1921629
1.762563 1.2768521 2.2118123
2.6959355 0.59599161 1.752928
3.7306929 1.3671159 0.21059841
0.43771785 2.3477497 2.1573989
2.9628024 3.6143544 0.78637809
1.0329057 2.6808233 0.19508079
4.9265981 3.1394479 2.2033591
2.1732376 0.47994962 1.4674078
4.4655862 0.9691999 1.7220007
3.6392305 2.6725368 0.20028634
3.9089289 1.3718206 2.2137954
1.0611196 0.18684503 0.19551726
1.3202422 3.2759712 0.51930773
2.9638646 1.6908714 0.19918555
2.4156184 1.3015426 0.20660229
0.4523074 1.314834 0.35941082
4.6361265 1.8763334 2.207154
4.4640827 0.96331239 1.1088504
2.8307059 0.50748777 2.1960855
0.42837769 2.9194179 1.6991787
0.43106088 2.3724446 2.0163128
1.108405 1.5277449 2.2239707
2.1416297 3.4329095 1.1635336
1.9014906 0.14610243 0.82708997
2.2566581 3.1711612 0.21133429
5.6070991 2.1622937 1.1502178
1.9874206 0.41282168 0.54148269
6.1404862 3.6125369 1.7498935
5.0483165 1.7420697 2.1480122
3.4153094 0.54887187 0.19556832
4.508575 0.31214851 0.35936025
1.9155422 0.4158946 1.6404182
0.78400671 3.172183 1.0909628
2.857482 3.1295307 0.17592245
2.7662406 3.3218386 0.19714136
4.537333 3.4812574 2.2162576
3.71398 3.6981082 0.19987872
3.4654093 1.2546133 0.20042107
3.2890673 1.8799518 2.1951683
0.74154967 2.1601868 2.1868496
4.4589148 1.3378195 1.2250677
0.58392203 2.778368 0.19540936
0.44292432 1.8490739 2.0170581
3.9227149 0.24903041 2.1888409
1.3052472 1.8800031 2.2027752
3.1099601 1.9812424 0.19766469
4.1552024 3.822331 2.0906947
0.45323017 1.4021368 1.3566827
3.1289527 0.28637007 0.19870156
2.1002078 0.14038482 2.1826913
2.7478831 0.48823321 2.216918
1.7961982 3.3736668 1.527501
1.7210439 2.832442 0.20539851
1.1557717 1.3493538 0.21578562
3.1485569 3.6328013 0.79239357
4.1881456 0.21561384 2.1284978
2.7550344 0.16503395 0.62538379
2.3635721 2.2764795 0.19291331
2.3282762 2.874886 0.18276736
4.9822974 3.132978 2.2165337
2.9281158 0.64493245 0.53509837
4.0767622 3.8020647 2.202179
4.1195383 0.44543174 0.20812461
5.2751803 3.7336397 2.1863065
0.44367665 2.1234679 1.3245543
4.4284601 0.50825214 2.2012398
1.6787338 0.35265657 0.31291842
1.3893514 3.0494802 2.2053757
2.3813009 0.50679672 1.8206004
1.6274703 0.16311392 0.18481682
5.4168444 2.6263793 2.2001476
4.2328086 0.21720323 1.5055728
6.0601621 3.4100182 1.8548651
4.5580831 1.7356421 1.9289335
4.3776011 0.22173743 0.86885613
3.0268414 3.6201568 0.33680233
1.1613387 0.22534752 1.9797174
0.85438168 2.706646 0.20173728
0.43418714 1.6559852 0.34766078
4.8221865 3.9817748 1.3706537
4.1044559 3.84108 1.6212512
1.1760798 0.247035 0.33403718
2.2995169 1.5803602 2.1951058
0.42987898 2.4636846 1.4814404
5.0600414 2.027915 2.1938641
3.9259245 3.7911973 1.5579739
4.1437497 1.9348723 2.2056019
0.48441157 0.33961746 1.0946913
4.5914922 2.2761493 2.1937292
2.9250884 2.1864712 2.199425
4.8612962 3.451273 0.18429334
0.73456049 1.4156207 0.21061148
1.9601144 0.13793659 0.89681494
6.2573195 4.0041208 2.0697477
6.3472018 4.2826233 1.1329284
3.4590669 2.8778937 0.18637609
0.41982698 3.0090508 1.2798493
1.7821387 0.38643444 2.156009
6.0713291 3.4300678 1.3380929
3.7994995 2.3703148 2.1991057
1.6435969 3.3257468 0.52422941
1.9892467 0.42474428 2.0195591
2.4983878 0.53852427 1.396953
3.8985894 0.86778975 1.5746841
1.8694574 2.2297907 0.19968627
0.86941671 0.16413845 1.3872874
2.0413163 1.7955397 2.185837
2.0350206 3.3120074 0.20696402
1.6093904 0.33665642 1.9172106
0.64811218 0.1166134 0.76906419
1.1381571 0.12260655 0.67919129
1.5359598 3.328711 1.0509367
0.44660431 1.8139477 1.4437981
4.6651773 1.7328365 0.67914522
0.59532881 0.85753274 0.21670678
3.3639395 0.51583934 2.1917911
5.3004785 2.9518154 2.1883471
5.006072 1.733362 2.0309081
4.4800987 1.0611075 0.55762386
1.4019456 3.0676799 0.18900524
3.474674 3.7095425 1.6117454
3.9489808 3.7871432 0.37917823
2.1997285 3.0955503 2.2013113
4.7809877 3.9671476 1.3257413
4.700851 1.7219006 1.6199293
4.4002609 0.96216631 2.0603197
2.4224386 1.0874938 2.2042785
