# .PCD v0.7 - Point Cloud Data file format
VERSION 0.7
FIELDS x y z
SIZE 4 4 4
TYPE F F F
COUNT 1 1 1
WIDTH 1563
HEIGHT 1
VIEWPOINT 0 0 0 1 0 0 0
POINTS 1563
DATA ascii
4.4517822 1.555019 1.0965163
3.7128861 3.192162 0.19304642
4.4733877 0.59405553 0.72322947
1.9144046 3.4232028 1.7101471
4.6630726 1.7401537 1.3819282
1.5772657 0.15998214 0.18915004
3.9404247 0.71202755 0.19974957
0.82202655 3.2002907 0.89594138
2.0941379 1.1326609 0.21679488
4.1971798 1.4729757 0.19525756
0.4248932 1.8367337 0.56242645
3.3098514 0.57845014 0.20314629
4.5165811 3.4226089 2.1866372
6.2534876 4.2559543 0.69233435
0.6598351 2.5126357 0.19010314
4.3840985 2.2898767 2.2015576
2.7977607 0.58512414 0.68454427
4.7136164 1.8823562 0.1885701
1.212533 2.2214518 2.2088919
1.6130904 0.65878403 2.2040098
3.0028138 0.65980232 1.3142334
3.7007034 0.80408823 2.0743191
4.4981241 0.25311908 1.2502577
1.605289 2.5366797 0.20349355
6.0609765 3.4227142 0.81977826
3.2790599 2.7962875 0.19086167
0.461979 0.72737098 2.1972742
3.8595049 1.8466341 2.1973927
3.6972291 0.75974011 2.2129314
2.0196564 0.81125128 0.21486178
1.6197491 3.332278 2.1355214
1.2756327 0.46695843 2.1985168
0.42982942 2.7148345 0.60595411
3.0206273 3.6232369 0.93594247
2.6508715 1.5671283 2.1839502
3.0348866 2.1633463 0.20415746
2.9463518 0.62362695 1.9954797
1.8915128 0.67496461 2.1963601
1.8535657 0.14315772 0.35174543
1.7784781 1.8403575 2.1981986
4.8490734 2.9184763 0.19217904
4.7947016 1.7350881 2.0236409
0.73734939 2.7951672 0.19586456
4.580512 3.6347218 0.19145977
0.46075067 1.2239393 0.6641919
4.3171749 2.3615828 0.20229362
6.3546352 4.2516465 0.96020883
2.8631496 2.5855753 2.1853538
0.81026906 0.73856205 0.19263569
1.802753 3.372184 0.9845522
4.5545797 3.9403372 1.4994224
2.6038716 0.58179039 2.0707092
2.0544386 3.0167072 0.19192451
6.2932043 4.2723689 0.62183994
1.6846457 3.08532 2.1868396
6.1145535 4.2554708 1.7639599
2.1315575 3.3879004 2.1974576
3.306936 0.93388957 0.20709531
4.2332301 2.1631234 0.20377634
2.9002542 0.20964345 2.1926692
0.44244394 2.6407452 0.18793136
2.5753884 0.50417155 2.1896603
1.1102209 1.7317255 0.18708208
3.4035423 3.0875947 2.1962478
4.2260456 2.701256 2.2081916
1.4968266 2.6912115 0.18827625
3.0983899 2.4444621 0.1978002
1.604637 0.33781382 0.89324903
2.529171 0.5136593 2.1972792
0.43497893 2.6718664 1.4720033
0.49068922 0.49965617 0.97146159
5.7728791 4.1746426 1.0736588
3.3453221 2.1968396 2.2108812
2.1769595 2.2013557 2.205019
6.2112036 3.8552842 1.1166214
2.8605051 1.0009038 0.18932821
3.599088 1.7760298 2.1926367
2.4951189 3.5168893 1.9794282
3.0272219 2.3562727 0.18746777
5.0004005 2.0733616 2.186533
1.3991995 0.87922716 2.1847112
4.4976883 0.69559443 1.7549571
4.0809565 3.2376471 0.19747533
5.226963 2.5443151 0.21508969
1.140311 0.23514602 2.0475385
0.75891984 1.0689036 0.19726904
5.6048913 2.2163956 0.48347276
2.7426739 0.55323946 2.1941307
4.3211679 1.2741338 0.20069994
0.45682997 1.4925042 0.41687942
3.5506072 2.5785847 0.200519
3.88973 3.7666051 0.33099052
0.93490678 1.3136275 2.1916795
3.6827981 0.33066639 0.20069215
1.5488145 3.3129635 2.2087669
3.1798198 0.86071241 0.19130225
1.0739079 0.252792 2.2007906
0.74815053 2.9810717 0.20467897
2.9774597 0.84878689 2.2024229
0.85453677 0.11843926 1.0565062
1.4983147 3.3158889 2.0618365
3.8644753 1.335351 0.19873518
3.9820845 3.2131362 0.20298494
6.1877375 3.7774422 2.1249843
2.4814279 0.17059591 1.716087
5.8456664 2.8055978 1.0438465
4.4821858 0.89875609 0.62909609
0.44890827 3.100867 2.0160489
4.4541826 1.5806793 1.2748668
2.0718601 2.7131293 0.1939882
6.3148003 4.2801313 2.0248151
5.7559214 3.5248871 2.209367
2.1673567 2.3847706 0.18098441
6.207375 3.8704054 2.1856441
3.2161582 3.6753685 1.4110202
4.5051951 2.7448997 2.1913319
5.4884906 3.4406357 2.1947699
2.5720406 2.660219 0.21294007
0.46145362 0.9483164 0.97828817
5.6083174 4.1322155 2.0915358
2.3499064 0.49695602 1.078306
5.0452299 4.0190811 0.95416105
0.94218898 3.2034497 1.7852609
6.2994967 4.2606692 0.21238428
1.8753339 0.14423501 0.34720916
5.8373909 2.8489823 0.28778982
1.0090148 3.2105806 1.5811919
0.39554679 3.0153723 0.57166344
2.9724693 2.2929716 2.1986339
0.50381821 0.31759679 2.0718567
0.76121533 3.1773849 1.899124
6.2485561 3.9342651 1.0265033
3.5069568 0.48019409 0.19965436
4.1914325 1.57522 2.1848471
5.0816646 4.0235562 2.0324738
1.175869 2.7640455 0.2046231
2.0053616 0.42541856 0.4830488
5.4018168 1.7543784 1.9473473
5.1468439 4.0489712 1.5518879
2.1098518 0.43683434 0.20336895
4.1803045 3.8180771 2.2044351
4.5029263 0.37481165 1.8615403
2.0879102 3.4463172 1.9304771
5.0571256 4.0281539 0.3534486
5.9944787 3.7460129 0.1962027
0.85883665 0.12281873 1.2295843
0.72998881 3.0232306 0.19797461
0.56433439 0.11652839 0.6007669
0.95888668 0.19691221 1.5760636
5.1249785 4.0441842 1.4788562
0.47898924 0.70656687 0.56748283
4.4411497 0.20829004 1.5136241
0.5211463 0.94762301 0.20041946
4.6883483 3.0053663 0.19300696
5.4111857 1.7459129 1.686769
1.5191513 0.32341734 1.3654455
5.7513537 3.374507 2.189409
0.84614384 0.17004317 1.6878189
3.8726993 1.6473747 0.19381885
0.39380699 2.9910955 0.28225097
0.4575209 1.5802917 0.67607182
3.2997026 0.19077066 1.5853603
5.1804671 1.7440044 0.30428827
4.3254309 3.4539819 0.18751992
6.0480847 3.4320869 0.56929529
5.4975071 2.3415272 2.2148902
4.4818897 0.72885913 1.3885566
2.921648 0.16482705 1.3795611
5.8068624 2.7587402 1.7026554
5.5200505 2.8666306 2.2060921
2.7084603 0.17217998 1.2591529
2.7498765 0.95555085 0.20721111
4.7740817 3.1069582 0.17563158
0.42616817 2.5078619 0.64596081
3.6953382 3.5838549 0.18439201
5.4772363 3.1867597 2.2001715
5.436142 2.9795208 0.19814844
1.4416289 0.31852809 1.913128
0.53129584 0.091128483 1.107487
2.4418314 2.5518281 2.1968765
6.3518414 4.2857361 1.7632588
0.45242167 1.7641151 1.0136189
4.4756398 0.23837993 2.0391932
2.2673163 2.5616798 0.20168912
1.2240179 1.9336098 0.21334618
0.84734678 2.557795 2.2013159
5.8748088 2.8756521 1.4731619
2.0016704 0.14275254 2.0830872
3.345629 1.3401617 2.2026362
0.45130754 1.2113283 0.86286098
5.6865897 3.5973341 0.1887162
5.8038473 2.7002048 0.35772854
3.927 3.0380802 0.20375241
3.9645405 2.3428545 0.19957481
0.8877064 0.13521057 0.41340327
4.7926292 2.4968557 2.2141113
2.0212684 0.13926561 1.4466308
2.638041 0.56884801 0.59507114
5.5955977 3.6522882 2.1942122
2.6471679 3.5335991 0.25153291
3.7122817 0.19640838 1.6389079
2.844276 3.5875239 1.3886536
2.6508062 0.16558781 1.2995092
0.47047141 1.0172511 1.2024549
4.2854843 0.92524409 0.28079575
0.46922845 1.019963 1.2924212
4.4615097 1.2300603 2.006134
2.5468769 0.17080283 1.9991699
5.0920005 2.4379311 0.20217332
3.0390615 1.3715018 0.19411255
0.7793175 0.11879769 2.0302413
0.40182078 2.9683442 0.85683918
5.983851 3.2213964 0.34457171
4.4556227 1.5455507 1.6221704
4.188899 3.8813927 1.9423504
5.5721622 2.0942163 1.1857101
3.1325743 0.82204747 0.20381111
6.2879696 4.0584579 1.3266073
4.7403803 3.9745843 2.0375302
6.1099763 3.5831361 1.9158075
2.1604879 1.395769 0.19942151
0.42337635 2.842051 1.1619924
5.8139944 2.7509165 1.399196
1.2760986 3.267293 0.22856027
4.4543447 1.5068034 1.7498952
2.5329123 0.55057627 1.8744805
5.7406421 4.0697002 0.19870014
1.4358671 2.1232054 2.2137628
2.1064897 1.402251 0.2023636
5.6874456 2.355577 0.74039638
3.3563023 2.3501594 2.1961601
4.4044023 1.1224365 0.21495065
2.9701471 1.7847615 0.18594195
2.1235433 2.759043 0.22058316
3.343643 1.7026527 2.1883154
4.7293386 2.361783 2.2103441
2.7345903 0.1608007 1.9147468
4.276145 0.22707933 1.4152942
0.53958821 0.079021744 1.5705712
5.3093853 3.790246 0.18731146
4.9739838 3.1673095 0.19619267
2.2250981 1.035767 0.18333763
0.41089895 2.4528787 0.86445481
0.79050922 2.1418822 2.2093918
2.6067412 2.4103065 2.202605
3.6439497 2.391078 2.2195625
4.6635885 3.9383116 0.29532209
1.3825314 1.3812344 0.18276134
1.6382856 0.12868081 0.46892023
6.0304294 3.2514589 0.63349521
1.1008728 1.7726755 2.1998045
1.0335817 0.21346334 1.7441043
4.1342173 2.6117365 0.18816479
2.8920333 3.5911572 0.68985075
5.2686272 1.7498642 1.3021067
5.5170426 1.9166967 1.4326643
2.1302993 2.6723163 0.20738621
5.28579 4.0504375 0.19325538
5.9051433 3.3237195 2.183984
1.8923744 0.56771767 2.2051232
4.0963669 2.1723371 2.2101891
5.6349478 2.2881303 0.31508347
4.7693009 1.741792 1.6984065
0.46913517 0.73033249 1.6256821
3.4909449 0.2032548 1.607311
2.3050461 2.1539395 2.2126908
4.2033682 3.8591285 1.1366558
0.95307571 2.0395746 0.18585418
5.9073043 3.060246 2.2232862
4.7957854 3.473316 2.1863165
5.4374428 1.7536325 0.76414883
2.7531629 3.562655 1.9931515
1.0858006 0.12728024 1.7199752
5.5084295 2.9727976 0.20776869
3.6179724 0.3041234 2.1929836
3.7126491 0.20591858 1.159374
4.0648136 0.89049 1.0935209
4.4588976 0.96912742 1.8297483
2.8955588 1.4920157 0.20180799
5.3836761 1.7438419 0.70135379
2.6459541 2.5413368 0.20432068
5.924983 4.1362824 0.20445865
2.4766388 0.52374494 0.92494583
4.4977341 0.53301305 2.1147079
4.3831816 3.1264293 0.18497887
3.6113079 3.7297266 1.4234418
3.5058575 3.718591 1.1805062
0.56523442 2.2475352 2.1888878
6.1571236 3.6953213 1.6309117
3.7548606 0.40890548 0.20676665
5.7253919 2.5129299 1.9452308
2.3923686 1.8288392 2.2101214
3.3626289 3.0875475 2.2098734
6.3291416 4.2352571 1.970449
5.9376049 3.0660036 1.0815237
3.1423624 0.1832056 1.7010187
1.5762154 1.6735109 2.1962192
3.2279761 1.7136781 0.21715111
2.6791828 0.59959948 0.20873085
0.44295758 1.3376061 2.1894915
4.0477495 0.9434635 2.198278
6.2397146 4.2101288 0.19583568
4.3904247 2.4707813 2.1947219
5.2512474 3.0214999 0.19927795
5.6222663 2.1986413 1.4370277
4.376626 3.2895124 0.20263843
2.4753544 3.5190785 0.63694602
2.5702007 0.83481318 2.1989295
2.980731 3.1654367 0.20046656
2.7546906 0.26853645 2.1928606
2.8623321 1.4082171 2.202188
3.2016051 2.6977556 0.20991224
2.9694893 0.18552093 0.74929863
0.99928159 0.41372493 2.195899
0.94227201 3.1982365 1.761458
0.45819187 1.3148241 0.2473966
5.8841801 2.9340494 1.3488513
0.70587671 2.3861547 0.18484889
3.5001996 0.66793287 2.198597
3.6421914 3.499975 0.20247672
4.7141123 1.7198026 0.51403505
3.1742423 2.4292986 0.20624223
5.8824277 2.9868181 0.32925281
1.1357143 0.25638747 1.0629497
4.0650845 3.8441982 1.2146279
0.51441914 0.1136565 1.0588771
0.89408898 0.18394767 1.7935609
4.3826847 0.95277572 1.8510314
5.898932 3.8419421 2.2104375
5.5106487 1.9370935 1.0090005
2.4932365 3.5130742 1.8894632
2.4155481 3.4792583 1.8220419
3.8671947 0.84357363 0.49372929
1.7398658 0.44214615 0.18805766
0.51340294 3.1171324 1.633858
1.1088047 2.9457784 2.2004361
5.8770232 2.9536164 1.7625663
5.964427 3.1460373 1.7675619
2.0429673 3.1112502 0.18806532
3.6656375 0.28201723 0.19439858
0.92531222 3.1986623 1.5175103
6.1463628 4.0158248 2.2028289
2.4672971 0.54705769 2.0003364
0.86288315 0.17707941 1.4465714
1.975433 0.14511745 0.20662121
2.5897698 0.16425732 0.4272477
2.0002995 3.3950927 1.567552
5.5792084 4.1295476 1.8629694
0.47845763 0.38917449 0.60530293
4.6896925 3.483577 0.19174226
1.0847269 0.11456997 0.86521202
1.7833498 3.0368595 2.2006052
2.8191299 1.4084157 2.1927664
1.3643564 0.84060812 0.21761875
3.3722336 2.3371961 2.2018785
3.2526436 0.17835085 1.9016798
3.0479195 1.1365225 0.19468954
3.4777966 0.7474497 1.426355
4.6499486 2.6275299 0.20535225
0.60485494 0.1081416 2.1128416
2.3806314 2.8266973 0.20712966
1.4719059 0.15736599 2.199455
0.92859459 0.18864647 1.3139535
2.5642776 1.6704799 2.2218518
5.5397601 4.1134953 0.7115882
1.0584676 2.3355417 0.22657144
4.5426712 3.9255736 0.7035346
2.7956328 3.5828223 1.3322157
2.4228263 3.0168138 2.2032323
3.3368607 0.37672856 2.2030759
0.57225972 3.1425984 0.4932636
0.8828885 0.17197895 0.30889338
1.5699815 3.3240442 1.6841581
4.1814756 3.8586178 0.65511376
6.0002503 3.187562 1.1720625
2.410675 2.5401101 0.20154755
5.0016704 2.1582901 2.1977942
4.4431276 1.4140259 0.20554522
1.0515379 3.2349455 0.6332733
2.7341082 0.58163911 1.9418212
0.94298518 2.4138443 0.18924624
4.7483168 3.7150769 2.2065513
1.8122096 0.15700155 0.49571609
5.533474 2.9628937 0.18965799
3.3810909 2.4891562 0.21280865
4.7616148 3.9620669 1.7243361
4.2445679 1.5640727 0.18985786
4.4830031 3.9009538 0.93142158
1.7988586 0.37837791 1.9881207
2.7846644 0.16430332 1.1999456
2.4528036 0.17304111 0.60676593
2.0639486 0.45698011 1.300554
1.6094865 2.7611821 0.18771088
4.4583664 1.4765605 0.420798
0.53872603 0.099355429 1.5563434
6.1298494 3.6371453 0.82364374
4.4526415 1.441166 0.32390165
4.3079615 0.31487894 0.20596492
3.7003863 0.21213275 1.9792818
6.0590339 3.4101412 1.3959407
1.9807373 0.16488317 1.3474933
1.5132735 3.3192863 1.1169944
0.48541453 0.39542472 1.160472
2.135463 1.6165309 2.1897604
1.5540645 3.3186002 0.26606709
5.5880136 2.1418543 0.57607234
4.449832 1.5994363 1.7952583
5.4930611 1.8318958 1.3397118
4.2135305 3.833976 0.58097661
5.9765391 3.1476192 1.3337245
0.54437768 0.11758326 1.9411615
5.7219214 2.4911575 0.29677534
3.2947657 1.6061057 2.1961007
3.7806721 3.2650578 0.18267746
5.501204 4.1104074 1.8407441
0.45908338 1.0578831 1.4214486
0.44351131 1.5735756 0.3210094
1.470926 3.3177145 1.0201006
3.3308258 1.5265148 2.1998918
4.3293509 3.8858666 0.27636397
6.2762017 4.0379009 0.63048095
5.798305 3.9043062 2.2066538
2.9558673 0.83645058 2.2076385
5.5367928 1.9581704 1.7327149
0.66240668 0.11252881 1.5925268
4.235291 3.857841 1.044471
0.98404658 0.091900915 0.40823472
4.4894366 0.44131991 1.5339867
1.9088445 3.3980761 0.56864858
3.0985386 0.18728131 2.2032557
1.0818808 1.5751703 2.2158782
4.9550734 3.156517 2.2045155
2.9877117 0.99672294 0.19374374
3.2976708 3.0276935 2.2024145
1.5285149 0.63547814 0.18892552
3.8438163 2.3687875 2.1920922
4.3934374 1.6496973 0.20467752
2.4668341 1.1214076 2.1978693
6.1067023 3.4713194 0.67338282
4.218504 0.91940504 0.42064103
5.4764566 4.1218834 0.44986895
3.8352983 1.1663228 2.1901841
4.4563551 3.4350588 2.2093952
5.1326103 2.6464117 2.2058871
4.4188132 0.89155638 0.20491616
0.50512403 0.55260617 2.1192174
1.8248171 0.39158028 0.56277907
1.1138866 1.290383 0.21330988
0.4795844 1.4274977 0.95180047
2.4304187 0.52611613 0.55768394
5.6164098 2.7419379 2.2007799
0.83349311 3.1885929 1.850412
2.3615859 0.50154531 0.81664044
1.3436196 2.7582026 0.19317354
1.7624604 2.9021964 0.21009648
4.1822615 1.351215 0.19447818
2.0418386 0.15881276 0.85576355
4.4734993 1.370599 0.18601802
2.1621795 2.7538447 0.20174728
1.609664 0.34940207 0.20138589
1.0785222 0.22578925 2.1737084
1.8515854 0.13507336 2.1687531
0.58877915 0.28339806 0.2008263
0.79087949 0.15055284 0.4412238
4.4857955 0.70676845 1.3682995
0.87316847 2.507139 0.18931179
5.1497846 4.0405002 2.0173221
5.6863365 4.0708666 0.19872987
2.8962879 3.5899673 0.76829022
1.8844523 0.40245694 0.75047469
5.0367246 2.6787164 2.204179
5.8174944 4.1797614 1.8077102
5.1597581 3.5099859 0.20922326
4.5981898 3.9281962 0.54834366
1.1819766 3.2499709 1.5087471
4.4745579 0.86953872 1.2543024
1.5112922 3.3226559 0.69903511
1.8727216 1.3391327 2.209599
0.65885258 0.15093905 1.4926283
2.9907167 0.18757096 0.97844374
4.6048894 1.9627664 0.18356131
4.1583309 3.397279 0.19165103
0.46258295 1.1842431 1.8877342
5.0956731 1.7421616 2.1131744
2.2149224 2.7996585 0.19722725
4.1057024 3.6502073 0.19256301
4.0275335 0.8926127 0.82712376
0.41021436 3.0455906 1.2391019
3.3421578 0.17397639 0.83489853
0.46806243 1.0135906 1.2247225
3.3903546 3.674032 1.3819526
5.1520834 4.0392289 0.92019606
3.6333792 3.7325096 1.3693856
3.4110482 3.6966896 1.9110942
5.9701748 3.1759229 1.3047129
0.70626831 0.14498031 0.56671947
5.7440019 2.5692255 0.40400681
0.43843669 2.2661541 1.0351455
4.1393242 0.22024372 1.1979597
3.270123 2.3313754 2.1992025
2.8711843 2.3718998 0.21018478
2.2132096 0.1572669 1.2321467
5.4660096 4.1011748 0.95139927
0.47743571 1.1051977 1.8477302
4.4890928 0.50800699 0.21487616
3.5274112 1.3193544 0.19756004
2.6688025 1.2442586 0.19590898
3.5055239 1.7752175 2.2015667
4.3426542 3.2450919 0.2118123
3.6633878 3.2513845 2.1869357
5.8198485 2.7829568 1.1463342
1.098846 3.2325435 0.7730422
3.5037162 3.7220697 1.7722509
1.8327423 3.3763673 1.8079582
5.6373472 2.2278678 0.51009303
0.92188513 0.2043719 0.82752144
3.1313813 3.6394386 1.4240123
6.3199778 4.1159477 1.1949034
1.9847543 0.1437404 1.978035
1.1313242 2.4549084 0.19551726
3.3054645 1.6198719 2.2055547
0.43283856 2.4376664 0.31143081
1.2552979 0.11727181 1.3424083
3.9541402 3.8051529 1.0338508
3.4932125 0.76311433 1.5220317
2.069329 2.200403 0.18723068
5.0259361 2.0715556 0.19608556
0.47150683 1.5470265 1.8562394
0.42152393 2.6759152 1.8800863
5.4868865 1.8354791 0.45609319
2.3945332 0.50647318 0.88080561
1.3929672 2.8218453 2.2000015
2.1516135 3.4669974 0.97179699
4.7603626 1.7299078 1.4311235
4.0911274 0.56649953 0.19465661
1.7018232 1.1623114 0.19126047
3.6059742 1.8209858 2.1988435
0.46473098 1.3341144 0.50692374
2.2829514 3.147856 2.1923275
3.3486564 3.4003601 0.20752712
0.7396723 0.15127404 2.0610962
2.5009573 0.54538482 2.1488326
1.833329 2.8511064 2.1971414
1.9527915 3.4042499 2.1741533
4.4436855 1.6338211 1.0146786
6.2279797 3.8709128 0.8185187
0.70364392 0.11150065 1.9349701
0.49273419 0.22560993 1.2199588
4.4506721 1.6001123 1.3205012
0.46157295 1.5387841 0.6732775
2.2009916 0.97435921 0.21570709
2.9247766 1.2273704 0.18884099
2.7659771 1.8939673 0.20277524
2.5078735 2.4315147 0.19766469
1.6749376 2.2791889 0.19235478
5.6629705 2.7723918 0.19649631
1.2309225 3.2654033 1.0822724
3.4226992 0.73652565 1.0558664
4.0599613 3.8189089 1.6073657
0.43246061 2.6538842 1.0014517
3.8920815 0.85910189 1.4086032
6.0492606 3.3744752 1.5946478
2.8626709 1.5837946 2.2057567
5.9738331 4.2082081 1.4736241
3.85414 0.19957474 1.6718496
4.0435543 0.75683612 2.1929133
2.508764 0.91583222 0.18276736
1.2857471 2.7683597 2.2165337
3.1311474 0.19273977 1.2216207
3.9865005 1.5816329 2.202179
2.953568 0.19136031 1.7289537
2.4979684 0.15320849 1.0540383
5.3676505 3.79688 0.1846664
5.7754774 2.6689975 1.4148096
3.6640503 3.741008 1.8448976
3.902065 1.1193112 2.2053757
0.97358418 0.25799578 2.206187
3.9466963 0.78194296 0.18481682
2.5538087 0.55382144 2.1722324
0.42987552 2.0742855 1.3740228
4.3368301 2.8699872 2.1930003
3.9210942 3.395793 0.19557077
6.183846 3.7743902 0.35108635
3.235656 0.70197868 1.3762326
5.311873 3.3313615 0.21041505
2.8691828 0.16878632 0.93007988
5.7231889 2.5517228 0.37475622
1.357065 0.13261452 1.1345587
2.4910269 1.673263 2.1873252
5.7061877 2.4863806 1.5299655
0.52863526 1.9158263 0.19510579
2.1627378 0.46360937 0.83333421
2.9360192 0.17761308 1.7556897
4.5667295 2.9325256 2.1947403
0.42241681 2.4292552 1.2211964
1.9302047 2.1622963 2.2088406
5.7548699 2.6461353 0.84586787
4.7530527 3.9648588 0.54510021
2.7095039 0.35065073 2.1842933
5.4347878 2.7508035 0.21061148
5.3320508 1.7446445 1.0391545
5.3479934 2.5096517 2.2062733
3.4459975 0.19406372 0.65241832
4.3565502 0.94277233 1.9393991
1.478971 0.32039282 1.2327683
5.4945831 1.8732451 0.41585767
5.6245131 2.2025456 1.8716555
1.2169838 0.14863192 1.2202441
2.9848714 3.5928428 1.6303593
0.84026504 0.10832257 1.3636302
4.4689913 1.3969774 0.26628354
1.2949268 0.29440096 1.4478798
5.4679241 1.8302933 1.5972257
2.3651285 0.49352995 0.33667052
3.2964897 0.1846773 1.903205
1.5957308 1.5150868 2.206964
4.2534504 1.697477 2.1954319
1.3612286 0.27365869 0.58886683
5.2965808 4.0725331 0.92839682
2.3410628 3.4890358 1.5431476
5.1380973 2.0099578 0.20501436
4.4960546 1.9099725 2.1962323
4.727828 2.5592525 2.2167068
5.9686375 3.4493327 2.1917911
4.2402525 1.0461969 2.1883471
3.0361395 2.1346262 0.19694021
3.4392316 0.17996702 0.55550802
3.1764193 0.19038606 2.1574252
5.4423437 1.771058 1.0766939
1.3317709 2.744199 2.2039976
6.2716146 4.0060282 1.7679763
3.5967014 3.7313137 0.65665084
4.1354008 0.20339008 2.0604625
6.3725181 4.2392874 1.2775161
3.2792292 0.20306256 1.420406
6.2361751 4.2361274 2.1876178
3.804163 0.83128071 1.3822773
2.3954215 0.15543477 0.93042982
4.576869 1.7153145 2.1697879
3.6286244 3.7343469 1.8392246
4.4870377 0.85669088 2.0590258
4.0117364 3.8072312 0.59379071
1.5786192 0.40728676 0.20486651
0.99583429 1.3881871 2.194325
4.6182871 3.2452655 2.2055624
2.1029758 3.4384181 0.50551867
4.9687014 3.8416605 0.19736911
1.8808142 0.23783204 0.20617117
2.0687819 2.64534 0.18544133
2.7777283 2.3309252 2.2024484
2.0779765 0.13063768 1.6460075
4.1645131 3.8466749 1.4980154
1.3863673 1.1488469 0.22015278
6.1070843 4.2469201 1.2249902
4.2038908 2.5418668 0.19552363
2.1532526 0.46956936 0.53567916
0.42272234 2.6358805 0.48206198
5.4666519 2.111413 2.2050881
5.6245255 2.2419631 1.1241018
5.9104438 2.9599495 0.50012797
1.4317234 2.0063157 0.18932232
2.1172228 0.458738 0.37088019
0.40774202 2.3694251 0.36867338
4.2621498 1.238555 2.2156899
5.3781757 4.076241 1.561772
1.8617268 1.5798591 2.2001407
2.7931237 0.6054647 1.1063964
0.47633314 1.2232972 0.18485187
3.0627661 0.88861215 2.1872675
4.4837084 0.37490204 0.49179476
6.2319703 4.2633419 1.8298284
3.2601192 2.2552419 0.20652117
2.6855149 1.7231892 0.19996402
1.4877019 1.3983556 2.2029135
5.7920394 3.2950761 0.21455993
2.4819489 2.812288 2.1949041
2.5531905 0.63515913 0.21190515
2.3950882 0.17246336 0.76256323
3.0928075 0.17745903 1.6866935
1.0043969 0.12639251 1.6436154
6.2165618 3.9066236 2.0146499
1.2198466 0.60480732 0.20208891
1.0358599 0.1194321 0.92176557
0.47061861 1.0791661 0.34745431
5.6051168 2.1299937 0.27014524
2.1167288 0.14700942 2.1328628
3.6380606 2.5453897 0.19245301
5.8509002 4.192081 0.71060765
4.5664105 3.9471536 1.397841
1.1209681 0.11644623 0.22763006
2.7840703 0.99523085 0.19123416
0.46814498 1.0949429 1.047866
4.4918261 0.48963654 1.9026498
0.75339246 1.1796732 2.2010999
3.217778 3.6615057 2.1379046
4.5879807 2.7447398 2.1986353
3.0913506 3.6311309 1.65987
0.9240008 1.713865 2.1941268
6.2554379 4.266017 1.2768009
3.9801743 0.86672175 2.2068744
2.6586099 3.4210961 0.20420218
4.4633751 0.81467658 1.3344527
2.9033549 0.16383511 2.1967328
4.4690275 2.4162164 2.1972599
2.3381977 0.44299805 0.18281502
0.70115674 2.0941818 0.20394896
2.7717206 2.8494945 2.201787
0.49294424 0.9455533 0.99755883
5.4243255 1.7622008 0.49308687
3.9153457 1.1478676 2.2097082
0.8554219 0.19199482 1.9348049
5.0357432 4.0191641 2.1691606
4.4833097 0.81053621 1.5185415
0.50572485 0.22582829 1.6655821
3.8883469 0.21001688 1.5234207
3.4537349 3.7194681 1.5965531
6.2665596 4.0257993 1.6872307
2.8570511 1.4166726 0.20283681
5.4946904 2.5404267 2.1901977
3.1450849 3.6398301 2.1013496
3.0483022 0.65968901 1.8955904
2.7484882 0.17803186 1.3612664
0.4440825 2.232404 1.1381937
1.8444887 3.1195159 0.19003235
4.0072613 0.85844278 1.6755683
5.986866 3.1541455 0.56796002
0.76609612 0.10572765 0.93643361
3.7133458 0.44388458 2.2095184
2.9746294 2.8397443 0.21637063
4.0486975 3.8249011 0.56257546
0.54542774 3.1369703 1.6563632
2.7111368 3.5700243 0.34062761
6.0425844 3.4584522 0.33225027
2.2936091 3.472126 1.9168833
5.6093545 2.2739892 2.1837251
2.5084732 0.80038202 0.22115412
4.4741287 1.3198246 1.4559137
5.8175039 2.7480884 1.5992458
4.4982452 0.50206864 0.83811468
1.5506965 0.32570031 1.0570623
3.4369287 0.44337019 2.2108946
0.73030716 0.70937252 0.20226039
4.0083637 0.49293897 0.2144704
0.43219543 2.4180861 0.90555441
4.3584881 3.3827047 0.19447491
0.81314009 2.6062419 2.2049689
1.599702 0.79567051 0.21018109
5.4709206 1.7993029 0.60961974
6.2850914 4.1105981 1.0488827
2.5782566 3.2694314 0.19969203
4.67518 1.7232804 1.0900139
1.1613607 3.2558429 0.60845888
0.45048627 1.774094 1.4342372
3.0976584 2.903337 0.19408245
1.5198507 0.31882498 1.8492916
0.66694474 2.7129397 0.20205685
2.5265341 2.5805743 0.19396304
2.2301652 0.48660812 1.194482
2.7647243 3.562444 0.51559198
0.43665111 2.1877778 0.5586251
4.047718 3.8281734 1.4950321
1.9888084 0.40820193 0.73002762
1.8003148 3.3899846 2.186038
0.69540143 0.15455882 0.30058855
2.9558675 3.5968392 0.59509826
3.1174474 0.58371383 0.20208962
2.6019974 2.9739087 2.1769049
4.4812131 1.2531265 0.72853655
2.3503151 0.17496943 1.7178012
1.8083622 2.7219346 2.196471
0.52413195 3.121594 0.89094406
3.6673169 1.1813892 2.212249
3.5385907 3.7295079 1.2667613
5.7235904 3.8771288 0.20051295
2.7272186 0.16389847 1.7098684
5.6642179 3.3810735 0.20413548
1.62081 0.35601366 0.3521663
5.173347 4.047626 0.29920214
3.4813201 0.18457124 0.28980407
4.4814701 0.26711401 1.2506379
1.6096601 3.3415616 2.1729164
5.4983587 1.9065204 0.69327915
2.5600407 3.4537354 0.20262963
2.5163341 0.18046799 2.1329021
4.1606703 0.21236907 0.82881021
4.7726951 3.972362 0.98533702
4.2618275 0.93039674 0.43695569
3.1567671 3.6490586 2.0404232
3.4549878 2.240243 2.1896956
5.9850965 3.6443155 0.20381546
2.3626089 0.50498039 1.4429936
2.7964528 3.5629885 1.039569
0.43544024 2.1762202 0.94058442
4.2202034 3.5309603 2.1946039
2.3661556 0.16367009 1.9724541
0.57742715 0.11282645 1.2757013
3.5577743 1.69728 0.18834181
4.5396833 2.4805224 2.2116666
4.289012 0.87380147 0.20445327
4.1505718 0.89930117 1.4718373
2.2562523 0.14297873 1.0575283
1.3273684 0.27312553 0.88441938
4.0390654 0.87227273 1.5365149
4.4790058 0.97019327 1.3862326
4.20611 1.3845223 0.21484791
4.2627048 0.2293596 0.874183
2.1787953 0.87236768 0.21060158
5.1784315 1.7409586 1.5169241
0.64544189 2.4368489 2.2000828
4.4631848 1.2482015 1.2836215
4.1707954 3.849242 2.0522199
1.6423421 0.13409352 0.19099542
1.1159946 2.41098 0.20091745
0.6320554 0.12121138 0.7118777
1.1324856 3.0929475 0.2124984
4.0171862 1.5685234 0.19750999
3.0477343 0.1864907 1.8376881
2.7814405 0.16731599 1.2399909
1.5100154 1.3165451 2.1982651
4.0799866 2.1243289 0.20657831
0.809798 2.3545063 0.18742324
1.1838827 0.13325426 1.9721721
2.8945787 1.1718755 0.19244882
1.2977417 0.94114572 0.18478152
2.4065742 2.5405533 0.19546512
4.4750314 1.1478466 1.7723453
0.42582038 2.0539155 2.0580046
2.9574008 3.6015446 1.1719931
1.4438627 0.31660393 2.1333017
3.5214777 2.4308593 2.1982999
4.1398363 2.0982268 0.1974346
3.3267431 3.0631285 2.1973846
0.46780977 1.0079629 1.529811
5.5345421 2.6926723 0.18961655
5.5484691 3.6965642 2.1986592
2.7680416 3.5786359 2.0320244
6.1101027 4.2182159 1.3215067
4.4374771 0.95426071 1.9696122
1.1303656 2.5968957 2.1842551
3.0114851 0.16871795 1.5245538
4.483676 3.6093128 2.2104492
5.0714617 1.8326585 2.2074769
6.1085854 4.2394853 1.8039529
5.3932724 3.6848316 0.20298034
5.0017166 2.1724143 2.2050147
4.6008706 1.7378042 0.5553925
3.572799 0.18915643 1.0931162
1.0073068 1.4897176 0.18789385
5.5032821 3.8309793 0.19259267
2.719136 3.5613084 1.8188552
2.9465153 2.1930778 2.2121246
4.4729896 1.1764549 1.0126706
4.9956012 3.2153022 2.2032454
1.2296897 0.26942831 1.495018
3.3649092 3.2320113 2.1990845
3.3102324 0.18987128 0.47111976
2.9807904 2.679261 0.20228493
1.6605254 3.3291383 0.55443799
3.6389294 0.79221368 0.52227062
2.7818174 2.5002542 0.21013536
2.0075259 0.15459776 1.0235784
4.8778806 2.2608593 2.1984844
2.574286 1.4676132 2.1919565
3.7561772 3.7713299 1.1046407
1.508109 0.1358207 0.49940062
3.0331669 0.64610142 0.61864144
3.8904929 3.7949283 0.82971674
1.2477933 0.10593258 0.6828661
1.2804118 3.2762296 1.1488408
2.8462043 2.9552076 0.18851396
2.4357419 1.2889246 0.20640886
4.571012 2.0280075 0.21906532
1.7087753 3.3472984 0.23135711
1.0648186 0.42228952 2.2223318
2.1171072 0.47178271 1.4777893
2.9711828 3.6121924 0.74415261
5.6650944 2.9511297 0.18998225
2.4376655 3.4567268 2.2034614
4.0806885 0.20089123 2.0678339
6.3109579 4.1357746 1.1773282
5.0820298 3.0093932 0.21985522
3.4423654 1.5460252 2.2141054
6.1040993 3.5891688 0.59209722
0.660725 0.095759965 1.9519053
3.1277635 2.9164817 2.1905982
4.8082652 1.7211796 0.58766848
2.1274066 0.1522661 1.8173395
4.2917919 3.1011477 0.19246536
2.9636505 0.20312366 0.95095444
4.2134829 3.8416531 1.6965504
1.5675808 0.94975799 0.19896783
5.2236681 2.7311881 2.1983497
0.45128185 2.8660529 2.2102818
6.3496876 4.2878981 1.2217889
6.1470551 3.6678677 1.0519271
1.8226218 0.49870679 0.19475129
2.3150964 0.15736564 1.5964497
5.4328518 4.1027899 1.7355239
1.2278829 1.8995119 2.2074575
3.4200549 0.74608392 1.356187
3.2480307 0.85658395 2.2107491
3.6971524 2.3020658 0.21114977
5.3685336 4.0939622 0.4860431
1.5342894 0.32149601 0.70606303
2.8476107 0.39341429 0.20073915
1.0237336 3.1754076 2.1925359
4.4108248 0.97088963 1.9468305
4.4069939 0.20418766 1.8403469
4.4760323 3.9240849 0.45366019
1.3852232 0.13372996 1.3738667
1.7116325 2.6150413 0.18628019
3.6556034 3.5257053 0.1981006
4.3780737 0.26934007 2.2016497
4.3087492 1.0795068 0.19657257
2.621078 1.960585 0.19902052
2.5001135 1.1845911 0.20720008
0.43349791 2.0595534 2.1685991
3.1670825 1.0784966 2.1956091
3.7137303 3.0416858 0.19822676
2.7901051 3.5731835 2.0172751
4.486517 0.79839945 1.4767418
4.4480243 1.4567443 1.375172
5.1410608 1.7556108 1.5524778
2.4258306 1.5973645 2.1821737
0.41646498 2.48792 0.2941705
2.3737481 3.4793911 0.55865639
1.6013342 0.75152826 2.1943612
0.57591283 2.9049351 2.1835515
4.1600428 3.8423221 0.70401806
4.029047 3.0972607 0.19797876
2.1447649 0.16222975 0.4350405
1.5876049 0.15154937 1.0107439
4.3429542 3.8829765 1.6114451
1.5518152 0.31691214 1.4463062
2.9350979 3.5849922 1.0775584
3.8173416 1.8551612 0.20371243
5.3722367 3.476398 2.2012446
1.8391562 3.0279274 2.1904807
6.0024977 3.2782364 2.1919198
4.8371515 3.9624939 1.866061
1.4884948 1.2781483 0.20409095
5.0941811 1.7519646 0.57754487
2.4602017 0.51737887 1.8430187
3.0491745 2.162972 2.1982615
2.6667488 0.57198572 0.68180698
3.9724 0.20306015 1.235561
0.47750571 1.5229486 0.44218796
6.0822153 4.0398531 2.2032557
2.4653847 2.4525769 2.1739657
5.2032876 3.4330683 0.19560656
0.89952582 3.1997011 1.536289
4.4437599 1.4201925 2.0438681
3.6630323 0.79094642 0.46774703
3.9230726 0.283932 0.19656833
0.45343813 1.3583249 0.49944419
4.2283869 2.2447851 0.20259975
2.5155888 2.2307379 2.1964118
5.7126136 2.6430664 2.2123544
0.4500519 3.0914619 0.81981736
3.850512 0.2164861 0.50922573
0.48203975 0.66400373 0.83598542
3.8421321 3.2812221 0.19591621
2.8926592 0.62832487 0.30536279
4.9240422 2.6900122 2.1999288
0.55308491 0.11026338 0.88418937
0.92835879 0.60133129 0.1882859
2.8083653 3.5630891 1.6654433
3.9164495 2.4291072 2.2143924
1.5480608 1.5811379 2.1999598
4.2932615 3.6552076 2.2123621
3.7819109 0.80120808 1.1267215
0.59132588 3.1364706 0.47080052
4.8846011 3.4947944 2.1988928
3.9005947 0.86260861 0.29378119
1.8131692 3.0585182 2.1969271
4.2859831 0.93792295 0.49068952
5.5471311 1.9935077 0.26774192
6.0775609 3.5162003 0.69626677
0.45532092 1.8391455 1.7965747
3.07674 3.6360972 0.30857471
2.8655682 0.25718153 2.1913607
1.4505938 0.30169687 2.1721449
3.9957876 3.8163955 0.67495286
0.76361829 3.1144812 2.2009521
0.43540996 2.3080425 0.32827383
4.3230262 0.22240658 0.58612531
2.254353 0.16511333 1.8726015
3.2790365 1.1589909 0.19746597
0.49113542 0.39558643 1.1429003
2.9391897 1.6860985 0.19898149
3.3019998 1.6055592 2.2059793
0.39693132 2.768177 1.4850856
4.4690022 0.21862204 1.0710981
4.4573631 1.4161384 1.670589
2.6504903 1.8291092 2.1909003
3.1755977 3.6539781 1.6843306
1.5132862 3.3209796 1.5757848
4.4898343 0.91916394 2.055634
2.4855909 0.77863181 2.1903574
4.4568033 3.6463933 0.19243698
2.4634461 2.5614953 2.1898293
3.8426073 0.19645119 0.80402249
2.5541103 0.55312133 1.8221353
3.9537346 3.0915263 2.2138653
0.92593563 0.11956881 1.2320659
3.9273627 0.20602059 1.533903
2.0908787 3.4302537 1.6378577
3.7585361 3.7718906 0.58510435
0.47472495 0.61550373 0.78358126
0.90619445 3.1984076 1.351885
5.9884319 4.2113295 1.2978284
0.44213837 2.0362482 0.45363426
0.89321077 2.6394458 0.17128691
4.9965067 2.665205 0.20685232
2.879344 3.4866126 0.22077277
0.93849492 2.4940767 0.21195038
3.0034401 0.1665462 1.6573027
1.9246765 3.2414787 0.20250319
1.8639904 0.13978565 0.49966961
1.2506562 0.26859236 1.3844268
3.9786005 2.4337482 0.20062104
2.9627988 3.6253417 1.1103411
0.49800533 3.1113183 2.1828983
2.1165876 2.5618582 0.2000889
3.3420908 3.7009122 1.4649734
0.76196182 0.16055574 1.8544333
2.2335598 0.24529713 0.18255001
4.190968 3.5736892 0.19626547
5.0682116 3.2358842 2.2101562
3.9393258 3.7827086 1.8787372
1.7166795 3.2756906 0.19338182
5.6075449 4.1231394 1.7346245
6.33077 4.1897988 1.9621121
1.3117793 3.0280814 2.2096777
2.6637864 3.5569222 0.49908829
4.4501696 0.97742629 0.54470569
3.0097313 0.18783052 0.54270583
3.1177886 0.75183266 2.1904075
3.426662 3.6923175 1.9457828
3.5153666 0.20618442 2.164355
1.228731 3.2775445 1.0657415
1.8895808 3.3913152 1.4381596
0.48352182 0.97286731 1.0787529
1.2683172 3.2857864 1.2915173
0.49291888 0.16190636 1.0016385
5.5558467 2.018748 2.0709732
5.7459946 3.9216058 2.1695192
4.7306957 3.7327571 2.1892176
3.6648414 3.7643678 0.29848167
4.3589191 3.8756158 0.78577387
1.87052 3.1649039 0.20288448
3.123275 0.90907693 2.1850855
0.49731019 0.49007899 1.2072166
6.3453026 4.2820206 2.09902
3.4198537 0.85480726 2.1813004
3.7710564 2.8240876 2.19122
4.0315814 3.8104618 1.0758574
2.458746 1.6606632 2.197952
2.9527473 3.5963831 1.7850263
5.799448 2.6647723 0.55213159
2.5977638 0.30821005 0.20360091
2.5196357 0.55360323 1.0971692
5.8858256 2.9054115 2.0448728
2.4432788 2.607054 0.19495589
4.2520533 0.21679811 1.7945676
3.4520853 1.3788105 2.203475
4.2595177 3.5000384 0.19987696
2.2693534 0.16512284 0.51603061
1.3745873 3.2833824 1.6100996
4.1024709 0.34615669 2.1991513
6.279489 4.0517144 2.1905463
1.5189081 1.6821884 2.2159662
3.7784817 3.1540771 2.1968896
1.6590531 2.924948 2.1817808
0.43438101 2.43413 0.64242297
3.0710697 0.65457654 1.290906
3.2443686 0.93777537 0.21224406
2.2693064 3.4418292 1.5367247
2.1421971 3.4538417 1.0930126
3.7254381 1.3875929 2.2070541
2.679847 0.17770094 1.5453216
1.0941231 0.23815116 1.7890642
6.1306829 4.2322936 2.0361309
2.830255 3.5833044 1.0968257
3.0323639 0.65321124 1.8977286
1.6185408 2.6092198 2.186501
2.6260438 0.15876657 1.8639816
5.9655662 4.1904516 1.8473984
0.48379558 0.70780313 0.37005746
0.69765264 0.11811533 1.9652336
0.66402209 1.199577 0.20364238
6.0722294 3.9799054 2.2041087
2.4386959 0.51416141 1.01512
6.2948766 4.0552626 0.8507939
6.0044417 3.3092811 0.66235673
1.8581245 3.391886 1.8531415
2.0869496 2.9544301 0.19655256
4.9228711 1.7532164 1.6603479
1.541847 0.13278101 1.2287449
1.1844809 2.0061748 2.1759279
1.6416055 0.36034387 0.74735981
4.4683895 1.5999457 1.4682839
5.0392513 4.0245829 0.82298851
1.9197532 3.1247537 0.21999562
4.1370869 1.142363 0.20575142
3.8664732 1.2532995 0.21384779
5.0770998 2.1134782 0.20903075
3.5976298 1.6793014 2.2083495
2.6299539 1.7950289 0.20609555
1.1331642 1.9378887 0.21668306
2.9522388 2.5827167 0.2042605
3.0562968 1.3949411 0.19572178
1.1780667 0.12572923 0.84090781
0.53374839 1.6556787 0.18276715
4.2696342 0.93781698 1.4312465
2.8397141 0.59694219 2.0173945
1.6415329 3.3363845 1.6159031
4.4795074 0.84136593 0.53915745
2.892071 3.2940869 2.1957426
2.8663521 0.62078536 0.4054895
5.2033119 1.756686 1.511923
5.5426292 2.2246916 2.2078648
1.2948964 1.3845702 0.23973818
5.7517672 4.1530914 0.64312255
3.7644651 0.66607535 2.2018855
2.2946768 0.17798725 1.0890367
4.6282535 1.7122633 0.85914195
3.4361594 3.0434928 2.2155178
0.68401283 1.8394114 2.2028546
6.1375198 3.6618404 1.8211123
1.529916 0.73586196 2.2024
1.7993158 0.13652137 2.1618705
4.457624 1.0551927 0.81484061
3.3664253 3.0012252 2.1967995
0.43595886 2.1518133 1.1501969
0.45298883 1.1691413 1.1886803
5.5092282 1.9376646 0.55736589
3.6928148 0.2104713 0.8098914
4.3861322 1.6525663 0.20716038
3.2669601 2.5785892 2.1863387
2.0616922 0.28210518 2.1830494
1.333652 3.2986255 2.0826235
3.042454 3.1712589 2.1992691
1.2759151 2.5363317 2.2112446
5.6240454 2.216182 1.0683141
3.6270065 0.51075 0.21435969
0.97125757 2.1281261 0.20130467
2.2348545 3.2607849 2.1990044
3.2447097 1.376958 2.1847589
0.67074597 0.7190429 2.2044172
0.50911385 0.26455396 2.2137513
4.1398692 0.20296258 0.95728791
4.4724283 0.46114671 1.6367626
3.3070445 3.283144 0.22846308
4.6199241 2.3779607 2.2028134
6.3193016 4.1802917 1.5074155
1.1359756 1.0389149 2.1925631
3.7540228 3.7632544 2.1681194
4.4480858 0.51061565 0.20532307
0.79032624 3.1875489 1.498104
4.7273874 3.9565055 1.4049842
3.059988 2.9316161 2.2011089
1.0976431 1.6060092 2.1963854
3.6750343 1.2123002 2.2032275
3.5239327 1.1103241 0.20184019
1.3853718 0.28997481 1.2158775
1.9927168 1.4666744 2.1869404
3.1186624 2.3435166 0.21458092
0.42237353 2.2797754 0.72886115
3.344394 3.0851912 0.18899657
0.87921798 0.10451955 0.91072613
1.6248307 3.3463979 2.0678601
4.3761668 1.2475984 0.19637091
4.2297192 3.8566504 0.46824127
3.688772 3.746212 2.1821682
1.5787265 2.4004688 2.1979203
6.1121669 3.5961962 0.83680707
5.0245471 2.6588542 0.1867502
2.9872594 2.3228199 0.21344985
0.50775921 0.096115731 2.0566776
3.6829879 0.79284954 0.43095073
3.6975992 0.41876715 0.19596583
1.4256955 3.0979986 0.20719546
2.8269975 1.3883317 2.1988614
2.5642951 1.4847329 0.20912509
2.1814847 2.4631166 2.2166533
3.7907875 3.7565446 2.1567726
4.6435332 3.9252098 0.20151384
0.43291986 2.1083894 0.81003243
0.43662387 2.5164876 1.7552526
0.60863692 0.10534196 1.6263003
1.5956855 0.13575059 1.8488199
5.1001019 2.4064155 2.1904802
4.8929276 3.9244487 2.2122433
5.1048403 2.1045012 2.1989274
3.8754115 3.3917105 2.2083142
1.1976998 0.2591441 0.69422823
1.4130733 3.2322521 2.2012424
0.49860945 0.52078241 1.4036123
0.5338245 0.11922269 1.4243451
4.2177424 3.8699145 1.444433
2.7339163 3.534951 1.9889637
0.86185604 0.17863367 1.0196183
4.976347 2.3620729 2.2068121
3.2462909 2.7031035 0.21763369
6.069406 3.4863324 0.68709356
4.3736525 1.930887 2.2148025
0.48288828 0.41209811 2.0215836
3.2682095 3.6662614 1.2010039
6.0625477 4.2180972 0.87780505
3.7902498 1.5594125 0.18999638
0.42412493 2.9948838 0.47420269
4.7998424 2.4377744 2.2052813
1.9990197 0.91789353 2.2064352
2.6485896 0.57425547 1.7730399
5.7002239 2.4727025 0.20027044
5.1868162 2.9599094 0.19704294
2.0527935 3.4111176 0.62546474
5.0914278 4.0104008 1.8576984
5.8280196 2.8177199 0.92884111
3.2798254 1.8242924 2.1974378
4.1603565 3.8536024 1.2110965
5.0262122 4.0043387 1.5205328
1.9266528 0.13313508 1.9540517
2.4225154 2.4033599 2.2300892
1.5382544 0.21023837 2.195606
1.4933064 2.589093 2.1990304
1.3442135 0.29538724 0.41319782
0.78799462 0.94811195 2.2104192
3.6373944 1.5086025 0.19196807
3.9753077 0.2213313 0.69375759
5.6796412 2.3673475 1.2029163
4.9522033 2.6792164 0.21013302
4.0285196 3.5128081 2.2108297
1.9539177 1.2062486 2.1903012
3.3931737 0.75201815 1.5990152
5.8973241 2.9702954 1.5198927
0.72625649 0.54074293 2.1794295
3.6538827 3.73826 0.67067283
5.1327095 1.7383043 1.8132333
2.8558936 0.62279856 1.1746196
1.7178346 2.4337192 2.2123299
5.4525428 1.7461789 1.6912552
0.84970373 3.1822796 1.8750409
3.9684808 3.1431291 0.18704066
2.0108538 2.0489781 0.21285196
1.3005495 2.9679148 0.1935152
0.74673438 3.1662641 1.2047555
1.2182366 0.87137038 0.22014739
1.9294736 0.42289659 0.44620663
1.7671183 3.3674619 0.30317956
3.4607863 1.2719868 2.2032096
5.1177998 4.0324378 1.5950073
1.2102774 0.11553369 0.68609822
0.52042305 2.6435273 2.1826708
4.444726 2.8304832 0.18198368
3.9501407 2.6964738 0.19472997
3.8173602 0.20656997 1.5109531
1.7561375 2.2230823 0.19854867
1.1869159 0.10493585 1.4775167
3.600239 0.19950256 1.4916698
0.43004942 1.6577603 0.58828527
2.5677574 0.16626209 0.6337133
1.1606522 3.2591755 1.7560849
3.6226668 0.77639443 1.4575857
1.8885221 3.3834057 0.2085136
3.8913107 0.37557864 2.1908929
3.3269532 2.977288 0.19259167
2.0283957 0.15224206 1.9888027
0.44893727 3.1069872 1.8548989
5.8500786 2.8570774 0.65875793
4.3896084 2.4100125 2.1793535
3.4725299 0.74901813 2.027606
4.2436333 0.94217968 1.5968353
4.3973618 0.21449451 1.194118
2.0701492 1.1234895 2.1873584
5.6806383 4.1494274 1.4486426
4.6584854 2.7013187 2.2151151
5.2765255 1.764412 0.59359819
3.8152318 0.20722476 2.1211038
5.2156072 2.3870275 2.202111
3.7507896 1.5952389 2.1958616
2.9706564 1.6955683 0.20917368
3.5683153 2.4434152 0.20062503
1.1122485 0.11179618 1.5080036
2.9519131 0.83092952 2.2067544
1.9044712 3.0189598 2.2075787
1.9504172 3.4198141 1.2222712
5.6952529 2.8114765 2.1885371
5.7132697 4.1693339 1.1778436
5.8197079 2.75284 1.7493463
4.4697828 1.4175804 1.380331
2.258568 1.1744925 2.195184
6.2187343 3.8860528 1.3221741
3.8487129 1.0478102 2.1877642
4.7047615 3.9582939 0.53321463
1.4016795 0.29911122 1.065614
0.74716461 0.89460927 2.1861272
5.2546263 4.0574269 0.52179658
5.1364617 3.0877581 2.2122853
0.88442957 0.13057598 1.8069221
5.9400868 3.7413385 2.2056892
0.41001943 2.9693148 2.1248178
6.0986919 3.559947 1.1467029
2.1569133 0.15328719 1.301845
2.8727565 2.8212464 2.192755
2.3435764 0.56961733 2.1834433
0.43313527 2.3765047 0.96081364
4.1981754 1.659024 0.20190956
4.4706407 0.98157406 0.63113272
3.872416 3.7861578 1.0197647
1.7769744 0.14427145 2.1567147
2.7977619 3.5838621 1.1119992
2.2753954 1.8038667 2.2002125
4.4646492 1.4147012 0.96550763
4.2105632 3.8682332 2.1233158
2.0357928 1.9624498 2.211076
4.429091 0.21888097 1.6523697
4.3258328 1.8275454 2.1945846
0.82874733 2.882762 0.20867378
2.4475455 2.5438704 2.1968904
5.0048232 3.9676082 0.18166392
1.4412893 0.32559904 1.2599056
3.7200823 3.5415838 0.19594581
5.642467 3.5118582 2.2101088
0.88483578 3.2058167 1.6088392
1.5413051 1.3500299 0.19655673
3.4412885 3.697988 1.2048275
2.7324245 0.16550002 0.37357974
2.9265795 2.2116601 2.2142384
4.2475567 3.862751 0.49190938
4.0179958 3.7037456 0.20590149
3.6014094 3.7516654 1.4243573
2.9571445 0.17815231 2.0909238
4.549027 1.7430832 2.0209539
0.42240298 2.6886685 1.8584532
0.48483205 0.54421997 0.4306072
4.8048639 2.5406563 0.18843599
4.4832983 0.98069799 0.47868812
5.2170877 4.0569105 0.97457123
1.7304585 3.3592217 0.4582606
0.73122603 2.0510211 0.20061678
3.4529374 0.19302139 0.7497018
4.4776716 0.46904328 1.2915127
3.0667224 0.17132115 1.7995555
3.9685569 1.7590227 0.20971951
0.43181598 2.0644667 1.5432097
4.9049916 2.4726646 2.2083061
0.43360776 1.7870536 0.91470861
2.1046915 3.4207399 1.9277605
0.88187873 0.15769139 2.1870427
3.309742 0.71584392 0.4802627
1.4861817 0.1267896 1.36833
3.71996 1.1638622 0.17824018
0.43954551 2.2053876 0.26037693
5.9317479 4.1995864 1.7082256
0.47647509 0.5895673 1.3966928
4.1091967 0.88912743 2.1926579
2.8463027 0.62701213 1.0422444
4.8441396 3.9778724 1.6551948
1.3460498 3.2848892 1.1413515
4.1880274 0.90375316 0.21164548
4.2434864 0.92406577 1.8960409
2.8827837 3.5787783 1.073751
2.5220981 3.5335641 1.3552092
2.5537312 3.529197 0.29395217
2.2062421 3.2422335 2.2073665
5.8469 2.8262591 1.3754954
0.43174255 1.9361609 0.89721221
2.4429436 3.4992185 0.51047182
0.50820774 0.65121174 2.1949916
0.4212648 2.9274735 1.9613024
2.9928293 0.17527783 1.4219627
4.4169598 2.2793014 2.2047229
3.6619463 3.7295375 0.58149815
4.2562928 3.8780842 1.5395465
2.5123754 0.5151673 0.20108411
3.6512518 0.20321554 1.1664736
4.0897794 3.8403223 0.78251779
6.297852 4.1573834 0.74319774
1.0019379 2.926976 0.19602068
1.3411858 3.2878399 1.7287261
3.8099644 3.3991432 2.202014
2.9166198 3.0463345 0.18406735
1.5629257 0.31876186 1.9819704
0.78494596 0.17064074 1.6159087
1.9324913 2.8866572 2.1944218
1.9745796 3.4054813 0.97470134
4.4614258 3.6239052 0.183029
2.622246 1.580551 2.2015815
4.4548616 1.03144 0.45642734
4.2005224 3.0395892 2.1890042
2.5936899 0.14724028 1.5557119
2.6870184 0.39052993 0.2017643
2.0257907 3.3993962 0.91827071
3.5036206 3.7115974 1.0121517
0.53247845 2.6385193 0.19225587
0.56818485 0.32439238 0.19565295
4.0140944 3.7364068 0.19230789
4.5464988 1.9762194 0.19733898
2.3455822 0.50025082 0.19945984
2.4125609 0.53268641 1.9085723
3.2606032 2.0381322 0.19974004
3.5112436 3.5589232 0.20488086
1.2477945 0.59395617 0.20196785
0.81856591 2.4389977 2.1844766
4.471489 1.2651201 1.1854944
5.5462623 2.0083215 0.66384518
3.4777391 0.20834002 1.2516968
2.4323764 0.16834408 1.3885301
0.65942752 0.14832908 1.6252562
2.3379126 0.15657602 0.46893471
3.5609021 1.394729 0.20628069
2.1394975 0.46276426 0.61567926
3.6081522 3.6232023 0.20825453
0.49901411 0.11189178 2.1012406
0.44237182 1.843775 1.5249883
4.4394426 1.5814189 0.26732624
3.680654 0.19845554 1.0316285
0.40336803 2.7723184 2.0588069
0.46510622 1.2921959 0.5149923
1.6861676 0.52658486 2.2043831
4.1911993 3.8521385 0.63590097
2.9545164 3.6140256 2.0742269
5.7708168 2.5789583 2.1152983
1.9061629 1.9499985 0.20838609
1.2459482 3.0676918 2.1960204
6.1251206 3.5819843 2.0526683
2.3189054 1.7644712 2.1939249
1.6240472 0.34366208 1.0448496
3.8388917 2.2736659 0.21482447
6.1360006 3.6223707 1.6932285
5.682723 2.3817651 1.2124079
2.0815864 0.13248225 1.7314852
0.69831777 0.091939054 1.0855119
2.3010321 0.53035116 2.2111897
5.8342042 2.9288909 2.2053752
4.5783896 1.7294372 1.5474697
4.3382368 3.8660507 1.9177818
3.6902151 0.20450932 0.41715154
3.9421663 0.59355861 0.20879786
5.9317384 3.0390747 1.5600193
6.022429 3.8609838 2.1992204
5.3181734 3.3439605 0.20120192
2.74681 0.17804387 1.5516187
4.6820955 3.9539738 0.8208186
3.5420141 3.7256937 1.4404984
1.2462578 3.2475085 2.1298616
5.4505358 2.0226789 2.1830268
6.0374608 3.3949435 1.912352
0.73740262 3.1748056 0.33916777
1.8549771 0.14164671 0.41341931
0.40310273 2.6220231 0.33677679
0.78210914 2.4582183 2.2029586
2.5077229 3.4944253 1.4972785
1.1055957 3.2492108 1.8838195
4.2581143 0.88693213 2.182565
1.6893157 3.3675578 2.0514102
1.475244 0.13275158 1.8751262
6.0498843 3.3966539 1.9619673
4.830348 1.7706811 2.1971431
0.45764035 1.2484874 1.4021623
4.9107084 2.4875777 0.19056171
4.445013 0.96867061 1.3320576
1.6086136 0.52934313 0.19432357
3.0037115 1.0937027 0.18753734
6.3292751 4.1724734 0.32386112
2.8196738 3.1620402 0.18806189
1.2362192 0.14436617 0.45593792
0.42589486 2.8162267 1.368124
2.9952219 0.71043354 0.20069757
4.4669795 1.0202919 0.82907331
3.0342939 0.65949744 1.4670681
3.9145155 3.7995701 0.85054493
1.9136467 0.12811637 1.0037601
1.2791932 0.12789375 1.0676683
3.3779736 3.5423198 0.18283337
1.3109152 0.27868468 0.58561665
5.765449 2.6583374 0.85924584
0.44192988 1.2865834 1.8337867
4.2096844 0.90112484 0.33469915
4.274231 0.92455804 0.77720362
2.2934847 1.6155301 0.21619868
1.3005769 0.26821238 0.92313343
1.5651183 1.5666044 0.18775356
4.7600036 2.5843134 2.2133307
0.46912742 0.68927902 1.0490657
1.3629291 3.2813628 0.4949711
1.0150812 3.1161292 0.18696086
3.7462401 2.6840746 2.198103
3.2491763 3.1993351 0.205394
1.3216152 1.4261469 0.19306384
0.49496007 0.20986803 0.68057895
6.3476624 4.1988816 0.54788995
3.3739567 0.20441149 1.4376863
5.3991523 2.1227448 2.1944349
5.5109987 4.1162033 1.9199094
0.71975327 1.5437517 2.2034793
2.5203836 0.17105886 1.9472452
4.9602351 1.7401762 0.20297094
0.49282104 0.86362451 0.20746699
4.0690961 0.90250671 0.4072932
5.3299508 1.7607825 0.91803104
5.8149753 2.7726562 1.7860755
1.9089954 3.4033437 1.7101555
2.2932968 3.4697289 1.7311612
2.1157544 1.6364405 2.1993263
1.0202442 2.4219851 2.1890903
2.0275946 3.4297159 2.0233603
1.5570868 3.3223398 1.2938278
2.134176 0.97694039 0.18894768
0.99827778 2.2573066 2.2052374
1.7888489 3.1959114 2.19015
5.6942282 2.4126029 0.37651587
2.8791423 3.5949116 1.5994408
3.8452206 3.3798985 0.18339217
4.2975798 2.1580849 2.1884968
4.4880342 0.60686696 0.31781054
1.3810048 0.12679762 1.1988326
3.0224135 3.6263549 1.5220915
5.3228211 4.0773206 1.4474599
3.6065011 0.18789926 1.1042656
2.926259 0.79271036 0.19024144
0.4208923 2.7951429 0.47075748
5.5793862 3.1726081 2.1853242
0.48602045 0.46694866 0.95012319
0.47732043 0.66703123 0.41957861
1.4655373 0.31201428 0.39976186
0.43063772 2.7634706 1.218065
2.2447424 3.4654679 1.431453
2.7017493 2.7841942 0.20974542
3.6808863 2.0922613 2.217272
2.4725528 3.5209517 0.24715808
4.0269542 2.7014794 2.1946728
3.4599333 3.7018182 1.6910118
5.5540152 4.1363177 1.4827659
4.4776988 0.54114789 0.51830018
3.8463278 0.2108193 0.27941009
4.7477555 3.9676008 0.241882
3.4842436 3.7245524 1.0678508
3.6192043 3.3298633 2.2062852
4.8375978 3.9746027 0.59039885
4.2212372 0.76996392 0.20425351
0.40555692 2.7191341 0.88746792
6.0287623 3.3189535 0.24565804
3.3274231 0.82791471 2.1859217
4.3310366 2.6370103 0.19574946
3.2930753 3.2988734 0.19082174
2.228478 1.9527873 0.19578382
0.91149014 0.18199745 1.1837778
4.1061583 2.2584991 2.1958976
4.4830389 0.35212597 2.0391774
1.3531868 0.28712711 0.24784791
6.1127801 3.5757089 0.22361578
2.1808047 0.15282224 0.88797092
2.3518181 3.4819174 1.3147808
0.47166267 0.92937636 1.5019547
5.1673117 1.7581774 1.8314428
1.9578006 3.2557476 0.20511189
5.5963368 2.1807694 0.27059126
2.2797422 0.15513465 1.9276218
5.3497233 3.8845387 2.2004633
0.69249892 3.1560066 0.75297374
