# .PCD v0.7 - Point Cloud Data file format
VERSION 0.7
FIELDS x y z
SIZE 4 4 4
TYPE F F F
COUNT 1 1 1
WIDTH 1473
HEIGHT 1
VIEWPOINT 0 0 0 1 0 0 0
POINTS 1473
DATA ascii
1.5152906 1.6911253 -0.011021793
2.3263187 1.7252651 -0.017795458
0.80924213 1.7326616 -0.014164582
0.67646897 1.7614225 -0.011990353
1.8334209 1.7931198 -0.015660644
0.43120247 1.8456182 -0.011168003
5.0171733 1.8537689 -0.012559533
0.11650711 1.8632501 -0.011423022
0.62326753 1.9142026 -0.019852027
1.1364683 1.9152611 -0.019463986
2.6577597 1.9190668 -0.014420345
2.9371862 1.9146606 -0.013269782
0.74262667 1.9245332 -0.016561106
2.1301618 1.925851 -0.014779687
3.5244179 1.9689869 -0.010362044
0.797346 1.9792594 -0.010787934
1.7061771 2.0351377 -0.018531933
2.6513877 2.057404 -0.019610837
0.16111535 2.1193924 -0.012174159
3.6533875 2.1153927 -0.011013061
-0.0084784031 2.1311793 -0.018118754
1.5035919 2.131907 -0.018720925
1.8644921 2.1525598 -0.014801979
2.9282641 2.1547108 -0.010935783
0.7830528 2.164247 -0.017698199
1.7089266 2.1829634 -0.019021645
0.82968664 2.2088618 -0.013702393
0.1353243 2.2641644 -0.016411185
3.5472717 2.3229895 -0.015953034
0.37865168 2.3735337 -0.011691198
4.2961245 2.4379029 -0.012225434
1.7424809 2.5475707 -0.011577845
1.4927748 2.602694 -0.017312378
4.6204586 2.7457638 -0.015603587
3.7594585 3.3115439 -0.010298431
2.8575563 3.3762383 -0.012209803
3.0470972 3.4733405 -0.010927618
3.77426 3.5853038 -0.012056977
0.094850779 -0.041948542 -0.0074905604
1.5395008 -0.036311433 -0.0047828108
2.3440328 -0.0021324456 -0.007039696
1.7912756 0.012737468 -0.0091978163
2.5124202 0.040178925 -0.0098972321
1.961372 0.2014643 -0.0094949454
2.4029474 0.28250939 -0.0015722811
2.6448522 0.32392931 -0.0074097812
3.1734262 0.32366318 -0.0095921904
1.7998215 0.33683753 -0.0077089965
0.93243361 0.36810544 -0.0079425424
2.6088333 0.37363297 -0.0086000413
3.1330032 0.43655914 -0.0082596093
3.8725753 0.57801324 -0.0093573928
1.9128891 0.58645242 -0.005699873
2.9358935 0.58915061 -0.0033182353
0.036028981 0.69749093 -0.0093885362
3.4787955 0.72134268 -0.0011227429
3.8001986 0.72988766 -0.0024200827
3.747714 0.7556414 -0.0080596209
3.039165 0.79148144 -0.0091752559
1.6562744 0.83627743 -0.0034959167
2.2874465 0.84389007 -0.0074160546
1.7331797 0.85437346 -0.0070726722
3.4160819 0.9473722 -0.0019767135
1.9331154 1.0048422 -0.0085525662
2.3657837 1.0035775 -0.0076387227
2.59935 1.0020407 -0.0041849911
0.60672224 1.0495504 -0.0035541058
2.0483093 1.0788106 -0.00029188395
0.66368592 1.1681231 -0.0023577213
2.2070823 1.1885941 -0.0064775646
1.7761029 1.1989233 -0.00066335499
2.1866336 1.2059933 -0.0048132837
3.8429193 1.2086135 -4.7981739e-05
1.1889408 1.2488509 -0.0087772161
2.8094954 1.2683955 -0.0087450892
3.0338554 1.2713612 -0.00054915249
3.8685417 1.327042 -0.0031820238
3.4038033 1.3495789 -0.0043853521
1.502213 1.3580208 -0.0027460009
3.5793796 1.3659401 -0.0053091496
3.9120512 1.3636968 -0.0013739169
1.0051305 1.3926835 -0.0028195977
3.3302155 1.3930745 -0.0095359087
0.07585454 1.4038978 -0.0090965629
1.9174758 1.4869635 -0.0065704435
3.8424654 1.4866664 -0.0091880411
4.4612994 1.5145664 -0.00022886693
3.743597 1.5242518 -0.005148679
3.8682766 1.5281496 -0.0047830343
4.9969063 1.5398674 -0.004687041
3.1801529 1.5506511 -0.0062542409
3.9399452 1.5593756 -8.790195e-05
3.7783465 1.56813 -0.0007674098
1.7696484 1.5723461 -0.0056814402
4.46627 1.5860587 -0.0049099177
1.0636711 1.6216315 -0.0075645447
2.4742274 1.6348788 -0.004692331
2.9251232 1.6358422 -0.0053318292
4.68045 1.6308081 -0.0053336173
2.9839878 1.6434548 -0.0070242733
4.7509542 1.6693887 -0.00062526762
1.3373808 1.6819243 -0.0086407065
1.63913 1.7105548 -0.0091290921
2.696672 1.7268624 -0.0088822693
3.2561035 1.7244602 -0.0038864315
3.9366803 1.7274287 -0.0026468635
4.796401 1.7253326 -0.0017380416
5.0042367 1.7324061 -0.0065131187
4.559124 1.7404984 -0.0075240731
0.80109298 1.7586329 -0.0085043758
1.6136564 1.7649267 -0.0073982179
3.4600716 1.7640539 -0.00071960688
3.522892 1.8298824 -0.0050540566
0.35541773 1.8308342 -0.0024137348
3.7940617 1.838719 -0.008378163
0.20739132 1.8445574 -0.0073111951
3.9104643 1.8661233 -0.0089193135
3.1214137 1.8712199 -0.0077053457
3.3775272 1.8822788 -0.0027275383
4.5459027 1.9053377 -0.0028461665
0.88140059 1.9401332 -0.0056513995
2.8941822 1.9409808 -0.0076653957
1.7851382 1.9577576 -0.0041325986
3.7965117 1.9566568 -0.0023159683
4.8521671 2.0482421 -0.0004260093
4.6647091 2.0698485 -0.0081481338
2.7940478 2.0764298 -0.0028543621
4.8223882 2.0792494 -0.0014137328
3.2949247 2.0885277 -0.0061057359
5.0648327 2.1063876 -0.0029616654
0.27678406 2.1132183 -0.0069224983
1.8639716 2.1190653 -0.0011898875
1.7303659 2.1262345 -0.0012527257
0.99050987 2.1343436 -0.0081934035
0.40290755 2.1472502 -0.0069088787
3.7865834 2.1434298 -0.0014869273
5.2180638 2.1472259 -0.00092704594
4.2050667 2.1542892 -0.002169013
3.8474622 2.1616254 -0.0007558167
0.86645496 2.1770043 -0.0048941225
2.2399831 2.1717286 -0.0088059753
2.3869667 2.1707993 -0.0089779347
3.3235765 2.17874 -0.0074541122
3.6395764 2.1981921 -0.0042868108
5.2152476 2.2053652 -0.0077702701
1.1155081 2.2113037 -0.0058396459
2.446897 2.2113547 -0.002867803
0.57566702 2.2509875 -0.0050903261
2.7288003 2.2695785 -0.0008276552
4.4162912 2.2621355 -0.005664587
1.5616132 2.3096566 -0.007953614
2.1316543 2.3145347 -0.00062990189
4.8579817 2.3341441 -0.0047377348
1.0946565 2.3450665 -0.0083735138
1.6129516 2.3502374 -0.0053459406
1.8258401 2.3595843 -0.00056776404
0.4082706 2.405283 -0.0066360533
4.4821343 2.4481702 -0.0053422302
3.9372554 2.459352 -0.0063287616
2.0947285 2.4884663 -0.0024412572
2.6422367 2.5000896 -0.0038364232
0.20926809 2.5275469 -0.0068612248
1.6604692 2.5238762 -0.0012279451
4.3009901 2.5280771 -0.00057625771
3.3163295 2.535368 -0.0056226104
1.53572 2.5771956 -0.0080816746
2.9678984 2.5733151 -0.006750226
0.019838095 2.6020613 -0.0007469207
3.9422073 2.6179905 -0.0068957955
2.0891161 2.6292753 -0.0081958175
1.9771773 2.6319866 -0.0076611489
0.87426519 2.6492057 -0.001113683
1.6714598 2.6483583 -0.0015096068
2.9721432 2.6788483 -0.00017532706
2.6151333 2.6814799 -0.0026825666
3.8104978 2.7101035 -0.0059410036
4.5344296 2.7148271 -0.0073572844
-0.014655381 2.7205911 -0.0014333129
2.2136207 2.7246237 -0.008909896
2.2764797 2.7260408 -0.0011544228
1.1247587 2.7312136 -0.0064566284
3.3918858 2.7312765 -0.001269713
3.3531284 2.792151 -0.0062560737
1.8987852 2.8674397 -0.00082312524
2.5362358 2.8669901 -0.0070906878
1.8712074 2.9094186 -0.0027732402
3.260006 2.924974 -0.0011998415
5.1520219 2.9283719 -0.0033224523
0.4436928 2.9849982 -0.004135102
2.6932149 2.992043 -0.0035113692
2.6637321 3.0333867 -0.006357491
5.3344812 3.0340538 -0.0018850267
1.6725069 3.0772591 -0.0018973649
3.3973427 3.0904441 -0.0015664995
5.1628289 3.1419067 -0.0025508702
4.1796985 3.5730658 -0.0019759983
5.512948 3.6996565 -0.0016715527
1.8664128 -0.030002914 0.006493479
1.6223046 -0.017446421 0.0029907078
0.48268509 0.8407371 0.002496019
3.8649912 0.90597737 0.0057204515
0.014374554 1.0263535 0.008746013
3.5223107 1.0603603 0.0020173937
0.9978143 1.1549933 0.0078573078
3.9227309 1.3633921 0.0016405284
1.3052372 1.3906279 0.0026195198
2.6135907 1.4027423 0.0071400404
0.33624828 1.4935579 0.0074868351
1.3138833 1.5232792 0.003810674
3.8905649 1.548045 0.0041413903
4.5435185 1.5400028 0.0069979131
1.0848706 1.5611755 0.0010782629
3.8304358 1.5849005 0.0011595041
2.2363806 1.6174768 0.0051876605
0.91805995 1.6328593 0.0077531636
4.7921443 1.6369222 0.0036832839
2.6242843 1.6584975 0.0028941035
4.8770361 1.6556515 0.0066395849
0.4896664 1.6816251 0.0065496564
1.7315496 1.6930081 0.0032809526
2.6942058 1.7447704 0.00026199222
3.3718529 1.8172705 0.001723513
0.82124448 1.8326576 0.0080682933
2.1142097 1.8345931 0.0014758408
0.56728327 1.8728068 0.0085897148
4.4995522 1.877988 0.00044387579
4.2448854 1.9279557 0.0020133555
3.1616101 1.9376324 0.0075546205
4.1515541 1.9363362 0.0080267489
1.3859067 1.9479259 0.0016359091
2.0474191 1.9755706 0.005530268
2.303062 1.9932407 0.0099732429
4.0806417 2.0040693 0.0022997707
2.2045503 2.0204525 0.00062912703
0.68114078 2.0342569 0.0009585768
3.6427379 2.031878 0.002270937
1.7872499 2.0794458 0.0016502142
2.0521374 2.0792646 0.0017471761
2.9186959 2.1191635 0.0066587776
4.0616632 2.1164651 0.0091020614
3.2710357 2.1267443 0.0012836754
4.9695206 2.1424932 0.00048407912
1.4624845 2.1982489 0.0023263246
3.4583225 2.1990323 0.0074411184
4.1082435 2.2155747 0.0060305297
4.3020253 2.2160187 0.0046251416
3.6388292 2.2283702 0.0025412887
3.2910666 2.2387242 0.006538257
3.798666 2.2326193 0.0014635772
4.8460445 2.2367253 0.0019219816
0.96993577 2.247993 0.0013511479
1.5802139 2.2466702 0.0044696331
4.7481747 2.2545199 0.0017027706
4.8216138 2.2566214 0.0065518618
1.3982949 2.2714334 0.0042210519
3.764039 2.2908831 0.0023717731
2.6415944 2.3010688 0.0039687753
-0.027611583 2.3180461 0.00016959012
2.3378782 2.3129392 0.0069482476
0.92409694 2.3373365 0.0031989366
4.7368541 2.3856959 0.0068020523
2.8084831 2.3962722 0.0052016526
2.525938 2.4106054 0.0076567531
3.6073074 2.4139605 0.0022225976
2.6579928 2.4200635 0.0078850687
3.0657806 2.4344354 0.0052930713
1.2202209 2.4470248 0.0053712577
1.4067467 2.4541402 0.0093598366
2.3820415 2.4541006 0.0091563463
4.9360657 2.4631758 0.0062912703
1.8069891 2.4856009 0.0084881186
0.052555501 2.5129724 0.0073325187
3.3924351 2.5165629 0.002488181
0.41359717 2.5426898 0.0016971231
0.17259085 2.6260204 0.0051346272
2.1153464 2.6298866 0.0079702586
4.2770438 2.6239543 0.0067149401
4.3962183 2.6285543 0.0044306517
1.2800543 2.6339769 0.0085863769
0.015722632 2.6613331 0.0066054612
2.8340168 2.6681294 0.0081270635
0.60028958 2.6755543 0.0053955019
2.6699033 2.6724834 0.00573048
0.04749459 2.762269 0.007750392
3.2827373 2.7867689 0.0078294873
2.8591986 2.7941895 0.0056791306
4.08811 2.8492899 0.0065108091
4.5217423 2.8402705 0.0038587749
1.5473439 2.8595419 0.0065372139
1.9911565 2.8536124 0.0058387965
4.6109977 2.8556828 0.0016523451
3.2106738 2.8648543 0.0091784894
2.8059306 2.8814311 0.0027916729
2.8596773 2.915709 0.0096351951
2.9787178 2.9157872 0.006193921
1.6986066 2.9263372 0.0033645928
4.6528635 2.9299936 0.0033205897
4.8328304 2.9239144 0.003690213
1.2030373 2.9309802 0.0035827011
1.378734 2.935101 0.0085356086
1.5181855 2.9556441 0.0071744919
3.4818292 2.9586897 0.0062737465
0.087978899 2.9633045 0.0077631176
0.5969038 2.9689884 0.0034579039
4.8208489 2.9687462 0.0036897659
2.6991496 3.0166621 0.0024147332
1.8508292 3.0380893 0.0068954378
4.4296713 3.0446062 0.0094950497
2.1900935 3.0815053 0.0017221868
1.6110514 3.1118464 0.0057313591
5.1632748 3.1121697 0.0088960677
5.5231457 3.1114359 0.0034795851
1.3038207 3.1451783 0.0019692183
1.8930875 3.1565013 0.0082148463
3.2905245 3.155437 0.006779626
3.7216721 3.1856923 0.0082562864
1.3914925 3.2130494 0.0098795295
3.1363368 3.2131801 0.0039401948
4.7178159 3.2221861 0.0074518919
5.5226092 3.223279 0.0067377388
2.2346468 3.2481365 0.0029792488
3.0052915 3.2487936 0.0026639104
2.3440151 3.2620101 0.002464503
3.1500635 3.2926192 0.007074818
3.1600871 3.2975478 0.0025101006
5.1175098 3.3585029 0.0055813193
2.2247367 3.3605099 0.00024579465
5.373322 3.394165 0.0076346397
4.493032 3.4029179 0.0066124797
3.4611735 3.452354 0.0021072924
5.0553422 3.5724602 0.0080644339
3.7810402 3.6439171 0.0056957603
5.092164 3.720613 0.0059071183
4.6317105 3.7313728 0.0075508207
0.32592875 -0.038220331 0.012871146
0.55088437 -0.017378323 0.010389507
3.5915446 0.0054454356 0.011573642
1.2645078 0.21290478 0.013317525
2.8833227 0.52884448 0.01754114
0.016058326 0.61438519 0.012237042
-0.00038811564 0.73250741 0.010957003
4.7577729 1.524018 0.018789709
1.3330212 1.7233882 0.015781581
3.0058112 1.7586678 0.012510657
1.1061407 1.8206612 0.011891887
0.47552741 1.9531904 0.01213558
4.6573248 1.959725 0.012630731
0.82724822 2.0039668 0.012315288
4.8693442 2.0459805 0.014554709
4.4229751 2.1079364 0.013385057
1.9226967 2.1342053 0.012051374
1.2337813 2.1546817 0.011340916
2.0842156 2.2476144 0.013159603
4.7026668 2.2571878 0.010453045
4.9222531 2.2610321 0.01844278
4.8870406 2.2712226 0.018486708
1.7579585 2.349617 0.011337087
3.2989874 2.3666711 0.019635767
3.6412849 2.4120898 0.011211738
3.060452 2.432672 0.015861154
3.1179066 2.4389629 0.011554137
3.6527333 2.449779 0.011865228
2.3964963 2.4679294 0.013965562
2.8095241 2.4612093 0.012144387
4.4927106 2.5137582 0.016016036
2.5695057 2.5565791 0.012191996
3.8945694 2.5571518 0.018769115
-0.032255828 2.5871463 0.013218686
2.6299839 2.583148 0.013198763
3.6236873 2.5991054 0.017412931
1.7983433 2.6296172 0.013936773
4.241663 2.649859 0.010799557
2.9325089 2.6634617 0.01913631
2.2950306 2.6804929 0.018214136
3.7118597 2.6856837 0.013819352
3.4559846 2.7052364 0.017362818
0.025068283 2.7613912 0.013342649
2.5422778 2.7773709 0.018997788
0.36030883 2.8138132 0.012503326
3.1070485 2.8225656 0.015024185
3.7694154 2.8202019 0.014017314
4.9933195 2.8656082 0.01350522
2.7368903 2.8872972 0.014942914
0.77238011 2.9266396 0.015739486
5.533577 2.9214787 0.013199449
1.8183662 3.0096712 0.010556102
4.9999638 3.0161653 0.01764816
5.5933709 3.0336595 0.01220116
2.7728367 3.0822415 0.014570385
2.9503365 3.0943866 0.01314199
0.82224119 3.1155624 0.019575298
3.564271 3.1162391 0.016295969
0.90014207 3.1205001 0.013163626
3.6699162 3.1486702 0.011518091
4.2575922 3.1497397 0.011797905
4.2792234 3.18504 0.010892555
4.9129 3.1890125 0.014429539
4.7412529 3.1988354 0.019336104
4.8914733 3.2066784 0.010359034
2.6288104 3.2231064 0.016297564
4.1043367 3.2299252 0.01593557
3.097949 3.2472038 0.013169318
5.4755716 3.2498322 0.01284413
2.8527112 3.2550716 0.013018444
1.87264 3.2863827 0.014533624
3.1028337 3.3051248 0.01150085
4.544045 3.3054647 0.011570945
3.8816528 3.3185806 0.010726914
3.9841828 3.3497009 0.010514662
3.8106222 3.3732371 0.016216144
4.6323233 3.3954926 0.01583913
4.6814404 3.4298067 0.012732089
3.0702219 3.4387488 0.018243015
5.1387472 3.4339724 0.01398851
4.3598385 3.4506197 0.012481749
5.5698547 3.462111 0.013257354
5.0241919 3.4751544 0.01807794
4.079545 3.5226388 0.011870489
3.955328 3.535965 0.018697023
5.6197157 3.5893836 0.01984331
5.1194196 3.677732 0.017079264
5.7250051 3.6798406 0.01328373
4.9640503 3.7387404 0.012374431
5.4478641 3.9168439 0.01466614
2.2005129 -0.0096876323 0.023653746
4.0237093 0.26154053 0.026734501
-0.006714046 0.52495515 0.022348791
0.0051314533 1.2256728 0.021585763
4.4175148 1.990985 0.020908326
2.9011822 2.1261091 0.027189702
3.7020426 2.14991 0.024162799
4.6547027 2.1498756 0.022005379
4.7319736 2.3657088 0.021332711
3.5764484 2.3928089 0.020767897
5.4459996 2.6942101 0.022952676
4.0738635 2.759881 0.020325392
5.5135088 2.8086224 0.029405028
4.3131337 2.9128704 0.026080549
5.5493345 2.910748 0.023026586
3.0905843 3.0505471 0.028735518
2.1052332 3.0654602 0.023578107
1.9800793 3.0751085 0.023042172
3.0228748 3.1099453 0.024808168
3.9868054 3.2083664 0.023970902
4.8774195 3.207334 0.020250201
1.8299309 3.2131586 0.02592048
2.4512262 3.237226 0.02327311
2.9630694 3.3622127 0.023058861
5.5249934 3.3603649 0.028560728
5.7430253 3.4350367 0.028457701
3.7950463 3.4411793 0.020792156
5.7209992 3.4495888 0.020128191
2.8446617 3.4672837 0.023146063
5.6517429 3.481832 0.022278011
4.7340088 3.4997206 0.02005288
5.7465529 3.49859 0.021309435
5.7599292 3.5296621 0.025504023
5.7768073 3.5506487 0.024546176
4.1795506 3.5951185 0.022853792
4.1666126 3.6024637 0.023487896
5.2020841 3.6020694 0.02557978
5.8080759 3.6506691 0.025195599
4.8638039 3.7239103 0.023344666
5.2977347 3.7272291 0.027722657
4.7686195 3.7565594 0.020221025
5.8634014 3.756412 0.026944548
4.5696006 3.7771611 0.020689487
5.8480458 3.7981548 0.022499382
5.2002664 3.8384681 0.024347365
5.7977872 3.8924918 0.021267533
1.7223731 -0.029743619 0.034140825
1.7748538 0.30447891 0.039167434
2.5184493 0.4764412 0.037172973
4.0179648 0.85644728 0.031802267
4.001339 0.92840862 0.038726151
4.0921955 1.5203106 0.038489372
-0.013011336 2.0473843 0.031395733
-0.0097033978 2.1032033 0.032784045
5.351099 2.4483242 0.035341144
5.5689111 2.986629 0.03266263
5.1669192 3.1448336 0.033953577
5.7230487 3.4210563 0.039059401
3.8188248 3.5286422 0.032113343
5.7933536 3.5502911 0.0395028
5.6724868 3.5625205 0.034407437
3.9634342 3.6771846 0.036845833
4.4528728 3.6865721 0.031088591
1.3817853 0.23471394 0.040554911
4.0263624 0.24902424 0.045530647
2.4970636 0.4531725 0.045922875
-0.01536271 2.5261831 0.047998488
1.6702811 3.2731757 0.049573451
2.1550913 3.3430505 0.049094796
4.7281823 3.5634918 0.041454047
3.7608709 -0.016591981 0.053640515
3.2445049 -0.0014865398 0.057436496
3.7901459 0.013948798 0.05537948
4.514852 1.5227267 0.054334819
-0.0055652559 1.7305783 0.05592984
5.3803458 2.5395679 0.050300002
5.7618384 3.4864774 0.058349639
3.6309385 3.6204267 0.056849152
5.7700238 4.0030971 0.052049249
2.351274 0.0061751604 0.065111905
3.5237918 0.017327845 0.06900543
3.5771341 0.67906344 0.069717854
3.9993329 0.75580335 0.068024665
0.18225473 3.0053377 0.067778826
5.8119211 3.6431098 0.066141367
4.4021473 3.7542195 0.068840593
0.015489697 -0.019628428 0.073097974
2.3042216 -0.010427006 0.070064217
2.9737668 0.55700529 0.071817756
3.9806867 1.3435477 0.070717543
5.2173119 2.0522366 0.073478222
5.2284594 2.1285419 0.078352034
-0.0077451468 2.4214997 0.073637009
-0.021691233 2.6514726 0.073349983
2.3256636 3.3749685 0.077927411
1.0040737 -0.021793887 0.082639813
4.017179 0.11087447 0.085490048
4.0290217 0.28597623 0.08085075
3.9997463 0.99145234 0.081389755
-0.021521866 1.8916675 0.089802891
-0.038983047 2.6046643 0.081669718
-0.02990672 2.7329731 0.082846493
1.8289622 3.2873774 0.082443863
2.822659 -0.011745289 0.092400581
3.2013588 0.0033122897 0.093106329
0.0066208541 0.13418442 0.095801413
4.0010056 0.69217491 0.095663667
-0.0034885108 1.5961491 0.092127591
5.358326 2.4423361 0.091590047
2.2975559 3.3627725 0.099264741
2.9092569 3.48984 0.098125845
0.79343927 -0.045662619 0.10663173
2.0840116 -0.0063773021 0.1022554
4.0158086 0.056151718 0.1034649
0.61808813 0.079423934 0.10870066
1.3802314 0.24356702 0.10321793
2.1933317 0.4012391 0.10740373
3.9578872 0.74580681 0.10960847
5.570055 3.0198231 0.1058352
1.5546728 3.2346225 0.10242093
1.5789489 3.2300315 0.10738614
4.5259094 3.7776728 0.10759419
5.1132832 3.8912458 0.1002256
5.6194816 3.9733524 0.1035409
0.85881853 -0.033449478 0.11929631
1.5587705 0.2774677 0.11613983
2.262598 0.39363444 0.11282977
3.3516374 0.61504215 0.11308229
4.2075224 1.5024422 0.11886743
5.0621419 1.6576754 0.11412942
5.092731 1.7472662 0.11250147
5.234983 2.1286945 0.11872101
5.4010148 2.525815 0.11274296
5.800962 3.6219077 0.11577591
4.2781262 3.757741 0.11723632
4.710803 3.8212099 0.11436534
5.6435127 3.9739833 0.11486661
0.61344147 -0.022410333 0.12579444
3.550015 0.0031005293 0.12694138
5.3266158 2.3995771 0.12536433
-0.0075265765 2.4357557 0.12837577
5.6595435 3.248013 0.12001267
1.6734449 3.2542486 0.1205985
3.9348574 3.6729102 0.12129152
0.83638501 -0.03305497 0.13680977
1.8052036 0.32188702 0.13549879
2.3611016 0.42643827 0.13424912
1.7803086 3.2838726 0.13496912
3.4072223 3.5652952 0.13181812
4.4383726 3.7752357 0.13662031
1.1510742 -0.051668748 0.14576024
0.13438183 -0.046803057 0.1473299
0.30730325 -0.037484296 0.14594293
2.0058417 -0.0067174658 0.14154989
3.5976853 0.00085733831 0.14780989
1.3609277 0.20461506 0.14137325
3.3770375 0.64639336 0.14114895
4.0146451 0.91302705 0.14823043
0.02918148 2.9904137 0.14035681
0.90203369 3.1120605 0.14890134
1.7367698 3.2452421 0.14364591
2.981761 3.485455 0.14466617
5.380969 3.9220853 0.14361072
5.4845147 3.9378233 0.14774975
0.071727037 -0.025971666 0.15623933
1.3936201 -0.014032982 0.15147597
1.121047 0.19879496 0.15666312
1.950569 0.34058267 0.15458786
3.3730617 0.63943005 0.15692496
-0.004465133 0.85178578 0.15437463
4.0253868 1.0384648 0.15009689
1.6321112 3.2734461 0.15619209
2.2159791 3.359304 0.15513182
5.6759944 3.9905896 0.15719947
0.57709932 -0.021440476 0.16367388
3.7974334 -0.0016851127 0.16191313
0.88213706 0.13170022 0.16482687
5.0564647 1.6527112 0.16794738
1.4849187 3.2173057 0.16067535
0.1494351 -0.023409717 0.17261353
1.1315317 0.18081242 0.17361188
3.1435213 0.590038 0.1748513
3.9976783 0.61171073 0.17245352
3.6709595 0.68026567 0.17152238
-0.0016959012 2.2754564 0.17683136
-0.030333728 2.3493209 0.17289498
5.4220037 2.6179752 0.17310256
0.27763182 3.0144162 0.17863014
0.68900883 3.0791931 0.17771947
5.7200127 3.4063268 0.17560148
4.9365149 3.8549328 0.17068988
1.7997519 -0.018897474 0.18029401
0.77469027 0.11556073 0.1861279
1.3587785 0.24211225 0.18354884
3.3980289 0.64492512 0.18367413
4.0025563 0.6582073 0.18029177
3.6013446 0.67712808 0.18953359
3.5676212 0.68620586 0.18393922
5.4801364 2.7930822 0.18060744
-0.00051134825 2.8014188 0.18189734
5.4884539 2.8162131 0.18174228
3.111125 -0.01652915 0.19084612
0.79651451 0.12185588 0.19584969
1.0931356 0.1781626 0.19018754
1.8340188 0.33171663 0.19380236
2.0417209 0.38032025 0.19190496
5.6589165 3.2191777 0.19978404
5.7417684 3.4453421 0.19139269
3.8680487 3.6393199 0.19023073
4.3243985 3.732275 0.19828928
1.9108492 -0.014876962 0.20044357
3.5763283 0.65890324 0.20798093
-0.0009971261 1.2844374 0.20900974
5.2553239 2.1519523 0.2066986
2.3596859 3.3726287 0.20091754
4.5433722 3.7833877 0.2081469
3.8300772 -0.011126049 0.21606606
3.649539 -0.0098539516 0.21353924
0.26635051 0.01690723 0.21016335
4.0084167 0.25428265 0.21251425
3.0563049 0.56863338 0.21428543
3.8273091 0.71308798 0.21529886
4.264081 1.5083939 0.21908268
1.2384344 3.1906037 0.21522382
3.0479536 3.4999123 0.216344
5.9270768 3.9699464 0.2126537
1.6215271 -0.0042277798 0.22405374
0.29292554 0.011008799 0.22794309
3.8764887 0.010022953 0.22181508
4.0077333 0.10118374 0.22949606
4.0090747 0.4039973 0.22894126
-0.001516521 1.1993281 0.22129807
-0.032789409 1.6907871 0.22306612
-0.011108458 1.769511 0.22158217
-0.0095529854 2.6270175 0.22917411
5.633101 3.1935673 0.22368345
5.7614884 3.556447 0.22328717
4.8839192 3.8498449 0.22476983
5.6839323 3.973856 0.22273549
0.4077782 -0.043182917 0.23924536
0.22082698 -0.037940294 0.23776016
1.3188612 -0.0077134892 0.23579398
0.70821226 0.11263609 0.23980343
1.2877781 0.2178171 0.23944032
3.6304317 0.69641888 0.23651025
-0.0039548874 1.3158011 0.23296547
-0.014848739 1.9118723 0.23842579
-0.013835102 2.2351985 0.23995438
5.4031777 2.5528264 0.23425201
0.9784323 3.1523161 0.2327756
2.9992228 3.5011349 0.23800665
2.7571373 -0.013733588 0.24138474
2.080421 -0.0041431338 0.2467708
3.3901887 0.64557475 0.24703366
0.0041769743 1.1991035 0.247298
-0.023471773 2.1206136 0.24185339
5.3130488 2.3222895 0.24713734
5.7753119 3.9901085 0.24619955
2.6277862 -0.010437764 0.25790676
1.4348844 0.2387473 0.25510499
3.8945308 0.72649878 0.25737301
5.2256598 2.0879607 0.25726986
5.4459643 2.6997261 0.25741249
1.0513426 3.1480904 0.2552183
5.6503382 3.2470622 0.25267023
3.5484638 3.6149135 0.25249106
5.8180895 3.6452756 0.25498781
5.9217787 4.0296907 0.25158161
2.2826343 -0.02020672 0.26286805
2.5762115 -0.027423345 0.26941341
3.7645073 0.0033319294 0.26837915
1.3427511 0.21282578 0.266312
2.9147558 0.51697403 0.26402715
3.69065 0.68793333 0.2647672
4.0103788 1.2310656 0.26546255
5.2520652 2.1884127 0.2642284
1.1208719 3.1621094 0.26204747
2.3050132 3.3847685 0.26010895
4.716815 3.8071756 0.26923263
5.9199424 3.941237 0.26154554
5.8639355 4.0154681 0.26167431
1.0309646 -0.032132685 0.27325964
2.6210222 -0.014798224 0.27395153
3.6332717 0.0086628199 0.27620608
2.0013585 0.34007052 0.27827585
2.118443 0.39033604 0.27462339
3.8758354 0.73147458 0.27027339
4.7570724 1.504034 0.27097261
5.2538199 2.1812258 0.2720027
5.3159122 2.3389359 0.27971643
2.8133817 3.4643021 0.27280939
5.276741 3.9054971 0.27303314
0.024580479 -0.033782281 0.28452677
1.2755967 -0.016805232 0.28298891
3.0112057 -0.0018667579 0.2888552
3.1579804 -0.0055910423 0.28524631
4.0167494 0.087617844 0.28109705
4.0077848 0.27224123 0.28074259
3.6503358 0.66663557 0.28550464
4.0010872 1.0474058 0.28378773
-0.009530127 2.3006082 0.28544354
5.6080732 3.0800843 0.28633302
4.0875106 3.7075562 0.28557473
4.7973785 3.8208046 0.2838065
5.1573129 3.8730302 0.28194952
0.10528123 -0.012029082 0.29889089
2.1970263 -0.013012074 0.29823023
3.5242109 -0.0029918104 0.29453999
0.68963015 0.097424895 0.29143655
0.879269 0.12267524 0.29874039
5.7743225 3.5623355 0.29767638
5.8555408 3.6914115 0.2956028
2.5370078 -0.0042422116 0.30687299
-0.016947776 1.7108487 0.30167967
5.1338177 1.8608981 0.30876213
-0.021874219 2.4623656 0.30653781
0.093649924 -0.048039973 0.31324553
2.7301965 -0.015263528 0.31156051
0.5981487 0.058580548 0.31680924
4.8524675 3.8307948 0.31359011
4.8954711 3.842577 0.31856036
1.8788832 -0.037009448 0.32736135
1.7185627 0.30711609 0.32879859
2.0092874 0.37724233 0.32799435
0.0011056066 0.61580896 0.32126248
0.0016131103 0.77265805 0.32460296
4.444283 1.4881967 0.32544249
5.4668341 2.7203231 0.32781363
5.5021315 2.8530426 0.32321244
3.6274543 3.6253753 0.32131851
5.487999 3.9315119 0.32448083
0.33639175 -0.027087621 0.33224607
3.1886568 -0.012605309 0.33924055
4.0169878 0.39063317 0.33444971
0.010939717 0.52336478 0.33837128
0.0067593157 0.56534898 0.3364659
-0.02045396 2.8045039 0.33908904
0.26686281 2.9998941 0.33861262
5.6082854 3.0871434 0.33984411
2.923595 3.4826627 0.33941686
4.8852429 3.8315449 0.33136493
5.8342419 4.0007415 0.3309803
0.22209585 -0.039712943 0.34720969
0.87981892 -0.034766659 0.3472392
2.0408077 -0.013747238 0.34026402
0.016978025 0.20933434 0.3434391
4.7317843 1.5179662 0.34459537
1.5096246 3.2276301 0.34762973
3.39363 3.5707998 0.34745467
3.4530783 3.5825362 0.3453843
5.3993897 3.9290371 0.34712785
5.9041991 4.0088944 0.34746265
0.5574137 0.074677974 0.35139585
1.4376869 0.25303555 0.35437059
2.3768468 0.42629838 0.35788792
0.33283907 3.0382013 0.35559905
1.5295426 3.2379084 0.35861951
5.8862963 4.0166492 0.35934979
0.8659848 -0.032065265 0.36614197
3.9715652 0.0056372434 0.36926168
2.1987052 0.41239661 0.36886621
3.7941589 0.72686684 0.36621088
3.8593545 0.73232436 0.36104816
-0.0058834851 1.099452 0.36637568
0.57243919 3.0750971 0.36763418
3.6004214 3.6174331 0.36846644
4.2970014 3.7203293 0.36240637
1.8717874 -0.019351341 0.37398607
1.325404 0.21578425 0.37859714
4.8809943 1.5078888 0.37540919
-0.034704357 2.5595837 0.37105978
0.080762506 2.9846182 0.37752426
2.8954549 3.4853764 0.37273687
4.595377 3.773757 0.37641674
3.4849133 -0.0062418357 0.38961977
0.89674652 0.14073509 0.38919538
1.0316126 0.1619831 0.38779736
4.0163789 0.61030579 0.38133806
4.0103669 0.85007554 0.3881945
4.1895542 1.497869 0.38429111
0.12136406 2.9871812 0.38880479
0.60507047 3.0674262 0.38864344
3.470686 3.5764332 0.38370305
4.1453509 3.7153969 0.38748688
1.5963644 -0.02795276 0.39580536
2.5995626 -0.012798868 0.39061028
3.1325517 -0.0040002093 0.39430821
3.9258814 -7.0631504e-05 0.39655417
3.7719646 0.0023150146 0.39570832
0.0063671768 0.50709122 0.39881843
-0.00081968307 0.80204052 0.39351869
3.9802427 1.27212 0.39872181
-0.012512833 2.4932852 0.39293027
2.8234749 3.4591603 0.39662576
3.5281696 3.6052294 0.39777046
5.7297087 4.0071235 0.39285469
1.4574045 -0.021637708 0.40990537
3.4681144 -0.00084526837 0.40871441
0.752002 0.086462647 0.40975827
2.0046692 0.36821103 0.40775567
0.023276865 0.8880142 0.40385038
4.8039732 1.508522 0.40911669
-0.0045456886 2.2125916 0.40535629
1.863582 3.2845559 0.40216291
1.8705128 3.3008723 0.40389168
5.697268 3.3720803 0.40460491
3.8788657 3.6416745 0.40729409
2.2954721 -0.014256664 0.41636622
0.89346838 0.14476347 0.41169465
-0.0093148947 1.2552671 0.41253209
4.5444665 1.5056484 0.41295397
5.082942 1.742177 0.41221285
5.5420833 2.932786 0.41316718
0.07504648 2.9755177 0.414702
5.69592 3.308063 0.41382176
5.7452121 3.4589052 0.41001457
5.381547 3.9342504 0.41979164
5.5198064 3.9540582 0.41576594
0.0092803836 -0.041109577 0.42423391
3.1116176 -0.011722907 0.42798328
0.2695564 0.030444577 0.42174846
2.132678 0.38195562 0.42195189
-0.0035101771 1.345457 0.42942661
-0.01242286 1.7378877 0.42944938
2.6729856 3.4562764 0.42443883
5.8139381 3.6608744 0.42858368
5.7592692 4.0018115 0.421992
0.50376105 -0.02297233 0.43135846
2.0572433 -0.0098763555 0.43681735
0.80902374 0.10649054 0.43399698
3.9808102 0.69701493 0.43770564
-0.00091078877 1.7968248 0.43912011
-0.014553934 2.7258945 0.43952465
-0.035242528 2.9223685 0.43100148
5.7266083 3.978878 0.43257236
0.031396985 -0.048828758 0.44419205
1.6242174 0.27233842 0.44704741
3.3177032 0.61520857 0.44053918
5.122509 1.834666 0.44979721
-0.028651327 2.2330351 0.44279677
-0.013713211 2.5050521 0.44337273
1.5041039 3.2189965 0.44801575
3.3088589 3.5493279 0.44527143
2.3409276 0.42193305 0.45008427
2.9760995 0.56196707 0.45592028
-0.0020424128 1.511246 0.45099753
-0.004294157 1.6273459 0.45108676
0.16106904 2.9785891 0.45007223
3.4977174 3.6199121 0.45604074
4.5305481 3.7669549 0.45570749
5.1371775 3.8792515 0.45129144
1.4814136 -0.016981244 0.46127695
3.5037189 -0.0022944137 0.46908748
2.9259753 0.55523551 0.46682459
4.0051236 0.92812133 0.46914732
4.1190877 1.502555 0.46245277
-0.016339451 2.77458 0.46694732
5.6725221 3.3207288 0.46928489
4.4954281 3.7810807 0.46955633
5.938045 3.9812794 0.46363962
0.69654715 -0.034613103 0.4785552
2.1533618 0.0046957135 0.47316754
0.63623059 0.084318265 0.47255284
0.78212678 0.10818426 0.4789027
0.026994884 0.21264586 0.47648096
2.2278724 0.41636807 0.47791952
2.2812419 0.41359383 0.47277832
3.5100179 0.66026229 0.47865897
4.0061126 0.69315886 0.47133142
4.3879666 1.5213761 0.47724569
5.3651657 2.4873648 0.47121096
5.4860811 2.7428403 0.47783208
2.6138391 3.4319258 0.47452599
2.7499166 0.49755424 0.4801504
0.0065271556 1.3996621 0.48569191
0.027771592 2.967773 0.48644215
-0.0041621625 0.25340065 0.49299294
1.7695268 0.31945905 0.49326748
2.2719069 0.41847491 0.49785364
4.0010381 1.2428566 0.49626237
5.405292 2.5360923 0.49146175
-0.015061617 2.7582874 0.49158847
0.65953898 3.0787263 0.49934077
0.8231858 3.1122265 0.49269158
2.0206375 3.3173027 0.49751449
3.3089623 3.5486097 0.49915642
4.9238939 3.8382897 0.49936718
5.5599427 3.9754887 0.49019468
1.1460775 -0.027839355 0.50438362
0.006226629 0.27480164 0.50491792
1.8552278 0.31959292 0.50436682
0.0060104728 0.39945614 0.50282186
-0.023825914 1.4685364 0.50741315
-0.010245711 2.154438 0.50286841
5.3642144 2.4982519 0.50315696
1.0600791 3.168375 0.50999498
4.2360764 3.7278891 0.50053155
5.9590135 4.0075793 0.50845277
0.15402395 -0.057081595 0.51690274
0.22186273 -0.049112223 0.51139158
2.3838868 -0.0153796 0.51864892
3.9778943 0.36846554 0.51033288
4.0201702 0.73796678 0.51149386
-0.010439962 0.81725812 0.51859057
0.33535987 -0.031431325 0.5271076
0.20095837 -0.027769364 0.52959067
2.3745761 -0.020181902 0.52199084
0.21311629 9.5888972e-05 0.52597296
3.5063539 0.64669567 0.52071369
5.4818249 2.7901354 0.52503556
-0.019344151 2.929244 0.5250482
3.0358338 3.4920897 0.52701074
5.2523069 3.8886938 0.52724731
0.54652214 -0.03269136 0.53438431
2.0615172 0.36272669 0.53577524
-0.0031836927 0.86634827 0.53015912
4.0032148 1.3451192 0.53692704
4.0363855 1.5195729 0.53231895
-0.019327879 1.9026364 0.53571546
-0.022118092 2.6340594 0.5354228
4.2908754 3.7083831 0.53356224
4.0160728 0.082289681 0.54790694
5.2235451 2.0840707 0.54416043
1.0308696 3.1590614 0.54761475
2.9431581 3.4874187 0.54195696
2.6960382 -0.01060497 0.55129761
0.27074152 0.003593564 0.55903423
5.5591755 3.0026808 0.55019075
1.2748928 3.1895242 0.55368
1.4280958 3.2195668 0.55072427
2.1017585 3.3241568 0.55472589
4.7149386 3.8015437 0.55514169
0.69599831 -0.025918894 0.56738919
2.0173793 -0.025944866 0.56363112
3.6490655 0.0085102022 0.56575197
0.0087705255 0.26808697 0.56943274
3.5907769 0.66359633 0.563389
4.0075569 1.2344311 0.56836897
4.0119848 1.493989 0.56791133
4.1573224 1.5181197 0.56351817
5.5105119 2.8314118 0.56364644
5.4981246 2.8510804 0.56999499
-0.027641356 2.935463 0.56942838
3.990097 3.6737037 0.56673473
0.98679137 -0.041370727 0.57120299
2.6207209 -0.0063940063 0.57641125
3.2747889 0.0054744631 0.57801908
4.3944468 1.5117567 0.57352787
5.1385851 1.9510523 0.57921201
0.31131583 3.0358868 0.57336164
1.2728482 3.1882105 0.57688493
5.7690911 3.5075345 0.57307482
0.79519308 0.10743171 0.58672303
1.1398598 0.17439395 0.58924395
4.0160975 0.47143066 0.58719856
-0.0085377693 0.53272885 0.5802927
3.9993954 1.4472466 0.58984321
5.5563765 2.9895024 0.58202046
3.6626544 3.6281261 0.58689135
4.3816276 3.7308803 0.58850223
2.6505675 -0.0045951828 0.59122097
4.0191541 0.19953588 0.59906346
4.0043969 1.0582547 0.59443063
-0.02485913 2.6045098 0.59305841
3.2301016 3.5407934 0.59325236
3.5450211 0.01068981 0.60819435
0.8951335 0.13641274 0.60937977
1.4394678 0.23894188 0.60345781
1.5744833 0.27894554 0.60002178
1.618487 0.28904074 0.60718745
5.4597459 2.707777 0.6008116
-0.009644717 2.9513664 0.60232949
0.92590451 3.1221833 0.60132468
5.6132479 3.1391616 0.60266
1.4277902 3.2063217 0.60405904
4.649766 3.7907615 0.60590464
5.6235428 3.9637761 0.60349691
2.437839 -0.024355195 0.61818761
0.0018779933 0.22122839 0.61267608
2.5336223 0.45647401 0.61478448
3.7144608 0.69509083 0.61618322
-0.0080344081 1.3237662 0.61264533
-0.02191475 1.382908 0.6167565
4.355494 1.5157617 0.61914778
4.999393 1.510177 0.61313021
-0.0090109408 1.7510058 0.61167836
5.4315624 2.6187682 0.61096007
1.3095036 3.1933618 0.61843067
3.5899053 3.5979509 0.61115462
1.4638183 -0.051475033 0.62272733
0.33735961 -0.03572195 0.62784106
0.014501691 0.19778645 0.6277048
1.3966885 0.23865348 0.62890488
3.9971881 0.46637571 0.6289112
5.2574039 2.1847153 0.62646717
-0.0077469945 2.7233386 0.62260002
0.84698462 3.1093493 0.621301
0.015482306 0.24671188 0.6370123
1.9634529 0.33852819 0.6318363
2.8680091 0.52844739 0.63610548
3.8710032 3.6595535 0.63574678
5.8444443 3.7185555 0.63265955
4.6715918 3.8064265 0.63776189
5.6555548 3.9796572 0.6314097
2.6976466 -0.03354492 0.64502472
0.019119859 0.13416064 0.64376807
1.7975813 0.30161825 0.64107871
3.2871399 0.5899545 0.64264452
-0.0097711086 2.1244907 0.64939189
5.2947078 2.3061032 0.64148837
-0.015217543 2.7901993 0.64790136
1.9949781 3.3213687 0.64928555
5.3165212 3.9020119 0.64296901
5.5738497 3.9562764 0.64260405
2.9950714 -0.0011941344 0.65439212
0.52277958 0.062258527 0.65256929
4.0137644 0.44387412 0.65360624
3.0923586 0.57530165 0.6519742
5.0127888 1.6005443 0.65669274
-0.018864065 2.7180409 0.65340489
0.28659707 -0.049358763 0.66253108
0.46311998 0.038768515 0.66696095
4.8293943 1.5067859 0.66813332
4.2614956 1.5255704 0.66844183
1.5480539 3.2423182 0.66548222
1.7579261 3.2690043 0.66416198
2.9192982 3.473237 0.6617921
1.275898 -0.031552069 0.67602974
2.6384201 -0.01445739 0.6743747
3.3070388 0.61965162 0.67620367
4.0095959 0.76052058 0.6728186
-0.00048846006 1.1155046 0.67941922
4.4743819 1.5012931 0.67325574
5.3227644 2.4082422 0.67514479
1.8968881 3.2911663 0.67276824
3.4437351 3.5614305 0.67775041
0.075928867 -0.05868502 0.68760347
0.11133772 -0.053538434 0.6823104
0.16836506 -0.032515794 0.68544871
-0.019164175 1.811421 0.68073559
5.2404304 2.1559029 0.68051481
0.51591682 3.0609035 0.68530309
1.4329715 3.2083502 0.68910027
1.3006319 -0.033869468 0.69641417
1.8210562 -0.033073999 0.69894689
4.6384697 1.5108663 0.69335771
-0.012352407 2.7493038 0.69820672
0.82231474 -0.030255154 0.70412791
0.84453702 -0.030596569 0.70003194
1.7321802 -0.025777504 0.70961374
2.0560904 -0.011899203 0.70927376
2.1869659 0.37129024 0.70729309
3.9466109 0.72301221 0.70351398
4.0094519 0.73161161 0.70510077
-0.0068427622 1.7655683 0.70435727
0.0026142895 2.9499998 0.70342129
1.129895 3.1572785 0.70636469
5.8200526 3.6609683 0.70326638
4.3750582 3.7473698 0.70299292
5.9053555 3.8380017 0.70660168
1.0489281 -0.02492442 0.71345973
2.7534795 -0.0047217831 0.71822047
2.0897036 0.36831573 0.71433067
5.4852176 2.7764988 0.71418971
-0.0086012185 2.8624568 0.71251953
5.566113 2.9780664 0.71341026
0.42887878 3.0313578 0.71823496
1.1390848 3.1653275 0.71442056
5.7089348 3.3511262 0.71828842
2.7471895 3.435503 0.71950305
3.3928757 3.5686588 0.71838856
4.8699155 3.8195648 0.71226937
0.097226381 -0.037853181 0.72259355
1.0164163 -0.028015032 0.72188532
1.0249015 -0.023152873 0.72780949
0.98080456 -0.01855012 0.72939473
2.6222134 -0.0027932301 0.72880518
2.8830929 -0.0024339259 0.72620779
3.607224 -0.0014009029 0.72820699
3.1573133 0.5879001 0.7244705
-0.0076523721 1.6840762 0.72473383
3.882206 3.6727152 0.72677529
4.4560723 3.7533798 0.7282902
5.8800125 3.8192711 0.72762859
1.0178189 -0.024358355 0.7364338
2.8352346 -0.01539617 0.73140335
3.8215151 -0.010945544 0.73310822
2.0734181 0.33769467 0.73754364
2.1391954 0.38222516 0.73415101
2.3466301 0.42404789 0.73451656
2.9944792 0.5404169 0.73275971
3.3059893 0.61413264 0.73678285
-0.014590263 2.0115004 0.73591584
5.2975769 2.2685671 0.73760366
-0.016293913 2.9442201 0.73671848
2.6954513 3.4514246 0.73503321
4.7739134 3.8106003 0.73684096
5.9224386 4.0234289 0.73399585
3.5680189 -0.012521781 0.74803436
3.5432825 -0.0025496632 0.74953544
3.3071704 0.0020532459 0.74420297
3.4594898 0.0084172189 0.7430622
0.50125933 0.048072144 0.74937648
3.998076 0.21107671 0.74408323
-0.039674819 2.7204957 0.74079311
2.8592567 3.4612031 0.74925321
5.7483444 3.4697533 0.74380112
3.2984252 3.5641599 0.7461893
0.18710726 -0.038905486 0.7501474
0.35836452 -0.03920576 0.75096828
0.61630023 -0.033970378 0.75137949
2.2986951 -0.0082919151 0.75762957
4.0058517 0.57515782 0.75083137
3.6587701 0.67418236 0.75705516
-0.00085398555 1.1013467 0.75814772
0.0089673996 1.2036643 0.75754893
-0.038535178 2.4890513 0.75108218
1.7653574 3.2759452 0.75359142
5.7654295 3.5432076 0.75174856
0.35704869 -0.042154193 0.76606369
1.4798923 -0.032224566 0.76813787
1.171126 0.20931846 0.76915604
5.1437035 1.8789915 0.76859301
1.4377108 3.2050881 0.76164114
0.25294966 -0.044544108 0.77290374
0.47620595 -0.042252928 0.77901083
0.5648911 -0.01364027 0.77786392
2.1222229 -0.013612449 0.77953678
2.7592907 -0.0014040172 0.77212292
0.8854382 0.12669671 0.77414757
1.2263385 0.18991143 0.7716679
2.8332977 0.50901812 0.77145869
3.9991388 0.61482871 0.77633733
3.5467067 0.65488243 0.7731846
5.7128091 3.3878155 0.77496248
5.8758678 3.8057046 0.77284139
1.182819 -0.038750246 0.7815538
1.5865997 -0.01869151 0.78981882
3.4578247 -0.0034233481 0.78302544
0.0019286871 0.0034137368 0.78291208
2.9279976 0.0017847419 0.78583258
2.5398135 0.45004815 0.78867835
2.5904694 0.46897101 0.7888338
5.209785 2.0456109 0.78030437
5.2698541 2.2075806 0.78475279
0.15762502 2.9819226 0.78382808
5.7830114 3.5559201 0.78075558
3.8986545 3.6492624 0.78654903
3.9749804 3.6582103 0.78334445
5.2917175 3.9052887 0.78428918
5.4798799 3.9367228 0.78660232
5.6576347 3.973947 0.78319103
0.08539921 -0.036330819 0.79195887
2.4510341 0.44556898 0.79783529
0.0067870617 0.87944698 0.79313987
2.7524953 3.4490871 0.79255015
5.799983 3.6220183 0.79043132
5.9056993 3.8923917 0.79426509
0.55962181 -0.032675393 0.80031699
2.2394609 -0.023094751 0.80717713
4.0069842 0.13234887 0.80489248
1.1444836 0.16748378 0.80478209
1.3401872 0.22521275 0.80753261
0.72197461 3.0797524 0.80883604
1.6507865 3.2507129 0.80062765
0.22107047 -0.040254191 0.81441957
1.3513926 0.23025379 0.81952435
0.0034101605 1.1734909 0.81897956
2.1783576 3.344274 0.81674451
0.73224473 -0.027322792 0.82398659
1.4293736 0.23178643 0.82639164
1.8096095 0.31372362 0.82785016
4.0141125 0.95966733 0.8213014
4.4611874 1.5028412 0.82168633
5.0220437 1.5809091 0.82937831
0.4723767 3.0359721 0.82502455
3.9664884 3.6750031 0.82660252
5.9020529 3.8662376 0.82188803
0.45038819 -0.033352442 0.83957547
1.2640823 -0.028519928 0.83173126
2.0549068 -0.029716872 0.83051866
3.7003064 0.0010859519 0.83416659
1.5354301 0.25684738 0.83287555
3.5277586 0.65524656 0.83771664
4.156836 1.5027044 0.83967108
5.1224928 1.8050588 0.83803755
0.5896709 3.0523176 0.83272296
1.8948604 3.3031416 0.83254224
5.2956414 3.9087853 0.83123225
1.5085371 -0.040233366 0.84729916
3.8391213 -0.013931952 0.84025556
3.0694113 -0.0092544779 0.84995717
1.8157617 0.31492144 0.84945077
4.0025997 0.40341824 0.84500688
3.336164 0.61571407 0.8499524
1.9730276 3.2996068 0.84410375
4.687685 3.7942653 0.84321123
5.7764812 3.9775023 0.84257966
1.6558388 -0.030000918 0.85793525
3.7609253 0.0057103634 0.85840279
0.39958787 0.034837887 0.85934514
1.1012884 0.15142158 0.85620826
3.7167492 0.69510186 0.85083717
3.997159 1.2971972 0.85810119
4.8991437 1.4886411 0.85617775
0.0028786659 1.5983987 0.85670632
3.0186033 3.4873686 0.85836774
4.2592616 3.7227931 0.85514146
0.78958988 -0.040877752 0.86992794
1.9338661 -0.039253801 0.86942381
2.6881437 -0.024055228 0.86270839
2.8335657 -0.0061289668 0.86859328
-0.005336076 0.91198695 0.86966377
-0.016194165 0.9776808 0.86082858
-0.031169325 1.4527224 0.8697291
5.8951283 4.0254459 0.86498672
2.7318048 -0.019141756 0.87953895
2.9380398 -0.019795664 0.87127489
3.9068851 -0.0062712282 0.87352723
2.450778 0.42816699 0.87580889
2.8683982 0.51261181 0.87692672
5.0775518 1.736254 0.87465829
-0.045628816 2.9439907 0.87185675
3.6327791 3.6022782 0.87459797
0.38554567 -0.055029705 0.88216144
0.070138156 -0.046897024 0.88994664
0.26622218 -0.0053458139 0.88443273
3.2300105 0.57410538 0.88689059
3.3417916 0.61835939 0.88148147
4.0522084 1.4924561 0.88501137
-0.016656548 1.6426879 0.88089436
5.2710419 2.2420011 0.88341337
-0.018486679 2.7962122 0.88315755
0.4992891 3.0424442 0.88787848
4.1115942 3.7069969 0.88658887
4.4021163 3.7373323 0.88532442
5.9551396 3.9403415 0.88917595
2.3789911 -0.017118588 0.89932936
0.7599889 0.096238941 0.8992576
4.5373011 1.5050095 0.89908522
5.3135729 2.3451347 0.89151889
4.4948273 3.7780833 0.89998442
3.372962 -0.0068550482 0.90161675
2.132381 0.3793276 0.90862459
2.3997922 0.42054355 0.90085989
2.5272202 0.44676065 0.90123802
3.9994335 0.83415985 0.90143067
4.4512076 1.5069995 0.90519172
5.611526 3.1377511 0.90263194
2.2804742 3.3798189 0.90396076
2.4053206 3.3815713 0.90905052
5.9324803 3.9846478 0.90120286
3.9107962 0.0098989308 0.91698378
0.0088849068 0.19943362 0.91892904
1.1961296 0.1970585 0.91942817
3.6748786 0.6853438 0.91654032
3.9170499 0.72433138 0.91659373
4.3900795 1.5052108 0.91853577
-0.021916717 2.8258801 0.91894692
5.5186062 2.9043655 0.91762894
0.71471643 3.0873528 0.91300088
5.6144495 3.9720459 0.91570443
5.8438773 4.0114589 0.91676444
-0.030574113 2.2192707 0.92723733
1.4763299 3.228034 0.92486209
0.62171352 -0.050369367 0.93157119
0.93266201 -0.045976549 0.93223888
1.6845518 -0.0432216 0.93056673
0.26823992 -0.0085051507 0.93129271
0.41651064 0.026056126 0.93802243
4.0370607 0.080815762 0.93151218
0.91884184 0.1214136 0.93445271
3.992146 0.77739686 0.93538314
0.38943988 3.0113769 0.93273503
0.55908871 3.0568824 0.93809742
2.4284902 3.3836794 0.93763047
2.5172548 3.403203 0.93336505
5.3504114 3.928196 0.93294781
2.1289859 -0.030305877 0.94104248
2.6597385 -0.0011349916 0.94805974
0.24975169 0.0068574399 0.94779247
1.3228577 0.21461263 0.94583958
1.9946357 0.37712049 0.94331318
3.1646037 0.55424201 0.94584316
3.9639893 0.73312318 0.94468635
-0.0008032918 1.5705162 0.94000632
-0.010688812 2.6739578 0.94801456
2.5482397 3.4259458 0.94066423
5.7974386 3.6331258 0.94689745
4.1769285 3.7054534 0.9417432
5.636734 3.9643955 0.94422621
3.3210449 -0.0059599653 0.95870858
0.67454731 0.079824075 0.95029896
4.0208726 0.41045469 0.9554047
-0.017247647 2.0313516 0.95601088
-0.025694996 2.2820687 0.95441872
2.5449262 3.4082842 0.95601076
0.002899617 -0.038149007 0.96937841
1.7279545 0.3037338 0.96941632
-0.004137218 1.0673124 0.9668588
4.277082 1.5115842 0.96013075
-0.021510601 2.2645941 0.96685475
5.3216929 2.3988047 0.96102971
-0.010518998 2.6584687 0.96377987
-0.007360369 2.8074794 0.96986979
5.5334578 2.9042439 0.96450347
3.5877776 3.6107979 0.96240002
5.4488201 3.9327402 0.96833974
0.20950848 -0.032740742 0.97814769
0.64078379 -0.033200905 0.97285873
3.1508474 -0.025644653 0.97784811
1.5189978 0.25868997 0.97104448
2.8202271 0.52268833 0.97165507
3.9977341 0.91686332 0.97802192
5.4968305 2.734385 0.97400373
0.88051546 3.1258941 0.97714001
5.1710968 3.8714466 0.97451824
5.7200813 3.9761806 0.97526234
3.9998279 0.39912629 0.98909014
3.9969001 1.3055782 0.98596996
-0.012277633 2.1088734 0.98841304
5.5786157 3.0627828 0.98889452
2.3291731 3.3623633 0.9838056
4.9790568 3.8394761 0.98000091
1.2248816 -0.03608264 0.99293941
2.5339732 -0.022136621 0.99120301
2.889967 -0.012975477 0.99746042
-0.003518492 1.2125186 0.99508685
-0.030129641 2.6198835 0.99825853
2.1472578 3.3440223 0.99509817
0.012981385 0.1645067 1.0043635
0.0031282008 1.1114947 1.0098224
-0.00073370337 1.9219538 1.0007393
2.9182816 3.470902 1.0081408
3.0188041 3.4776483 1.00915
5.5232739 3.9579692 1.0093322
0.016317964 -0.050035313 1.0192425
2.4079046 0.41370898 1.0180967
0.0068112314 0.65584815 1.0122283
4.0108986 1.1454049 1.0174024
-0.022773772 2.5402994 1.0180664
0.99933672 3.1485581 1.0111251
2.3277941 3.3748875 1.012753
0.13368475 -0.027271993 1.0249815
4.0246458 0.32137737 1.0293968
3.4153957 0.63321459 1.0218129
3.5861788 0.66459572 1.0293863
3.7887959 3.6348429 1.0263274
0.63002598 -0.038890146 1.0347886
1.3167219 -0.037456028 1.0355911
2.9644713 -0.017906085 1.0311959
0.43017566 0.036131322 1.0301535
2.1646795 0.38942152 1.0304766
-0.017841876 0.95840454 1.0379493
4.3110213 1.5003208 1.0308733
-0.025895357 2.5495324 1.0394518
0.51136243 3.0540977 1.0380335
5.7083421 3.406487 1.0350354
0.20099372 -0.010718644 1.0482802
1.0835224 0.17190632 1.0481031
2.1142292 0.37636 1.0424931
2.2084908 0.40512365 1.0483234
2.7412286 0.49442887 1.0419264
3.0606618 0.56605226 1.0402551
0.0015490353 0.9024334 1.0483959
-0.0047135949 1.2335137 1.0452342
4.4715438 1.5019385 1.0453775
5.3182936 2.3600693 1.0462379
1.9005371 3.2865877 1.0443919
4.7371669 3.8193855 1.0467153
5.6465273 3.9886999 1.0488563
0.36542374 -0.044005141 1.0599327
2.0827036 -0.017124139 1.059458
5.0682139 1.6722498 1.0516589
5.1769953 1.9788715 1.0517182
5.4930911 2.7527018 1.0562699
2.4282141 3.4010262 1.0572538
5.8325191 3.6969066 1.0542009
4.5706768 3.764256 1.0589466
2.925981 -0.013287254 1.0645487
0.31243491 3.0190601 1.0639288
1.3243457 3.2123098 1.0684359
2.8398709 3.4604287 1.0689831
5.2360015 3.9081407 1.060015
3.5332952 0.66506708 1.072525
4.2417636 1.5098401 1.0780563
-0.011429489 1.6498747 1.0710461
5.8397465 3.6644726 1.0771534
0.25227976 -0.045358121 1.0811665
4.0132022 0.62894022 1.0858047
3.7429757 0.71349633 1.0811183
5.3624687 2.5246425 1.0827832
1.4443309 3.2085261 1.0893946
1.5431849 3.2412548 1.0871372
2.093545 3.3253508 1.0875318
4.6499372 3.7703671 1.080704
4.7009525 3.8052349 1.0834808
0.63480031 -0.043516628 1.0923369
2.1458111 -0.039430052 1.0996938
1.2121356 0.18309793 1.0967977
1.2837049 0.19612005 1.0980186
0.0047083199 0.22814792 1.0959711
3.9892645 0.25099117 1.0974631
4.0058508 0.50591946 1.0901268
3.661006 0.70000613 1.0903637
4.0316162 1.273728 1.0912175
4.999301 1.5003406 1.0937591
-0.019010454 2.1193728 1.0904934
5.2176213 2.1271281 1.0917709
5.4677114 2.7302003 1.0912728
-0.018779308 2.7469239 1.0993245
0.5595547 3.0368233 1.0952446
1.3771887 3.2068129 1.0975981
1.5781387 3.2381196 1.0959821
1.955635 3.3166962 1.0974245
5.7577357 3.5079594 1.0919554
3.4086823 3.5809412 1.0932224
5.6517925 3.9627094 1.0992668
2.4489946 -0.040465035 1.1078532
2.4627352 -0.023966365 1.1067197
0.52245677 0.050226986 1.1085441
0.020657659 0.42665178 1.1058283
3.6602564 0.66505814 1.1083615
3.9950042 0.84351718 1.1077487
4.1181011 1.4880918 1.105973
-0.021531522 2.6249313 1.1006083
0.055476367 2.9492192 1.1082804
0.97282434 3.1221642 1.1008096
3.6702213 3.6172862 1.1020262
4.0510902 3.6866312 1.1065617
0.83071053 -0.03159865 1.1195555
0.67660534 0.082381383 1.1153271
4.0103583 0.23977208 1.1112649
3.0415721 0.53953004 1.1166859
3.4145794 0.61791581 1.1135604
4.0318208 0.62744063 1.1181829
4.0127344 0.8141951 1.1113045
3.3658385 3.5867658 1.1127055
4.2129784 3.7154198 1.1135864
5.9609585 3.9827318 1.1121371
3.7847404 -0.012313604 1.1267149
3.1336923 -0.0039826781 1.1247206
2.7582445 0.49697673 1.123287
-0.018792063 2.4247684 1.1223526
0.11093736 2.9681411 1.1247952
2.0006657 3.3132524 1.1254659
2.4866223 3.3893738 1.1255147
2.9602156 3.5004454 1.1275904
4.1122341 3.7018533 1.1278236
