# .PCD v0.7 - Point Cloud Data file format
VERSION 0.7
FIELDS x y z
SIZE 4 4 4
TYPE F F F
COUNT 1 1 1
WIDTH 1533
HEIGHT 1
VIEWPOINT 0 0 0 1 0 0 0
POINTS 1533
DATA ascii
4.001255 1.1275783 0.64749092
3.4861207 3.5804613 0.64711052
5.8145223 3.5958748 0.64916509
4.6405902 3.779484 0.64243883
3.7631903 0.0059690773 0.65341306
-0.02068764 1.0892091 0.65387207
-0.00032120943 1.365402 0.65303117
4.1681237 1.4786823 0.65406567
5.0396309 1.6274712 0.65953875
-0.022087097 2.2053156 0.65067601
5.3192244 2.3822925 0.65036786
5.7017107 3.3225384 0.65131944
3.2917888 -0.022244297 0.66946965
0.05171448 -0.01434166 0.66341943
1.6799905 -0.015211463 0.66709703
2.5459561 1.5445054e-05 0.66978657
0.83006287 0.12782007 0.66512132
1.2362596 0.21890354 0.66241521
1.9030666 0.33267546 0.66363126
-0.0094021261 0.68632078 0.66503692
-0.027997822 2.3313079 0.66872323
5.3301258 2.3940649 0.66387165
-0.0044680238 2.5294251 0.66862595
-0.023337483 2.846884 0.66660953
2.1011775 3.3296323 0.66762143
3.5102596 3.5842385 0.66797882
5.711307 3.9461825 0.6632936
1.1089574 0.18499964 0.67454553
2.8702643 0.52323419 0.67962658
4.6574264 1.5065489 0.6735394
5.0011921 1.5112581 0.67294884
1.2419682 3.1951778 0.67693144
2.9787908 3.4761922 0.67772526
3.5174465 3.5874145 0.6773054
5.8965893 3.7763982 0.67013973
0.37758023 -0.029056184 0.68978161
0.60361123 3.071876 0.68794191
4.9113784 3.8044748 0.68659055
-0.0035350323 0.38110381 0.69599217
3.9989967 0.73782235 0.69136953
-0.02092886 1.8138981 0.69595981
-0.02624166 2.5973504 0.69457698
0.99117041 3.1435983 0.69970262
2.2287593 3.3653026 0.69099128
5.6686831 3.9450681 0.69896585
0.53456461 -0.018441342 0.70092589
1.8946033 -0.018771619 0.70950788
2.3685522 -0.018045262 0.70913804
2.9712808 -0.017113067 0.70172495
0.8031522 0.12320966 0.70378995
1.030865 0.16999164 0.70237243
1.985606 0.34728128 0.70792508
-0.0076336861 2.2955234 0.70944202
0.1030159 2.9964478 0.70230526
0.40290207 3.0671213 0.7080397
0.60522068 3.0721619 0.70990348
5.765439 3.5376868 0.70400661
5.1926908 3.8548498 0.70562506
0.26453221 -0.025108792 0.71553934
3.2797964 0.61273426 0.71825635
-0.01018104 0.81582212 0.71470416
4.8708677 1.5078564 0.71322852
-0.023036599 1.6646156 0.71186405
3.0541086 3.5003574 0.71395111
2.4036846 -0.019287251 0.72089529
0.22743154 0.024519302 0.72616345
0.79538763 0.14265181 0.72898996
3.9532385 0.73072881 0.72196382
3.6396995 -0.018031031 0.73627377
2.4639022 0.013538055 0.73034531
-0.0058176219 0.34327996 0.73317719
-0.00050830841 0.9427467 0.73708797
5.0468311 1.6597829 0.73144788
5.396925 2.550972 0.73514163
0.42737246 3.0593486 0.73400462
1.6115456 3.2338321 0.73207921
4.7537785 3.7900805 0.73975837
5.5946341 3.9424145 0.73323172
0.96095645 -0.024896264 0.7407738
3.3453588 -0.014289409 0.7483933
0.61603415 0.090631694 0.74486494
1.7588556 0.30505043 0.74127066
-0.00058335066 1.0126605 0.74586505
0.013344705 1.303587 0.74510264
5.1561375 1.9449027 0.74847299
-0.010833025 2.0532968 0.741889
5.261035 2.1694295 0.74927586
0.00020706654 2.7249529 0.7496829
2.5115764 3.4056773 0.7490586
4.0812516 3.66957 0.74973756
4.8991122 3.819433 0.74826443
2.4905462 -0.00302279 0.75765789
-0.00027769804 0.37562189 0.75486165
3.9790802 0.44024539 0.75594544
3.7052364 0.69694662 0.75893068
3.9966545 1.1844668 0.75730723
0.98551488 3.1550527 0.75930995
2.611995 3.4308846 0.75179678
1.8645251 -0.0038103759 0.76615483
-0.014727116 0.73712331 0.76293129
-0.017546982 0.82480341 0.76648372
-0.0036270022 1.5463462 0.76173109
-0.0077989697 2.2533443 0.76425421
3.2268848 3.5389442 0.76825219
5.4428225 3.9188192 0.76364654
3.2035506 -0.0072108731 0.77872086
1.1587434 0.21851328 0.77426863
5.328115 2.3611643 0.77923679
0.68288386 3.0959678 0.7750625
1.405928 3.2158594 0.77957535
3.8052335 3.6439672 0.77112103
4.6464281 3.7724254 0.77354318
5.0692453 3.8433032 0.77151304
1.4122758 -0.034024432 0.78270757
3.652544 -0.0010619983 0.78312361
-0.0070472062 0.037629724 0.78143334
0.013859928 0.8209967 0.78571296
4.5493712 1.4815481 0.78635931
-0.023238003 1.4951236 0.78879154
1.2179836 3.1798899 0.78113019
1.4088714 3.2161086 0.78396094
1.5605183 3.2406771 0.78858912
1.7391284 3.2974818 0.78628039
5.7495337 3.4633048 0.78012073
5.9405575 3.9268959 0.78586662
5.9615655 3.9699409 0.78162277
1.4699301 -0.021336809 0.79221356
1.0869746 -0.0019881949 0.79005265
0.36220574 0.0443279 0.79946411
1.9474263 0.33775038 0.79800498
5.2144022 2.0763505 0.79164636
1.1683052 3.1704886 0.7946049
1.387866 3.2118669 0.79814303
4.8192339 3.8054421 0.79429674
1.5068285 -0.010266885 0.80277514
3.9986458 0.94559318 0.80192339
3.9815397 1.4035304 0.80881989
5.0562053 1.6783092 0.80601168
-0.0023451447 1.7887788 0.80861712
-0.0010796189 2.5301938 0.80784905
3.2967992 3.5448892 0.80498493
4.3727465 3.7326548 0.80431235
-0.0069878101 -0.013037108 0.8187834
3.180532 -0.011093743 0.81071937
3.4750657 0.0084262565 0.81596231
0.19932336 0.014594607 0.81423604
5.0285406 1.6092839 0.81365144
-0.0048348606 1.6401296 0.81051755
-0.013402104 1.9693439 0.81528497
5.5803118 2.9641953 0.81525123
2.1772261 3.3557837 0.81063676
5.1107287 3.8411539 0.81985497
1.1285253 0.18871039 0.82619333
2.3578973 0.43940437 0.8261919
0.24435508 3.0277936 0.82693589
3.0971756 3.5055258 0.82877874
4.2603369 3.7120068 0.8249768
1.7551589 -0.028870791 0.83651388
1.9970617 -0.025048532 0.83305037
3.8291841 -0.020496391 0.83255792
0.01316303 -0.011784002 0.83814669
0.35328722 -0.01604037 0.83571029
1.0547227 0.17258009 0.83823872
1.5028026 0.26872677 0.83563817
-0.016774386 0.56491292 0.83449149
-0.0069467425 0.97044855 0.8376193
4.8725448 1.4903762 0.83417225
-0.003798008 1.5887442 0.83379793
-0.0054356754 2.1421046 0.83740294
1.0329111 3.1493239 0.83476651
1.0547074 3.1658819 0.83322203
2.0066981 3.3025377 0.83969533
3.4678273 3.5701478 0.83706033
4.297636 3.7101333 0.83368087
0.77804542 -0.018023923 0.84682727
2.287689 -0.013158351 0.84492111
0.63804114 0.11429022 0.84352863
0.90505052 0.1498813 0.84655738
2.6986334 0.50727898 0.84229743
2.9370081 0.53336924 0.84078372
5.7195201 3.3369718 0.84205317
5.8470707 3.6548097 0.84456432
1.8729508 -0.022927299 0.85530353
3.9691396 -0.012362406 0.85013175
3.4801526 0.62901777 0.85586703
5.4142489 2.5371573 0.85000503
2.3863006 3.3755281 0.8548516
3.5500293 3.586807 0.85132027
5.6201358 3.9399569 0.85270345
0.19641918 -0.038676754 0.86448526
1.2960167 -0.025603235 0.86197078
1.7945046 0.0047632232 0.86838078
1.8582134 0.32224354 0.86103415
0.0051734447 0.84768403 0.86719692
5.177002 1.9536281 0.86825991
5.7385087 3.390955 0.86717975
2.5750101 3.4287701 0.86919153
3.8324852 3.6318691 0.86240554
5.8882933 3.8298576 0.86881089
3.0724707 -0.01817143 0.87214124
0.0025057197 0.43153584 0.87363887
2.5547233 0.4646576 0.87916386
3.107631 0.58641613 0.87890565
3.5829997 0.66975915 0.87985837
4.9835038 1.5134397 0.87195337
0.81153071 3.1316946 0.87851501
4.3306975 3.7109029 0.8783654
5.1012292 3.8492129 0.87361193
5.5985837 3.9409907 0.87600672
0.02943629 -0.03527119 0.88650763
1.1373482 -0.026419282 0.88053417
3.1061282 -0.020445064 0.88326502
1.7894137 -0.011902221 0.8897984
3.9885082 0.029212683 0.8807044
2.0293932 0.37414363 0.88044238
3.9892397 0.94771487 0.88283277
3.9875388 1.3236716 0.88980961
4.2153406 1.4859807 0.88502586
5.1238465 1.7999654 0.88774669
1.2511164 3.2038229 0.88584542
2.4730234 3.3886464 0.88917053
3.0781541 3.5183973 0.88461959
2.3041666 0.41859818 0.89012861
5.5130968 2.7946038 0.8904264
0.81339884 3.1193235 0.89491463
2.525485 3.3934231 0.89302599
3.6275868 3.589602 0.89335454
5.3779707 3.9072592 0.89444423
0.73465633 -0.01669582 0.9090482
2.7606859 -0.011266544 0.90972352
3.1224446 -0.014035128 0.90892625
3.9977484 0.053016901 0.9073745
-0.017640352 0.70019245 0.90849817
-3.8206577e-05 1.2931521 0.90426397
4.3283534 1.4953663 0.90998507
1.729372 3.2832887 0.90735209
0.85601926 -0.016093872 0.91373742
0.25748956 -0.0039360002 0.9147017
2.1989784 0.40248966 0.91851497
3.2978199 0.58769768 0.91220164
-0.014079213 1.3871155 0.91297066
4.9498668 1.4928548 0.91106498
4.1697984 1.5029566 0.91572702
2.4206355 3.3943238 0.91231024
2.7257886 3.4503033 0.91082346
5.8677616 3.6735744 0.91957712
4.3710456 3.7458282 0.91353428
-0.0025948882 0.26975349 0.92518044
3.6937499 0.69462681 0.92041516
5.1781721 1.9787903 0.92431939
1.407138 3.2112911 0.9279629
2.3881698 3.3955853 0.92749977
2.5542533 3.432668 0.92622769
3.3512397 3.5575171 0.92181313
0.38101822 -0.026132114 0.9379828
3.2127218 -0.0058496222 0.93852627
1.682683 0.29921606 0.93240893
-0.010707438 2.2266517 0.93525898
1.0970874 3.1652904 0.9301126
2.9524181 3.5024796 0.93948328
5.807632 3.5758946 0.93384755
3.1512747 -0.0069913939 0.94561756
-0.0083169937 0.26955673 0.94275129
-0.000685215 2.1071181 0.94008338
5.4173822 2.5647552 0.9445914
1.3562874 3.1986165 0.9416256
1.5219681 3.2382333 0.94094265
4.3568697 3.7139289 0.94732893
2.864641 -0.0135592 0.95920289
2.346632 0.4234696 0.95072448
2.3673801 0.43352425 0.95851135
0.023668766 0.99806648 0.95980024
3.9976983 1.0742116 0.95338762
4.4196453 1.4832456 0.95194304
-0.010952771 2.026649 0.95122898
5.3878431 2.5141196 0.9522543
0.92900789 3.1351035 0.95415866
3.8006134 3.6330223 0.95460975
0.15682971 -0.032407209 0.96710122
1.5350218 -0.032146059 0.96374428
0.41192138 0.044615835 0.96363318
0.82472956 0.12328513 0.96290171
4.9423041 1.5024009 0.964903
0.86316288 3.1281161 0.96157777
5.6872926 3.2833557 0.96081555
2.5663097 3.4028625 0.9647423
2.6899726 3.4311533 0.96859968
5.8698049 3.7520928 0.96391428
0.87979949 -0.023232199 0.97793746
2.2839601 -0.02315449 0.97896945
3.8974223 -0.01589226 0.9731251
3.6396294 -0.0033109859 0.97711623
1.7382462 0.31385052 0.97713423
3.9846635 0.50002331 0.97030354
3.9995184 1.0324175 0.97568357
-0.020112127 1.0435176 0.9792223
4.1951299 1.4831142 0.97341192
5.1195192 1.7761159 0.97328675
-0.0051371753 2.7168119 0.97039092
1.5994382 3.2504957 0.97839963
1.3105512 0.22885633 0.98162282
2.647166 0.50321269 0.98908579
3.9956522 1.4088006 0.98694134
4.0459142 1.4856055 0.98756027
4.9678073 1.5053427 0.98414004
0.0038327575 1.7359023 0.98291206
5.1218944 1.8318424 0.98436606
5.5789642 2.9134767 0.98223531
5.6408219 3.1475606 0.98370421
2.5482266 3.4083664 0.98762429
0.71641958 0.0027349442 0.99963677
0.88851404 0.13957952 0.99672055
0.0060994029 0.36335617 0.99049878
2.1777709 0.38251916 0.99879873
-0.0066823959 0.8910771 0.99136984
3.9899364 1.4895818 0.99636185
5.6881776 3.2597182 0.99861979
2.6537986 3.434036 0.99277341
3.0996079 3.5106602 0.99719751
3.8685946 3.6300421 0.99847674
5.9148293 3.8529637 0.99750865
5.3182473 3.9024289 0.99858677
1.0407456 -0.021856174 1.0078567
0.35771233 -0.013624415 1.0088239
2.1297996 -0.013287142 1.0090127
2.631079 -0.0041931495 1.000828
0.20182532 0.024213895 1.0066758
-0.0055215955 0.098982006 1.0004208
0.82384789 0.13782743 1.0072916
4.0640512 1.4945111 1.0094976
4.1353459 1.4910276 1.0066739
5.2366142 2.1018136 1.0044479
-0.012298286 2.9222274 1.0094036
5.7421699 3.4039116 1.008255
5.8124237 3.6095765 1.001931
2.2808199 -0.020484529 1.0190458
0.42470104 -0.018687345 1.0112476
1.7125225 -0.015305191 1.0112896
3.4723086 -0.016441047 1.0145893
0.98289156 0.16731077 1.0139027
2.9743891 0.55398923 1.012929
-0.0091867447 0.88724464 1.0135981
-0.022323608 1.3724523 1.017004
5.2400799 2.1160417 1.0140917
0.32674795 3.0318191 1.016499
2.860651 3.4644659 1.0172173
4.0905871 3.6657124 1.0160937
5.9233184 3.8327169 1.0148683
1.6112907 -0.014746293 1.0216168
2.543565 -0.0092029497 1.0249741
0.1184305 0.0063079447 1.0229826
3.9991813 0.019432418 1.0296391
3.9711361 0.4731192 1.0233613
-0.017092824 2.30358 1.0251886
3.0934811e-05 2.6374719 1.0256196
5.7600374 3.441241 1.0261829
3.0345142 3.4915268 1.0213197
3.7574739 3.6278503 1.029002
5.9011917 3.787595 1.0257916
4.7456112 3.7957101 1.0229069
2.2079964 -0.013882481 1.0382836
1.4527125 -0.0035621822 1.0357171
2.9779651 0.0018447265 1.0309501
3.9829059 0.033861294 1.0301743
0.00081646442 0.69280863 1.0351081
1.4844283 3.2452347 1.033362
1.5367606 3.2530055 1.036306
3.6619854 3.6209509 1.0324655
1.0858687 -0.031397477 1.0440022
3.399756 -0.0089846328 1.0429363
0.9453634 0.17322928 1.0411069
3.9920492 0.6361829 1.0402669
3.9842386 0.70158064 1.0450379
5.3573284 2.3968735 1.047374
-0.012866229 2.9197953 1.0496716
5.7139926 3.9689867 1.0464234
5.9576011 4.0035186 1.0435762
1.0394174 -0.029717788 1.0547062
0.076139152 -0.016606562 1.0549279
-0.0015646219 1.0107522 1.0533381
4.0091677 1.3328574 1.054136
0.28642285 -0.026936106 1.0604143
0.44643897 0.059888601 1.064798
2.2122085 0.40532559 1.0611287
3.9906325 1.3473539 1.0684229
1.6203043 3.2680883 1.0609379
1.9140172 3.306432 1.0659283
5.5401926 3.9205692 1.0627862
1.7625349 -0.037225418 1.0741085
2.1501892 -0.019366436 1.0785871
3.9844923 0.23537236 1.0732021
2.5833333 0.45831472 1.0750563
2.8279366 0.51246101 1.078941
3.9907727 1.0146799 1.0736275
4.2687726 1.4912522 1.073222
5.3623757 3.8836718 1.0719799
1.6561441 -0.018527083 1.0809606
1.239118 0.20337647 1.0802509
1.571305 0.28753158 1.0829411
-0.0078474283 0.89286089 1.0813603
0.35888934 3.0167279 1.0876775
3.1326253 3.5197797 1.0835528
0.42920458 0.049417078 1.0938665
2.5152423 0.4651081 1.0984616
-0.011778563 1.0521581 1.0946316
4.8092976 1.4944775 1.0971869
3.8426137 3.6257606 1.0917208
5.9791317 3.9537241 1.098774
5.8628049 3.9835699 1.098384
0.55982077 -0.023952439 1.1098264
3.9845076 1.1183259 1.1011866
0.85133553 3.1364686 1.1043521
1.1409768 3.1652882 1.1069535
1.1992869 3.1791914 1.1052632
5.6501741 3.1886542 1.1013601
0.072256565 -0.032167315 1.1130947
0.15449214 -0.012237333 1.1193198
3.0135517 0.53554088 1.1140412
3.979413 0.58078593 1.1198313
3.9651613 0.7352314 1.1190852
3.9876437 1.3663855 1.1142632
5.5485964 2.9012282 1.1147642
1.1477416 3.1784539 1.1121615
5.7538838 3.4633281 1.1198994
4.5649486 3.7486658 1.112891
5.5944376 3.9357951 1.1189185
0.75389159 -0.030936897 1.1214464
1.4803424 -0.0027288273 1.1267904
0.011069298 0.3888483 1.1244425
4.359817 1.4941843 1.1223226
-0.019910395 2.9359186 1.1272995
1.9396794 3.3034005 1.1293353
2.442687 3.3964651 1.12744
4.5642228 3.747155 1.127676
4.7249126 3.7845545 1.1230823
0.47701913 -0.025541 1.1319793
4.5244927 1.5124638 1.1354281
5.03584 1.5700941 1.1355879
5.8159919 3.6042564 1.1397141
0.33876884 -0.029050335 1.1427138
0.98494852 -0.027851582 1.1473891
1.5439281 -0.015883982 1.1415256
2.2481718 -0.010189347 1.1404399
3.9919415 0.10451779 1.1468977
1.0231459 0.16784745 1.1465908
1.6810973 0.2863043 1.1420767
2.9346368 0.53978902 1.1411902
5.0749693 1.7544725 1.1480635
5.5542068 2.872457 1.14347
2.3860264 3.3922524 1.1476934
5.8897972 3.774698 1.1459625
5.3978796 3.9024179 1.1407678
5.7162499 3.9391844 1.1426272
2.4209194 -0.028197818 1.1585335
0.88421106 -0.018283121 1.153034
3.336329 -0.016076066 1.1505227
3.9989524 0.4719637 1.1525174
5.0762477 1.7187245 1.1581602
5.4561901 2.6612747 1.1563495
3.5946174 3.5913584 1.1547979
0.67055035 -0.024152309 1.1649625
1.9319158 -0.011741266 1.1677071
3.607904 -0.011029087 1.161908
0.75328624 0.11999658 1.1650782
2.7491293 0.50040132 1.1608273
3.3208807 0.61443758 1.168056
3.9811797 1.2225635 1.1674025
0.4870165 3.0581305 1.1639084
0.61616564 3.0907876 1.1686714
2.1063566 3.3471882 1.1600965
3.3715079 3.5529628 1.1623323
3.6406236 3.5882177 1.1694038
0.1117062 -0.030253544 1.179112
1.1208892 0.16659632 1.1776055
3.9956379 0.49393314 1.1730103
3.9991856 0.73526949 1.1732618
-7.6949596e-05 0.93892688 1.1759486
4.0018873 1.182781 1.1721359
4.2037044 1.5000541 1.1771077
-0.019086838 1.9469266 1.1742172
-0.0032957196 2.6887312 1.1762344
2.1112776 3.3500574 1.1702539
2.8734014 -0.0220237 1.1853982
0.0082278252 0.39191633 1.1872103
-0.012066156 0.46133655 1.1810325
5.4160523 2.5542376 1.1818552
3.2274661 3.5191596 1.1861708
3.7879276 -0.01365719 1.199767
3.7765965 -0.0024432391 1.1944644
2.7793949 5.825609e-05 1.1996614
3.4095106 0.63962382 1.1946472
-0.013335466 1.1204286 1.1935369
2.9829705 3.4670472 1.1981966
2.4923563 -0.020100489 1.2010198
0.032731116 -0.010637544 1.2036465
5.3772125 2.4787176 1.2097566
5.3811522 2.4795496 1.204762
0.32564944 3.0391214 1.2000426
5.6436706 3.1320088 1.2084547
2.4347808 3.3950536 1.2041616
2.8741255 -0.001301825 1.2169226
2.9923985 0.53886676 1.2113489
3.7890282 0.70800489 1.2179996
-0.016970932 0.92965859 1.2107885
3.9881411 1.2383506 1.2110299
4.2665362 1.501291 1.2183703
5.340467 2.3985243 1.219514
4.1658878 3.7085507 1.2165946
4.3876305 3.7379065 1.2190396
5.1294336 3.8456314 1.2148694
1.5201821 -0.030473806 1.2256352
3.8529129 -0.010334104 1.2261956
0.36321592 0.03819035 1.2263759
0.79823244 0.14393777 1.2287878
1.0556294 0.15961167 1.2273664
1.8711464 0.3260341 1.2257823
4.3006892 1.4866951 1.2261575
5.062078 1.6532288 1.2294314
2.8088732 3.4727147 1.2273365
4.3270574 3.7135332 1.2237819
1.1375992 -0.023348726 1.2352564
-0.0064791739 1.6456671 1.2312191
5.1747775 1.9322071 1.2367661
5.2688546 2.1875753 1.2374243
1.3271621 3.2197247 1.2342644
2.7231698 3.4389195 1.2399737
5.5417938 3.9256432 1.2363421
-0.0044863224 0.1905686 1.2462329
3.1379905 0.5636062 1.242837
4.0036306 1.0841432 1.24667
-0.015215755 1.8040874 1.2424943
5.4234204 2.5708022 1.2421136
1.8322103 3.2885659 1.245862
3.2053318 3.5163889 1.240202
3.1960216 3.5385725 1.2413547
0.68521309 -0.042887628 1.256439
2.5467119 0.46233338 1.2512735
-0.020075768 0.54358357 1.2569708
3.6689839 0.67224413 1.2582178
1.4751991 3.2238355 1.251899
3.1359563 3.5140219 1.2572381
0.12936467 -0.031867705 1.2632859
0.20121604 -0.022199303 1.2681562
2.605556 -0.022063173 1.264334
1.6248496 0.29902014 1.260306
2.2192461 0.39969128 1.2606798
4.002121 0.56238031 1.2619307
4.0053587 1.3641696 1.2620295
4.8922472 1.4787071 1.2672194
4.1920905 1.4934196 1.2656683
4.1960592 1.5063899 1.2647337
3.8152876 3.6401365 1.2624795
4.7647271 3.77719 1.2699105
4.9255009 3.8179801 1.2673401
5.2851129 3.8805101 1.2691693
3.1001999 -0.012814179 1.2707732
0.15856391 0.017005637 1.2722214
0.38565445 0.046302423 1.2776551
0.73235583 0.12021059 1.2756792
5.222115 2.0963221 1.274708
0.0019444227 2.5430799 1.2785647
5.0759392 3.8466337 1.2740949
5.3232517 3.8813703 1.2710117
5.4581985 3.9066556 1.276805
0.61075675 -0.034365982 1.2870228
0.49988317 0.070867926 1.2896968
2.4866731 0.45352763 1.2885454
4.0107651 0.75361592 1.2886312
-0.0078157485 0.80001044 1.2899148
5.4452729 2.6018243 1.2800333
5.522326 2.8224537 1.283251
2.5138135 3.3844228 1.2805996
5.7474322 3.3883898 1.2899022
2.9354451 3.4943166 1.2815161
0.54765058 -0.032520682 1.2988949
3.9410477 -0.026670769 1.2925317
3.3174336 -0.011740685 1.2900563
0.92331314 0.13978674 1.2951745
0.00063568354 0.25132406 1.2973491
5.1022053 1.7396224 1.2916979
5.2039046 2.0051723 1.2987671
-0.033522576 2.6402249 1.2926867
4.7268481 3.7897933 1.2984488
5.0562606 3.8517084 1.2938633
5.5797715 3.9311879 1.2946759
2.5108366 -0.028249636 1.3035285
3.3884876 -0.01031971 1.3025357
3.0619969 -0.0026254579 1.3048236
1.903739 0.3217133 1.309103
3.0082321 0.55309314 1.307182
3.9992409 0.57415146 1.3038585
4.7441998 1.5007977 1.3070862
1.0918088 3.1416962 1.3044559
3.6149044 3.5838156 1.3024814
5.8682399 3.7464089 1.3075753
5.1581869 3.8704157 1.3031942
3.4273837 -0.015465789 1.3129615
3.9955277 0.20475918 1.3153625
-0.0095715225 0.87837005 1.3186092
4.7189093 1.4856863 1.3119279
0.37090856 3.0488031 1.310043
2.0958726 3.3098018 1.3119025
3.6442146 3.6024027 1.3126887
3.7614613 3.617753 1.3158292
4.1538854 3.7009683 1.3181015
1.3791097 -0.026122585 1.3283188
2.1795568 -0.010655455 1.3245046
2.8078654 0.49696302 1.327361
3.5568008 0.64750773 1.3226417
-0.012728661 1.7145672 1.322711
5.4703054 2.6953301 1.3277632
0.50614393 3.056108 1.3295205
0.76408374 3.1006501 1.3212172
5.716692 3.3846438 1.3277659
5.9243751 3.8937175 1.3280492
0.037109196 -0.032035932 1.3354237
2.0926194 -0.038918786 1.3345989
2.2465055 -0.012164108 1.3307821
-0.023862898 2.1229677 1.3324254
5.2663422 2.2165999 1.3327392
0.99507654 3.1479049 1.3344209
2.6138978 3.4276981 1.337945
4.6270571 3.7521515 1.3397319
0.037430048 -0.052536055 1.3494334
2.7122829 -0.015581623 1.345811
4.1187754 1.4898319 1.3425545
4.6819444 1.5009487 1.3476487
5.1508865 1.8718765 1.3495265
-0.017398864 1.9352546 1.343289
-5.9604645e-06 2.9050851 1.3447653
0.48039544 3.0576332 1.348318
3.7654309 -0.0020641237 1.3561276
0.45972145 0.054074988 1.3560395
1.8561416 3.2631588 1.350867
1.929131 3.3083656 1.3577685
2.4249833 3.3907831 1.3529394
3.8540478 3.6462607 1.3576615
0.66251314 -0.034930006 1.3661317
3.7911596 -0.026605956 1.3666836
2.7995431 -0.014534555 1.3644681
0.65355146 0.089154616 1.3644912
1.1967278 0.19724652 1.3666505
-0.019898295 2.137732 1.3674855
5.5065422 2.7627356 1.3686094
0.77054381 3.0949559 1.3644526
0.16109908 -0.022549614 1.3717031
1.8143969 -0.02180922 1.375538
1.324464 -0.019014947 1.3748273
3.4967217 0.00029030442 1.3719811
1.2185962 0.22715729 1.3740215
3.9868455 0.24706835 1.378726
3.0800767 0.54687262 1.3758391
-0.012809932 0.60624552 1.3748301
3.4032414 0.63050753 1.3714317
-0.031232506 1.3148425 1.3756102
4.7344985 1.4756916 1.3749223
4.8276548 1.4933376 1.3757812
2.5147066 3.4081903 1.375412
4.748837 3.7932165 1.3715199
2.9910514 -0.0073854774 1.3864852
0.30293185 0.023002967 1.3888724
-0.0041178465 0.28054315 1.3853285
2.9079378 0.54384547 1.3840771
3.7631621 0.71129137 1.3836343
4.7884197 1.4967613 1.3874139
0.19765264 2.9795325 1.3845066
1.097172 3.1620865 1.3888949
1.5859866 3.2232802 1.3812864
1.662185 3.2647491 1.3863723
5.8465419 3.6375196 1.384504
4.980814 3.8142061 1.381615
4.9867873 3.8377142 1.3829855
0.28514475 0.032023758 1.3956617
5.010684 1.5664136 1.3930787
0.59013808 3.0651116 1.3932968
4.5967884 3.7676809 1.3900106
0.23401535 -0.047116652 1.4068837
0.10715884 -0.028661251 1.4054166
2.6502328 -0.016635738 1.4087076
0.15907687 0.012966 1.4048135
5.3845963 2.4744942 1.4047689
5.6329627 3.0944972 1.4067734
2.5270629 3.3879378 1.4062904
4.5237694 3.7315557 1.4064925
3.2121289 -0.020463847 1.4179316
3.7134542 -0.010836437 1.417882
2.516907 -0.0027224272 1.4171528
3.9790602 0.22393414 1.4183499
-0.015639126 0.59979546 1.4115129
3.9911561 1.308495 1.4153316
2.4698439 3.3992598 1.4150037
3.0475516 3.5084858 1.4132479
4.7193651 3.7770035 1.4144706
5.8064299 3.9708965 1.4147542
1.5766518 -0.04273697 1.424889
0.028634191 -0.022941075 1.428735
0.50334024 -0.018349223 1.4228195
2.2457364 -0.018240318 1.4272655
4.0079069 0.15689838 1.4279404
4.488348 1.4675436 1.4281888
0.46587777 3.0633633 1.4209343
0.95752239 3.1278341 1.4228542
1.2257859 3.1736398 1.4291314
1.5511863 3.2451255 1.4286468
3.6562128 3.5916171 1.4249129
3.9408131 3.6480744 1.4295785
2.5027444 -0.031622872 1.4362496
3.2437618 -0.016826056 1.4385802
3.9292836 -0.017243639 1.4313866
4.0137286 0.13647144 1.4342015
3.8493524 0.70820332 1.4339043
5.0909567 1.750293 1.4303573
3.6410303 3.5970356 1.4301783
1.0281937 -0.032201909 1.4461054
0.094576657 -0.025851436 1.4411004
2.5753951 -0.024240643 1.4489239
1.8260653 -0.016849287 1.4400588
0.0074961782 0.09409833 1.4460166
0.092215121 2.9843452 1.445133
2.5754821 3.3940446 1.4458622
5.7493386 3.4119499 1.4464208
3.6492038 3.5985465 1.4432018
0.08700192 -0.045930717 1.4565417
3.3540232 -0.021430165 1.4508564
1.7420266 0.3255581 1.4557402
3.9883051 0.50181073 1.4542162
4.4637747 1.5032179 1.4555619
1.6774747 3.2552629 1.451932
2.5923727 -0.023409404 1.4657245
0.34630919 0.029028371 1.4675404
0.0080599785 0.069092408 1.4602978
3.5246477 0.63304681 1.4615506
3.9178691 0.72772568 1.467754
3.9894505 1.1785729 1.4623662
0.12475848 3.0030816 1.4678376
1.2449847 3.1744981 1.460207
2.9805892 -0.017774299 1.4700506
3.9856958 0.9027198 1.4799004
4.0095744 1.3245718 1.4706857
2.2390873 3.3603513 1.4718651
2.6829455 3.4291649 1.4757432
5.7627039 3.4904373 1.4714074
4.4443517 3.72911 1.4741663
2.2265534 -0.027470551 1.4888787
2.6420636 -0.01913847 1.4800931
1.5617933 0.27257967 1.4891735
2.4280868 0.43395305 1.4897369
4.9517226 1.4826241 1.4817363
4.9930725 1.4817402 1.4862109
4.7439404 1.4918146 1.4855456
0.11482877 2.9806883 1.487125
2.3982482 3.3686318 1.4806873
2.8227408 3.4628534 1.4830589
0.58474314 -0.020445816 1.4991567
1.981029 -0.014293104 1.4952525
1.8500795 -0.0064461753 1.4970583
3.9927115 0.22220707 1.4923339
4.5502853 1.4887688 1.4974196
4.3099566 1.4954839 1.493549
5.3835983 2.4880719 1.4980016
1.1539351 3.1624827 1.4972754
1.6515019 3.2513869 1.492872
3.2323434 3.5306184 1.4915584
0.42155349 -0.032108098 1.506458
2.4535553 -0.0062548071 1.5081784
5.374249 2.4843221 1.5082899
5.4543576 2.6834087 1.5072703
5.5042672 2.7849946 1.5077308
1.5180306 3.226403 1.5097992
5.7262831 3.3389273 1.5079632
2.7677729 3.449497 1.5004171
3.0532827 3.4896698 1.5075109
5.8675456 3.7387748 1.5062243
5.6120911 3.9242971 1.5021087
1.5803146 -0.041901588 1.5103803
1.8323991 -0.027052879 1.5186267
1.4453299 0.24191946 1.516825
2.914139 0.53134668 1.5163391
3.8102913 3.6093097 1.5142825
0.5348407 0.066835657 1.5242214
0.80274415 0.12703717 1.5207152
5.0829439 1.6909571 1.5299007
-0.0099262595 2.2058079 1.5288556
1.4949431 3.2324388 1.524001
1.5008798 3.2521458 1.5242027
5.5374851 3.9211876 1.5291864
2.4356482 -0.019814119 1.5347722
0.14686257 0.016630404 1.5390439
0.87345684 0.12965858 1.5348312
4.0105653 0.45635086 1.5390297
3.9937291 0.79417878 1.5358404
5.1386132 3.8538697 1.5327681
0.26262408 -0.02026324 1.542546
2.5178387 0.45010257 1.5474156
3.9888535 1.2684345 1.5426362
0.92425835 3.1319137 1.5415331
1.8808784 3.2883327 1.5455821
5.8075008 3.6213634 1.5484376
4.3614392 3.7147722 1.5431634
0.77137005 -0.013949424 1.5587314
2.1588912 0.38413829 1.5564507
5.3869357 2.4775836 1.5549108
5.0361886 3.8374326 1.5556216
5.2113614 3.8531287 1.5548794
0.59602118 0.089420363 1.5694214
3.999969 0.90883487 1.5612489
4.1955552 1.4856265 1.5632969
-0.00053519011 2.3846982 1.5601399
0.74302673 3.1077795 1.5686464
5.7018132 3.2632005 1.5610845
2.5661397 -0.030054197 1.5785235
3.7522612 -0.016126007 1.5736148
0.39461392 0.04052113 1.5734082
3.9967461 0.88277847 1.5770568
3.9968662 0.93949646 1.573809
4.0902967 1.4716418 1.5779725
5.4495811 2.676609 1.5702521
5.5420818 2.8665681 1.57727
0.5231005 3.0526268 1.5734439
2.2483559 3.3563073 1.5715601
0.38353646 -0.012713782 1.5862026
2.7063959 0.49644482 1.5831169
3.9868135 1.3606653 1.5889863
5.0576849 1.7012227 1.5859767
-0.026961267 2.5973372 1.5840137
0.47865468 3.0470266 1.5865711
2.7446141 3.4344816 1.586833
5.7558928 3.438072 1.5877419
3.0975947 3.5078793 1.5889463
5.8720765 3.7180154 1.5867527
5.7217178 3.9715831 1.585451
5.9597278 3.9955208 1.5849916
1.6266508 -0.024263024 1.5964251
1.8656363 -0.022332571 1.591723
0.00010830164 1.706696 1.594228
5.3827343 2.4971256 1.5918509
0.52315784 3.0575862 1.5973011
2.668252 3.4362471 1.595992
3.3269312 3.5557978 1.5975275
0.4656297 -0.03746587 1.6026891
3.3334033 -0.013326854 1.6002345
-0.024118096 0.089139178 1.6064212
0.75493062 0.10428324 1.6039573
3.9953327 0.11309759 1.6021502
1.6327119 0.28056943 1.6012125
2.063885 0.36500633 1.6053503
4.6731496 1.4810891 1.6082075
2.543473 3.3967886 1.6005691
5.0563779 3.8539691 1.6010945
3.9068136 -0.033348247 1.6192039
0.67002392 -0.024784923 1.6131778
2.5475647 -0.014791921 1.6168222
2.9552124 -0.018151805 1.6110672
3.9790816 0.73000652 1.6167476
4.5217075 1.4829381 1.6155148
5.0424585 1.6029234 1.6106908
-0.014213979 2.3860004 1.6127391
2.0029628 3.2963142 1.6112605
2.6097782 3.4150798 1.6128966
1.0946802 -0.026939943 1.6279095
0.090111613 -0.018452242 1.6205226
1.9690585 0.3315579 1.6258833
-0.028000057 1.1543212 1.6255484
4.7082705 1.4998376 1.6266162
0.77873039 3.0970819 1.6247916
1.418004 3.2064614 1.6215366
5.4227495 3.903353 1.6284931
5.7153282 3.9553363 1.6252733
1.4005547 -0.049108557 1.6349331
0.2619139 0.020009741 1.634073
0.89831698 0.13541637 1.6314555
1.0237508 0.15807462 1.6303601
3.9024615 0.71546507 1.6378813
0.0026605129 0.9719153 1.6375442
0.15446419 3.002641 1.6309947
2.0033455 3.2936308 1.6365172
2.3090119 3.3675921 1.634102
5.7288609 3.3769753 1.6362602
4.3983917 3.7249913 1.636791
4.9927011 3.8166683 1.6325297
0.46427 -0.053784903 1.6447093
2.1252868 -0.03154926 1.6429629
4.0072598 0.13442312 1.6421833
0.006626606 0.34963414 1.6464791
3.6684947 0.66612428 1.6416366
0.97420311 -0.027009286 1.6542238
2.1407831 -0.021956585 1.6553566
1.7538977 -0.015393361 1.6517774
2.0426297 0.36246851 1.6576725
0.0085077286 1.4136293 1.6507679
-0.038273245 1.5312719 1.6552016
5.7220144 3.3190751 1.6576983
3.2227895 3.5161083 1.6560043
5.8393068 3.9756196 1.6513594
1.0666848 -0.032246344 1.6666505
0.060077071 -0.011847124 1.6680148
-9.894371e-05 1.1549916 1.6653761
-0.0101569 2.5560858 1.6651762
0.027514815 2.9735632 1.6660751
0.41410846 3.0449367 1.6623273
1.4437934 3.2208152 1.6668741
3.0900543 3.4900899 1.6688913
3.2583807 3.5217621 1.661736
3.5928469 3.5786593 1.6649745
5.1047254 3.8421025 1.6608937
5.5710564 3.9096701 1.6682423
-0.0059627593 0.43793821 1.6735685
2.5607452 0.45757836 1.6797687
-0.010078281 1.0508971 1.6783941
5.1771536 1.9314115 1.67141
-0.0054689944 2.0123613 1.674983
4.692431 3.7528751 1.6769207
5.9433827 3.9098074 1.6759115
0.78595638 -0.026582934 1.6873665
2.7521882 -0.029071182 1.6806532
2.7961876 -0.023931906 1.6822308
3.9992256 0.24905777 1.6845192
4.0011086 0.2990714 1.6856557
2.5446401 0.45150512 1.681843
2.682904 0.49120998 1.6882678
3.7625504 0.68999559 1.6826297
3.9866147 0.68213397 1.6863375
3.997366 1.4446895 1.6807477
5.3632693 2.3699744 1.6892051
-0.011374205 2.5431302 1.6866722
0.43014652 3.037931 1.6868819
2.936403 3.4739742 1.6883947
4.4369683 3.7116737 1.6848588
5.1832132 3.8589196 1.6832951
2.2338521 -0.032949977 1.6937097
1.0132277 -0.026769795 1.6903239
0.10296118 -0.0011658594 1.6905249
0.94555259 0.15918079 1.6942166
1.9218464 0.34742895 1.6916128
2.6003206 0.45036751 1.6976696
-0.0078734457 1.1270669 1.6962781
0.59234929 3.073456 1.6909074
0.68773162 3.0979226 1.6962862
0.82094431 3.1162343 1.6926085
3.5346713 3.5557499 1.6959242
2.9702945 -0.033179313 1.7010759
1.7790153 -0.026631631 1.7066796
0.75470638 0.11993811 1.7022163
2.0819113 3.3246434 1.7042688
0.20231414 -0.028330766 1.7141019
3.1761146 -0.012378655 1.7105968
0.35618323 0.048087865 1.7147433
1.4204023 0.24222937 1.7176718
2.142987 0.39300802 1.7170818
2.2715704 0.41122139 1.7197062
-0.016162395 2.8297565 1.7183391
0.34156042 3.0351388 1.7109417
2.0293345 3.3415995 1.7118455
0.043266952 -0.018073075 1.7204124
2.0199969 -0.017335311 1.7263892
1.869348 0.33035645 1.7231494
2.2445858 0.38743898 1.7252719
3.8760748 0.70521915 1.7261462
5.6217308 3.1118805 1.7246819
2.2469945 3.3492551 1.7282375
2.9089937 3.4679089 1.7270443
3.0042913 3.4834969 1.7275426
0.15899205 -0.043102123 1.7308829
1.4254663 -0.039496094 1.7329942
1.6060364 -0.021511868 1.7309544
2.3707922 0.41609097 1.7396108
3.9310803 0.73179942 1.7338585
5.0729356 1.7011747 1.732365
1.8812652 3.2887385 1.7313191
5.6992354 3.2980266 1.7301198
3.9356642 3.6280119 1.7357188
0.19650304 -0.021882147 1.7444363
3.9858508 0.63496381 1.7487583
3.682116 0.64884806 1.7487725
3.7070756 0.66958624 1.7418649
-0.0049380064 1.3904891 1.7481483
4.9425983 1.488555 1.7423931
5.1860576 2.0011175 1.743383
5.2862716 2.2381947 1.7482574
1.6910462 3.2422912 1.7417121
1.6749525 3.2682762 1.7447071
5.114675 3.8467906 1.7401128
1.4838313 -0.030699223 1.7570692
1.865628 -0.02088064 1.7515706
0.68296432 -0.019779161 1.7513692
3.2006764 -0.0080615357 1.7584578
3.9572811 0.71422398 1.7564526
0.61253679 3.0551071 1.7519876
5.9445214 3.9420536 1.7517335
1.5510571 -0.038409263 1.7602594
1.5276845 -0.023478806 1.767912
1.0668166 0.15544781 1.763016
1.3042547 0.20868722 1.769721
4.2606988 1.4787209 1.7647504
5.0303202 1.5576913 1.7650887
2.039619 3.3260527 1.7648668
3.0197849 3.4783406 1.7621773
3.7867894 3.6470644 1.7605009
2.0464766 -0.01885131 1.778299
-0.01306802 0.0014152154 1.7711542
-0.0021950603 0.27749252 1.777663
2.457876 0.42318159 1.7793025
3.9733853 0.84433061 1.7754543
-0.0049251616 2.793725 1.7705672
5.6341982 3.1127298 1.7743084
5.4856744 3.910404 1.7730656
1.9769516 0.35935652 1.7835063
-0.01964879 0.79711705 1.7832879
0.79950321 3.1080806 1.7821931
5.9361196 3.8980627 1.7828172
3.9886565 0.98887998 1.7959059
2.0838997 3.3274465 1.7942687
4.3556376 3.7265921 1.7909991
5.9357033 3.9434564 1.7916392
0.27816093 -0.024069823 1.8094195
-0.010347903 0.27710056 1.8039926
2.3505664 0.39911538 1.8009681
3.9966803 0.92314202 1.806352
2.3230946 3.3390362 1.8039144
2.3430727 3.3661714 1.808391
2.961973 -0.037605457 1.8187715
3.9763575 -0.0031212866 1.8183802
3.9867854 0.11038093 1.8195752
-0.027007788 0.16623291 1.8100344
2.9872105 0.53415829 1.812584
4.3351889 1.4846349 1.8186845
4.0898142 1.4992015 1.8161672
0.15740877 3.0041037 1.8188697
5.8975139 3.7807188 1.8183049
1.3566774 -0.018833652 1.8296157
0.64212763 0.082427278 1.8278333
3.1398239 0.5734269 1.8282205
4.7839308 1.4923692 1.8252274
-0.010831386 2.0694671 1.8294119
0.027332127 2.9657261 1.8271507
1.2856765 3.1959023 1.8263856
5.8464427 3.6420865 1.8220166
0.0060961246 -0.039788876 1.8357054
3.6353087 -0.029258005 1.8393916
3.9759817 1.179004 1.835672
-0.014137208 2.7830737 1.8302516
1.6142211 3.2522974 1.8374285
2.3802838 3.3754535 1.8326129
5.8144088 3.617486 1.8323706
4.7515779 3.7797036 1.8368362
5.9298596 3.9243367 1.8357393
3.5805488 -0.030376673 1.8467547
0.23939699 0.0091202036 1.8406326
0.91933823 0.13116126 1.8466262
4.0042291 0.61441964 1.8448032
4.0086894 0.67682862 1.8420771
-0.0099675059 0.75431347 1.8470043
4.0009775 1.433805 1.8488117
5.029748 1.5323548 1.8419398
-0.0041073561 2.2073061 1.8492171
2.3583741 3.3813343 1.847427
5.9225659 3.9881141 1.8464857
1.0428215 -0.048532981 1.8526546
0.0080593228 0.18154398 1.8532475
1.4554583 0.23793888 1.8511151
3.9937549 0.34355938 1.8589314
2.0696282 0.35317531 1.8511142
2.1144071 0.38968486 1.8541988
3.2167733 0.58262742 1.8598038
-0.011664063 0.85909539 1.8578056
4.6946425 1.4899178 1.8535343
4.894712 1.5127196 1.857004
-0.023643494 1.9193733 1.8579441
5.4571123 2.6251764 1.8520252
1.032115 3.1388793 1.8531004
2.7488387 3.4412806 1.8564433
4.166316 3.6770461 1.8540019
4.3405638 3.7245078 1.8564802
4.6830316 3.7644198 1.8518296
5.9223409 3.8560393 1.851211
5.718277 3.9429028 1.8587123
5.7372403 3.9450815 1.8573538
1.5007212 -0.033258535 1.8620991
2.4567997 -0.023415707 1.8699855
5.1036248 1.7473919 1.8687793
-0.026944399 2.6380701 1.8664173
1.2744077 3.198879 1.8649298
5.7143517 3.2950113 1.8669554
2.3681397 3.360965 1.8622116
3.0085628 3.4876318 1.8618106
0.02207762 -0.043527886 1.8759009
4.1775508 1.4863467 1.8783342
5.230001 2.111588 1.8723184
5.5170536 2.8396752 1.8709508
1.0820984 3.1522095 1.8748697
3.7678423 3.6142368 1.8700274
2.2056272 -0.030071266 1.8875467
-0.002222836 -0.024261899 1.8804373
2.4012473 -0.026818223 1.8850163
3.4741285 0.63831717 1.8864497
1.2093828 3.1792705 1.8811752
2.5457284 3.4112904 1.8899406
0.10348117 -0.03095448 1.8919612
-0.0081402659 0.24792421 1.896376
4.0063 0.28999585 1.8970259
3.1811769 0.58443576 1.8908366
-0.016209602 2.3735032 1.8918904
0.91703534 3.1391187 1.8955277
3.3153589 -0.017541155 1.90018
2.3849788 -0.0085843205 1.9020044
1.4425584 0.24513072 1.9065777
0.015629768 0.41591626 1.9031121
3.9786615 0.81318754 1.9065496
4.6362472 1.4827306 1.9081854
2.913234 3.4681349 1.9049779
3.2499969 3.5331016 1.9024609
1.6158552 -0.032600388 1.911878
2.0162101 -0.0098035336 1.9121372
0.94774711 0.15484816 1.9143564
1.4292713 0.23144609 1.9178578
2.0529869 0.3606298 1.9106346
5.3334494 2.3011706 1.9190038
2.7369182 3.4317172 1.917272
5.2123961 3.8583713 1.911867
5.2825546 3.8522696 1.9140266
5.1100912 1.7929592 1.9226192
1.6972926 3.265749 1.9260308
2.0414207 3.3101425 1.9274803
3.062659 3.4870417 1.9287452
5.9531121 3.9883978 1.9206961
1.2761496 -0.026538983 1.9358157
2.6763268 -0.017739311 1.9365383
2.0105636 0.3552027 1.9319645
-0.015042096 2.8341036 1.9345235
0.24146968 -0.0516982 1.9473087
1.298277 -0.03493619 1.9408807
1.3504897 -0.037849776 1.9477299
3.0155752 -0.011052713 1.9435204
-0.0082752705 0.228701 1.9494499
-0.0078853965 2.0488551 1.9411842
0.82831275 3.0898473 1.942248
1.2039307 3.1645699 1.9486839
5.7821584 3.4879487 1.9413306
3.8081059 3.631402 1.9413084
4.4616184 3.7328167 1.9405271
4.7097259 3.7649539 1.9417967
1.0400242 -0.022464961 1.9563283
0.99535584 0.0033913329 1.9593624
0.58011878 0.073374197 1.9539171
0.95408082 0.13935335 1.9530362
2.0636225 0.36197788 1.9554349
2.7434549 0.48023158 1.95602
3.642015 0.66336149 1.9552215
-0.020397305 2.2682106 1.9529966
-0.012346685 2.8207147 1.9570173
2.8101652 3.451057 1.9540311
0.38173127 0.010401681 1.9665917
1.1243898 0.04850091 1.9676503
2.7194293 0.073102713 1.9661781
1.564441 0.10337058 1.9635216
2.2138491 0.15461358 1.9652747
1.6198902 0.24859944 1.9687296
1.8538864 0.38324922 1.9668857
0.2363711 0.39752325 1.9631182
2.5413225 0.43495393 1.9673868
2.937381 0.63966697 1.9674164
3.7762003 0.64942962 1.9687363
3.8265224 0.75099921 1.9641882
4.1169152 1.4691141 1.964687
4.8500433 1.4888957 1.9655722
-0.015812039 1.9236243 1.9685899
5.3629665 2.4062467 1.9686826
5.535511 2.9088502 1.9602526
5.946425 3.8993087 1.9671792
2.4026537 -0.037423 1.9756542
0.97154105 -0.0057773888 1.9787976
2.4007747 0.0084924623 1.9720806
2.9363489 0.0086841062 1.973955
0.058175564 0.028525949 1.9767951
0.72092438 0.043078989 1.9700962
1.0392745 0.045346409 1.9754902
2.3673675 0.056949124 1.9712912
1.3531737 0.071047172 1.970404
2.2568324 0.071237713 1.9729501
3.1207559 0.083806455 1.973157
3.6062026 0.11284707 1.9796065
3.7150078 0.1222949 1.9718636
3.395901 0.14797145 1.9717349
2.605423 0.17210749 1.9799262
1.2898421 0.21988487 1.9795259
0.50591552 0.263107 1.9781383
2.0838728 0.31158745 1.972325
3.6258554 0.32815793 1.9758843
2.2524064 0.35613009 1.9772612
1.9114823 0.43783915 1.9796375
3.8243589 0.47499228 1.9745504
2.6132116 0.49519145 1.974692
0.021344364 0.5135904 1.9799324
3.5582504 0.52499378 1.97777
0.071622431 0.54023051 1.9750222
2.6326797 0.54468626 1.9755279
1.1167558 0.58474582 1.979998
2.0014205 0.5883199 1.9759804
2.8442669 0.61519909 1.9717823
3.6273942 0.65548426 1.9789032
1.8585892 0.67610657 1.9713448
2.5813212 0.68290901 1.9738661
2.6423542 0.70177633 1.9718817
0.91809511 0.71788108 1.9717797
0.26670176 0.75061518 1.9735831
0.68442082 0.79134673 1.9720293
3.762589 0.80904311 1.9762231
3.3712311 0.82109445 1.9757916
3.0731227 0.91694313 1.9778942
0.34511709 0.93433625 1.9713744
3.3609796 0.93988997 1.9794801
1.5953157 0.94413704 1.9768025
0.11585021 0.98314434 1.9784225
2.2250397 1.0719402 1.9772187
2.7762134 1.1662326 1.9765044
2.873575 1.2298746 1.9700078
3.7278833 1.3391864 1.9783832
2.1876533 1.3721561 1.9779278
1.9634979 1.4083951 1.9765509
0.77667761 1.4124019 1.9705063
3.9616652 1.4829078 1.9789287
0.73348236 1.8501794 1.9750916
5.117826 1.8609774 1.9746057
5.2576132 2.1670861 1.9740807
2.0258265 2.2622886 1.9774522
0.26552105 3.0158257 1.9741582
0.98321366 3.1418979 1.9733499
3.3855052 3.5305872 1.9737157
2.5983937 -0.019256756 1.9823598
3.7419424 0.0022539049 1.9847716
3.8796611 0.028691992 1.981191
2.5092647 0.065116435 1.9834105
0.35827172 0.10506836 1.9860736
0.47607803 0.10801694 1.9867736
0.57622707 0.10019976 1.9812876
2.8416793 0.16376427 1.9841193
2.4621427 0.24754494 1.9875721
0.44740576 0.26435259 1.9890953
0.013595939 0.30043262 1.9805685
0.78358734 0.30892727 1.9812294
0.87775922 0.30820832 1.9817659
2.6314428 0.30657753 1.982916
2.0379248 0.32222143 1.9800605
1.0793458 0.34295881 1.9886867
1.1955656 0.35752779 1.9875907
0.47636902 0.3947477 1.9811884
1.4027953 0.39314139 1.9886988
3.3723221 0.41479993 1.9851419
3.2768421 0.44161105 1.9858691
3.0127196 0.45054424 1.9826912
0.062723517 0.46623343 1.9819127
1.6439407 0.46574903 1.9863464
1.126037 0.49162358 1.9886523
1.4047912 0.50046057 1.9810804
0.99504125 0.52254015 1.9872373
3.4364705 0.5399878 1.9824537
1.0449461 0.57090318 1.9878935
1.7262771 0.57000405 1.9815115
-0.022838384 0.59092563 1.9830433
1.544718 0.60237026 1.9819692
2.7254272 0.61134273 1.9846493
1.9227087 0.63963467 1.9874152
2.0874977 0.64213216 1.9851221
2.4949849 0.6452114 1.9886249
3.5674171 0.7113753 1.9851235
1.4882936 0.7214821 1.9860386
3.2430806 0.79125696 1.9817988
0.83712673 0.84345382 1.9801847
3.2658007 0.84147775 1.98375
1.8189557 0.86512601 1.9840859
2.690661 0.86984664 1.9841968
2.9086444 0.868379 1.9848422
0.65922034 0.88443285 1.9814247
3.8375793 0.89004707 1.9890448
3.4687588 0.90747756 1.9838604
1.9918048 0.93137413 1.9871546
1.3946631 0.96425849 1.9833988
1.785027 0.99001497 1.9851071
2.5871639 1.0104852 1.9846894
1.481331 1.0299275 1.9806677
0.30632311 1.0326831 1.9822632
3.5502062 1.1279905 1.9880899
1.0405258 1.1519215 1.9899598
0.46554327 1.1643991 1.9835404
-0.025592387 1.2014992 1.9817768
2.3516235 1.2089314 1.9849929
3.7897339 1.2062287 1.9887651
2.8007865 1.2134349 1.9852585
0.52843618 1.2372763 1.9869603
3.6675434 1.2506886 1.9853848
1.2955607 1.2615225 1.9894217
2.7119601 1.2680271 1.9890033
2.0306344 1.273437 1.9899729
2.1084435 1.2746372 1.9848982
1.5270557 1.2892482 1.9800717
2.201561 1.285435 1.9898452
1.3962601 1.3270926 1.9874736
3.2879307 1.3708205 1.9897615
0.37868315 1.3944762 1.9863797
1.6737447 1.4352093 1.9844414
2.0306938 1.48247 1.9824895
2.8837903 1.4891188 1.9835008
3.4358716 1.4851525 1.9892036
0.66057742 1.5560505 1.989678
3.1411002 1.5556135 1.9885172
2.1942539 1.633965 1.987672
3.171814 1.6510675 1.9855629
3.77985 1.6843293 1.9856564
4.9984627 1.7529314 1.9809045
4.5498381 1.8155499 1.9851052
3.4911597 1.825485 1.9872996
3.8495245 1.9189439 1.9882137
5.0942364 1.9765043 1.989447
5.1639218 1.9998991 1.984229
3.0869298 2.0018861 1.9871684
1.0555052 2.0188153 1.9819776
2.5089736 2.0318248 1.9891557
4.2761827 2.038604 1.9857496
-0.0092120171 2.0713038 1.9881057
0.59284949 2.0883434 1.9823097
3.9482331 2.1684132 1.9817265
5.0452633 2.2163551 1.9860221
0.37923133 2.2924826 1.988382
3.7957859 2.3123014 1.9847401
4.8245192 2.3837078 1.9890398
0.69512784 2.4420099 1.9897381
0.086644411 2.5048914 1.9888602
0.53469419 2.5494027 1.9898647
2.2762365 2.5911112 1.9880723
3.0715313 2.6106541 1.9884282
2.1762831 2.7797344 1.9859058
-0.014607221 2.9696548 1.9899844
1.1940949 3.1737192 1.9861792
1.538775 3.2272258 1.9879669
3.2342646 3.5195284 1.9879707
3.3489327 3.5381527 1.9851459
3.433028 3.571316 1.9831928
5.3444171 3.6433475 1.987552
4.6370173 3.7597945 1.9884778
0.48027062 0.078040451 1.9922444
0.01194787 0.12686753 1.9945666
2.7951188 0.16492406 1.9900337
2.3858478 0.20378163 1.9959391
1.5705402 0.21758738 1.9987496
1.751929 0.22972405 1.9943274
2.9434881 0.22762868 1.9926144
3.2198207 0.22079238 1.9911488
0.15929264 0.26353204 1.9937142
2.498482 0.28761163 1.9942986
0.45394605 0.3088901 1.9903797
1.6052814 0.32397008 1.9912456
0.29796857 0.34215412 1.9928435
1.6029274 0.34803438 1.9953283
1.8103125 0.34483677 1.9942266
0.67692888 0.48521668 1.9954952
0.75432706 0.53117806 1.9929739
3.2121265 0.53691077 1.9979364
0.095033467 0.55966699 1.992751
0.18563288 0.57696217 1.9900254
1.070405 0.5704518 1.9981316
3.5538478 0.57778996 1.9996654
0.30522335 0.59442806 1.9952642
2.7431526 0.59212178 1.9970597
2.4689717 0.62799579 1.9927746
2.4730716 0.63339984 1.9937161
3.4978213 0.63637388 1.9929241
2.7656682 0.64570701 1.9969412
3.6022582 0.65066826 1.9969541
2.5190945 0.72525918 1.9945537
1.518734 0.74031734 1.9937094
2.6764328 0.74145186 1.9998678
3.2182815 0.74011207 1.9916183
1.6773853 0.76080316 1.9965783
2.0409524 0.76571679 1.9931251
0.30894434 0.80274874 1.9984306
1.6006918 0.82010621 1.9905592
3.2563472 0.83441198 1.9942535
2.0185072 0.85334265 1.9986614
3.426471 0.89095658 1.9941465
3.4405079 0.91910106 1.9987789
3.2019985 0.98997933 1.9930681
1.1639979 0.9921779 1.9919897
0.28052443 1.0352361 1.9915935
2.3093872 1.0437739 1.9903711
2.9894171 1.0553503 1.9937602
1.3132904 1.082094 1.9935573
0.30817473 1.0998926 1.9934763
3.8520718 1.1087925 1.9904176
1.2900499 1.1178806 1.9933032
3.2686496 1.1125474 1.995833
2.8761172 1.1265717 1.9939538
2.9835656 1.162359 1.9951681
3.2570558 1.163816 1.9987472
3.3553734 1.1718392 1.9900213
2.3589532 1.188581 1.9908704
1.2768921 1.19684 1.9964896
2.3948054 1.2074811 1.994397
2.4571748 1.2093751 1.9962379
1.0204005 1.2342432 1.9954883
0.44230372 1.302969 1.9937681
2.8662851 1.3132715 1.9932021
3.3232095 1.3140972 1.9994415
3.5231957 1.350872 1.9958526
0.79814053 1.3642173 1.9931265
2.1593969 1.3861477 1.995711
2.3998232 1.3829393 1.9998382
2.8323581 1.393831 1.9902726
0.25659895 1.4000356 1.9978679
1.399129 1.4057357 1.9945234
2.8434207 1.4072056 1.9998695
1.0856085 1.4153736 1.9944636
0.63601339 1.4522741 1.991309
1.6545742 1.4555337 1.9942256
3.7931376 1.4596276 1.9902502
1.9980893 1.4706223 1.9929923
1.1162144 1.5069983 1.9916989
2.3520734 1.5166023 1.9960715
4.3717809 1.5174117 1.9925445
1.5879626 1.5487018 1.9973122
3.0475483 1.5571992 1.99747
0.46530652 1.5647364 1.9902607
3.3575556 1.5687687 1.9941062
1.8610644 1.5781565 1.9901208
3.4148889 1.5845022 1.9973687
3.8689599 1.5877228 1.9907655
2.9176798 1.6005979 1.9971069
3.1491826 1.6003013 1.9952008
0.64368308 1.6187494 1.9965047
1.8186197 1.618628 1.996843
2.8232377 1.6123118 1.9939421
3.4033065 1.619199 1.9939369
3.5798273 1.629787 1.9947182
1.8287499 1.64534 1.9982232
1.157493 1.6573277 1.9906036
1.3228514 1.6683657 1.9953889
4.0413179 1.6655629 1.993234
5.0136304 1.6778522 1.9998678
2.4396975 1.6826673 1.9927927
1.7368088 1.7088275 1.9941996
3.4914246 1.7438314 1.9982272
0.22601092 1.776135 1.996364
0.12541765 1.78952 1.9992787
3.746737 1.8359702 1.9928423
4.6550717 1.8437614 1.9977955
4.4990058 1.8538549 1.9953734
4.9497647 1.8542035 1.9933971
0.35504329 1.878453 1.9962171
3.2996624 1.8755877 1.9991318
1.3433586 1.8876791 1.9913443
4.5533714 1.9002893 1.9972714
4.0726314 1.9222622 1.9987751
4.1318221 1.92611 1.9995078
2.6016934 1.9569886 1.9984576
2.0304713 1.9722078 1.9982666
5.1944966 1.993679 1.991068
4.4323583 2.0061071 1.9990982
3.0094213 2.0235062 1.9905773
3.6608472 2.0243382 1.9967507
2.0701027 2.038964 1.9975137
0.32691127 2.0632384 1.9947444
2.6974308 2.0883305 1.997285
0.12088811 2.1078019 1.9908375
4.8125668 2.127151 1.9975001
2.9137001 2.1359379 1.9982477
3.4015372 2.1416118 1.9942118
4.6583791 2.1457675 1.9925708
0.55993664 2.1515336 1.9960004
1.6225986 2.1694467 1.9999171
2.3678687 2.1792274 1.9992133
4.0277901 2.1723073 1.9996709
4.4910827 2.190747 1.9973651
1.4684477 2.2193127 1.9975044
3.9506698 2.228971 1.9977421
5.0563989 2.269213 1.9935828
0.58038497 2.2700539 1.9927448
2.5658681 2.2799895 1.9984666
3.0476322 2.3101363 1.9959904
2.830476 2.3667591 1.990894
2.026792 2.3710444 1.9944776
2.426995 2.3845124 1.9901222
3.8918171 2.424912 1.9986147
1.1834582 2.4412975 1.991948
1.3166558 2.4608803 1.9974457
2.7487726 2.4832585 1.9993364
4.0727034 2.4999547 1.9972368
2.9744518 2.5366449 1.9997517
5.2641125 2.5348246 1.9947447
4.1975927 2.575048 1.9989303
3.3409355 2.5986724 1.9982213
2.7003331 2.7081757 1.9988054
1.2323693 2.7558665 1.9905821
3.3898416 2.7507033 1.9986809
0.14908028 2.7647033 1.9925102
3.775991 2.8026655 1.9981571
5.1579099 2.8989294 1.9954239
1.2622263 2.9154365 1.9973425
0.076699972 2.9730844 1.9940852
3.2446911 3.0287077 1.9985319
5.4875784 3.0413127 1.9955841
0.69804037 3.0956206 1.9920436
4.1021442 3.1771314 1.9997674
1.385973 3.2169023 1.9997512
1.5176682 3.2187781 1.9941934
4.3826008 3.2203817 1.9998921
4.6170564 3.3401966 1.9998046
5.0485473 3.3484743 1.9974004
4.395165 3.5174026 1.9962195
3.2832518 3.5227058 1.9990343
3.8034139 3.6148953 1.9970948
0.55845952 0.21534771 2.00388
0.57165897 0.26963976 2.0046387
1.8913717 0.46334976 2.0013137
1.171901 0.55445176 2.0003142
2.3327594 0.55506974 2.0005383
1.9073441 0.58073205 2.0021014
0.5423727 0.94164032 2.0087314
3.1934605 0.95919055 2.0017619
3.5662546 1.0041549 2.0054507
3.7896061 1.0004466 2.0056086
1.60799 1.0204785 2.0080848
1.2975588 1.1567326 2.0042377
2.1332414 1.1509593 2.0056081
1.4037057 1.1647146 2.0014095
2.9783056 1.3296504 2.007585
1.1315019 1.3480048 2.0007467
3.650341 1.3584626 2.009304
2.8395758 1.3929865 2.0001426
2.1183867 1.4224284 2.0078263
3.1370659 1.458796 2.0031977
3.9477615 1.4669604 2.0008779
4.6380577 1.5181308 2.0004559
3.4940176 1.5609865 2.0033145
3.568841 1.5741558 2.0022407
