# .PCD v0.7 - Point Cloud Data file format
VERSION 0.7
FIELDS x y z
SIZE 4 4 4
TYPE F F F
COUNT 1 1 1
WIDTH 2118
HEIGHT 1
VIEWPOINT 0 0 0 1 0 0 0
POINTS 2118
DATA ascii
0.55285352 0 0.90014327
0.074393071 3 1.5704862
1.2741095 3 1.0916914
1.6278334 1.3505521 2
0.77647245 2.1597247 0
2.2475176 2.6795638 0
4.80165 3 1.3920523
2.2520738 3 0.18707782
0.37374508 3 0.66476238
0 2.1230466 1.9172004
2.1108198 0 1.5680137
5 2.429548 0.61047667
2.7519248 1.7179676 0
3.4549429 0.48829111 2
0 1.710853 1.419884
0 2.9730027 1.2345989
5 1.5329896 0.720047
0.52988434 0.55419338 2
0 1.1781287 0.43827653
4 0.089580238 0.38212815
0.70481449 2.1228518 0
2.4412491 2.0347571 0
0.32938316 2.6406791 0
3.1886642 2.2048571 2
4.0922132 1.5 1.4160895
2.3898971 1.3539685 2
1.7827449 0 1.3544905
0.22474536 1.4969051 2
3.5133605 1.7234894 0
1.9536325 0 0.58021623
0.35573721 3 0.12027396
2.144762 0.74287224 0
0 2.0520504 0.62969619
0.077265404 3 0.47439465
1.9150825 3 1.5442742
0.90668762 0.23062135 2
2.48756 0.57625628 2
2.2219558 1.3953114 0
5 2.1005778 0.10723036
3.1575022 1.2161959 2
0.86572737 1.0483134 2
0 0.8254723 0.40979171
0.12187562 3 0.10185188
4.4262266 3 0.43853074
1.9529625 0.62986994 2
1.7954639 1.1490592 0
3.7730315 1.0821726 0
4 0.46207866 1.1521244
0 1.3266103 1.5722197
0.091607556 0 0.99511564
0.18159361 1.7134422 2
1.7449211 2.2426302 0
3.3398976 3 1.7190202
0.74399066 1.608106 0
0.6042701 3 1.2930937
4.4845982 3 0.5695014
4 0.57473361 1.0888984
0.16308022 1.9962511 2
1.995322 0 1.3824828
5 2.3120134 0.6906898
0.7973637 1.7850544 0
0.52646869 0 1.4047271
0 2.0794337 1.3245138
2.7673349 0 0.26072258
2.0014791 1.2953643 2
0.0092966426 1.4996499 0
4.5151401 3 0.17059606
3.3589435 1.4613868 2
1.1957338 0 1.0734663
2.8144221 0.63711631 2
1.6597614 0 0.79652715
4.0772715 1.9172376 2
0.95409548 1.5877391 2
3.4075401 3 1.4598026
3.6086588 0 1.8007828
3.0989223 3 1.4169679
0 1.5258942 1.0153176
0 0.47749007 1.8987275
4.2258401 3 1.0898023
4.5994363 2.6649373 2
4.0750728 2.5653532 0
3.7057114 2.2808356 2
4 0.90657943 0.62887061
2.6565502 1.2423792 2
3.0869384 1.8703463 2
0.086754099 2.2400124 2
5 1.7909936 0.98942447
5 2.51667 0.83532047
0.91852182 0.32215714 2
0 2.470505 0.30535474
5 1.8329607 1.4858688
3.7378261 1.0892875 2
1.7326148 0 1.8471738
0 2.8863614 0.49136519
1.5462841 2.9289732 2
0 0.95321864 1.0901638
0 1.3377355 0.37995842
0 2.5456784 0.38745186
4.3426113 3 1.9715949
0.091366708 2.3864477 2
1.9505706 2.3406963 0
3.8298948 2.96878 2
2.0407333 3 0.51422453
0.87613618 1.9878652 0
0 2.8099809 1.1161146
0 0.10668859 1.5559391
3.798959 1.3615663 2
3.2803757 1.2065858 2
4.373683 1.6468809 2
0 2.9071326 0.3280946
3.7548745 0 1.0585027
1.6144353 2.9617491 2
1.0763766 0 0.53794986
2.494827 0 1.9871883
0.68503481 0.50362515 0
2.5471067 0 1.4751469
3.3925962 0.86296576 2
1.2698492 2.7512648 2
1.6976355 3 0.17456417
3.9137678 1.9769144 0
0 1.2716097 0.74486572
2.6291752 0.32354152 0
4.6672692 3 0.63572425
0 2.0978832 1.4691299
4.6963906 1.5 0.80908275
0.14518572 0.4025813 0
2.3189716 3 1.895346
5 2.1798992 0.65226132
3.0126476 1.3797038 2
4 1.2137902 1.6919824
1.9779888 1.9588901 0
1.5091605 0 1.7542624
1.6715927 1.1480559 0
3.2647698 0.032985989 2
1.6750523 3 1.4000968
0 1.9722122 1.4619612
0.11029318 0 0.71683961
4.0456748 1.7947505 2
0.51857162 3 1.437879
0 2.1879933 0.32421449
3.7919476 0.43228829 2
0.35425934 2.6822255 2
3.9756746 1.2469517 0
4.108357 1.5 0.20527907
5 2.6946292 0.85634232
4 1.3425359 0.9086321
0 1.7876396 1.7122397
5 2.940273 0.44816092
1.1450945 3 1.8420093
0 2.7485254 1.5688864
0 0.81855911 1.4812018
3.5940518 1.8047767 0
0.96915346 2.1603882 0
0.96673894 2.3071899 2
4.0461125 3 0.72466618
3.7959321 3 1.0360537
4.4846435 1.5 1.428391
3.8859596 0 1.4289241
3.0997043 1.1383928 0
1.3783622 0.65005767 2
0 2.9627283 1.3387971
4 0.60939294 0.72964084
1.3548123 0 0.79185015
0 1.3957175 0.80583453
0.27989802 2.7521262 2
0.40828827 3 1.5166703
0 0.43196449 0.1319105
0 2.926924 1.8859447
1.4047374 0.73513675 2
5 2.9571028 1.5689616
4.5011992 2.8649039 2
0 0.83657652 1.9201423
2.2899015 2.0983226 2
2.4147184 2.2527578 0
5 2.9532948 1.3445467
0.82196051 0 0.48129869
4.7886128 1.5 0.44725215
2.5567458 0 0.12494476
0 1.9487301 0.85397071
1.8311975 0.84262627 2
0.5536108 2.2646101 2
4.0242753 1.8939266 2
0 0.64308196 0.099453866
1.8935226 3 1.8270503
0.69020438 3 1.3857746
1.5991914 2.2209578 0
2.9278023 0.24919967 0
4.6541743 1.7354918 0
2.3997304 0 0.98221803
3.661324 1.9569019 2
2.2134953 3 1.8122691
2.4352682 2.0448229 0
5 2.7309921 1.2232311
0.53052866 3 1.9848998
0.13236399 1.3456089 2
5 2.5017543 1.3909662
0.47488269 3 1.8521351
2.9131553 3 0.22141396
1.6495291 0 0.75699502
4.2728987 1.5 0.76906073
4.3792691 1.9452562 2
1.7546407 3 1.5504018
3.157496 0 1.7771249
0.93735242 2.3588238 2
1.8925376 0 0.72934985
0 2.8776879 1.5606564
2.8739433 3 1.1418808
4.7116451 1.9233874 0
4 0.65972847 1.7129986
3.2749631 2.8765006 2
2.9526622 0 1.31883
2.7865901 0 0.013044718
1.5807314 2.9564524 0
1.537724 1.7168721 2
0.57874078 0.87372291 0
0 1.1179216 0.77725261
0.94580311 0 1.0982221
0.71183693 1.976023 2
2.8668115 3 0.35539755
0.49311897 0.10802862 0
0 1.0620035 1.9830027
0.80817538 3 1.7650166
3.3960605 0.30155781 0
2.2124343 3 0.66761959
1.6025628 0.60924309 0
0 0.80905569 0.28025681
3.1780791 2.3051505 0
3.1556613 1.183279 2
0 2.5576751 0.85170209
2.1071312 1.5691687 0
1.6577952 0.58114314 0
4.5613747 1.5 1.5493535
1.6845582 0 1.4994326
0.75147051 0.17078994 2
2.7079921 1.3611909 0
1.9070852 2.4662542 2
1.3880222 3 0.11608982
0.28545523 2.2860522 2
2.1560655 3 1.6904969
4.4966774 1.5 1.1480515
1.90292 2.1875787 0
4.0783405 2.0348275 2
5 1.541353 1.2792348
4.2172065 1.5 1.3513482
0 0.71834022 1.5022949
0.50601435 2.1441054 2
1.5536945 1.8953719 2
1.8517414 3 1.6496127
2.8821445 3 0.79627466
3.331974 0.18115921 2
2.6277261 0 0.70039994
2.3133023 0.96993637 2
2.6138058 1.7177919 0
0.1001648 3 0.61883438
4.3729081 1.5 0.24331549
4.6503763 1.5 1.8832207
2.9904988 2.4886622 2
0.36794013 2.877552 0
4 0.10970595 0.18637572
3.1780455 3 0.17967978
2.3036065 3 1.6246735
1.8736356 3 0.26761234
4.3541908 3 0.74091351
1.7435235 1.0724781 2
5 2.0060031 0.27961645
4.7350378 1.5 1.3403475
4.6901259 1.6054621 2
5 2.2160845 0.68596882
3.0849063 3 0.3116909
4.4316239 2.5064526 2
4.4856977 2.4278567 0
1.3887657 3 1.7323931
0.61413056 0 0.073419169
0.46312478 1.2280986 2
2.0604446 3 0.59020007
3.2017801 0.0097145271 0
2.9111431 2.6768103 0
3.6676526 2.2106314 0
0.79292864 3 1.6729195
5 1.7087044 1.6400031
4.8444085 1.5 1.6401169
3.7041678 0.38324258 2
0.30907273 2.9003224 2
1.8972784 0 1.5984088
2.0965662 0.83064055 0
1.9884418 3 1.8752774
4.6775494 2.2364759 2
4.1345243 1.7690022 2
1.7681596 3 0.17597739
4.9237866 1.579738 0
1.6726247 1.3663443 0
4.5931373 2.477164 0
3.6253746 0.92496973 2
3.8456931 2.8828557 0
0.39506045 2.5965858 2
3.805352 2.2790356 2
5 2.2057903 1.6726445
2.7022605 1.1446272 0
2.8678038 2.6543326 0
0.82412368 3 1.8695841
0 0.85587919 0.5387544
4.1512489 1.5 0.15371883
1.5464295 0 0.8947646
2.8686647 0.053985417 0
0.99871832 3 1.218348
0.44849771 0.19399823 2
0.91354024 0.90486282 2
2.8600843 2.946811 2
4.0157442 3 1.5174507
4.2274647 2.7225702 0
5 1.7003064 0.29132953
2.0616167 0.17256266 2
0.75918132 2.5455434 2
0.5523448 0 1.5239747
4 0.23928699 1.817276
0 2.2955506 0.51755714
5 2.5793052 1.6877923
3.548548 0 0.52441442
4.531126 2.5676806 2
2.6211827 1.5201375 0
0.11798023 0.72991675 2
0 1.3320229 0.14956886
4.5288577 1.5 1.9881983
1.8694705 1.0632046 0
4.2968907 1.5 0.72672909
3.5025029 1.4660454 0
2.309104 0.073194884 0
1.7417579 3 0.86493051
0 2.2504959 1.4089273
2.048281 3 0.68223053
0.47849983 3 1.4902602
0.25121364 3 0.049711622
0 2.2078121 0.40314561
0 0.80862951 1.4839864
2.3536036 3 1.6769609
1.2727666 0.09688215 2
0.95384461 1.5452509 2
3.1405663 2.3338614 0
4 1.1711636 1.2682019
3.5165324 1.4617054 0
1.317361 0.20496525 2
1.2572725 0.086939856 0
1.0673671 0 0.1006981
3.2013044 0 0.23565696
1.9156328 2.43085 2
2.0894551 2.5003037 2
4 1.1474049 0.52663052
0.66866016 1.0146518 2
0.90808535 0 0.36874402
0.90445942 0 0.61495668
3.2538016 0 1.77501
3.2602203 2.8110526 2
0 1.8909644 1.6342517
1.2127893 1.9245815 0
4 1.1336802 1.3698933
4.4343228 3 1.0607487
1.8304459 2.1321001 2
0.44451091 0.14936878 2
2.5416253 0.90359086 2
3.8309233 0.42395043 0
1.2802019 0 0.53000861
0 2.0324726 1.9448878
1.5699759 1.732269 2
0.89010453 0.94667631 0
4.0347314 1.6413062 0
0 0.61553836 1.6730894
1.3564595 2.0473666 0
0.79823917 3 1.9536587
2.4499385 0.97458893 2
3.6973414 3 1.3270849
3.0556598 3 0.15348424
1.5609648 3 1.0078181
0.54003787 2.2024903 2
0.70778489 2.4193888 0
3.2633138 2.2044024 2
4 1.092805 0.94169253
0.67518026 2.8257504 0
0.34629762 1.7129693 2
1.6660746 1.7481467 0
0 0.72850019 0.30540159
0 0.83919692 1.5113206
0 2.5635421 0.97110766
0 0.68792468 1.5501403
3.2905693 1.7098938 0
1.8072091 0.54139012 2
1.0788162 0 1.4827338
3.5850737 3 0.66386449
2.990474 0.037247002 2
5 1.8291093 0.028119007
1.733471 2.8175957 2
0 2.6180029 0.40341672
2.9622748 2.4699187 0
2.4349158 0 0.30977011
0.63208872 0 1.3756353
0 2.257555 0.70308161
1.6459986 2.0392036 0
0 2.923425 0.98894179
1.3523405 1.6893898 2
4.1899085 3 0.99459302
0.12813292 0.78304994 0
1.2567101 2.7777822 0
3.9232237 3 1.1767105
4.2142234 2.0979717 0
0.45326853 3 0.91325492
0.55528271 0.32872817 0
3.8504388 1.618068 0
4.0191255 2.2121587 0
0 1.5575656 1.6435493
0 2.775001 1.1640837
1.0020102 1.4097728 2
0.13105541 0 0.19886772
0 0.55492854 0.82081199
0.3534641 1.3786446 2
2.6812849 1.3870738 2
3.3870997 0 1.2329422
2.5756097 3 0.15564311
0.79657131 3 1.9315908
1.1740663 3 0.86697894
0 2.9665673 0.26744255
2.4827671 1.6255103 0
0.38474944 0.5027011 2
0 2.9549742 1.2836981
1.7532146 0 0.32460669
1.637741 2.5292659 0
2.7852402 0.1717822 2
1.5833149 0 1.9277619
1.3844208 2.4999733 2
0.8034274 0 0.50564247
4 0.82505095 0.06453003
1.5800062 0 1.1564077
3.9029095 1.9197767 0
3.5696011 0 1.9262295
1.4764946 1.7145945 2
4.1692848 3 0.71461999
5 2.1489282 1.5640481
0 1.5756625 0.43810079
4 0.21516079 0.19839954
0.71924901 2.0622673 0
2.9326086 0.036685906 2
4.1499877 2.6553252 0
5 1.8283583 1.9161988
2.2368455 2.7660573 2
2.0221579 3 0.98129654
4.462235 1.5 1.9663569
0.48629433 3 0.44234177
1.8866135 3 1.0558803
3.2875969 1.664964 0
4.1173706 2.800879 2
0 2.8816299 0.12103655
0.0041194372 0.82882398 0
0.83635688 3 1.7225573
4.6853437 3 1.891078
0.12423049 0.5715394 0
2.4889703 1.2557446 0
2.8834891 2.9689629 0
4.4537868 1.5762604 2
1.7516404 2.5767596 2
4.8013983 1.5 0.58476585
0.50040591 0 1.6799787
1.0749823 2.8557179 0
4 1.4959096 0.80392975
0.99601948 3 1.0623152
0 0.044666268 1.5213422
0.99317706 0.018132702 2
1.1157867 0 0.99577606
1.3588248 0 1.5439235
0 1.8978591 0.19668563
4 1.065393 1.935129
2.5945604 0 0.68276948
0.17098628 3 1.2374787
1.3893708 0.83247054 2
4 1.27652 0.48491597
4.1924081 2.2459676 2
4 0.15051813 0.47097805
4.0923014 2.0032811 0
3.2847614 3 0.67496574
1.7076383 3 1.9574088
4.8027382 1.5 1.2693915
2.6841955 3 0.010222347
2.2857175 3 0.27392039
2.1971233 0.27157956 0
5 1.9070343 0.74068648
3.9718425 1.4089414 2
0.80895144 0 0.22776087
3.1690762 2.884532 0
5 1.8069757 0.32065731
1.2792445 3 0.94887251
2.2829947 0 0.093193643
4.5816526 1.6775671 2
0.7748614 3 1.3513389
0.054939747 0.11171631 0
4 0.69797796 0.28167379
2.5509889 1.7399774 0
2.9964964 2.0445673 2
2.7378805 1.8829632 2
0 0.74821323 0.94678348
3.7822936 3 1.9381843
1.6173779 0 1.9510131
1.823325 1.5211267 0
4.663414 1.5 0.19798629
4.746088 1.7846665 0
2.1504202 2.2754209 2
1.8363345 0.31837025 0
0.73710251 3 0.28797379
4 0.50240189 1.1251132
1.7217743 0.1489614 2
0.40308636 0 1.2711527
1.7558441 0.19936591 2
1.8870444 3 0.54779893
5 2.5634632 0.10325589
0 0.48708799 1.9155594
3.5741735 1.2782241 0
2.0381441 1.6960677 0
2.0244544 2.025739 2
2.6198812 1.857878 0
3.0447202 2.8041253 2
0 0.34632343 1.0500793
3.5610807 2.6683362 2
0.49341395 0.81668526 2
4.6572671 1.8482345 0
4.1125808 2.0947852 2
2.3433318 0.053215701 2
5 2.6109672 0.6237095
3.5681772 0.89026636 2
3.8968792 2.7646184 2
0 2.0983288 0.67167687
4.862597 3 0.45215175
4 0.65071285 0.26216924
0.25069866 0.30286154 0
0 1.5061452 0.63029051
3.509352 0 0.28114706
2.7534428 3 0.2950666
4.4455624 1.5 1.0345716
3.5297587 0.6488049 0
0.67510039 0.51524919 0
0.73210084 2.970958 2
5 2.5146418 1.2626669
3.5995357 0 0.17433016
0.32137409 0.21543375 2
3.7485523 2.0541759 2
5 2.4212282 1.4810796
4.3133378 3 1.9475065
3.5763905 2.6951351 0
2.8553145 0 0.97633314
4 1.2788415 1.1258103
4 0.15669404 0.90212768
0 0.78122991 0.88306057
0.23910117 3 0.92848504
0.94073212 0.62770903 2
2.817781 3 1.0843394
2.7288339 0.95580339 2
4 1.1170202 1.7252655
0.87529117 2.1830077 0
2.029305 1.3886991 0
2.2716534 3 1.8707966
4.6548042 1.5 0.95637089
1.9327519 3 0.84903568
1.9108515 0.30218515 2
4.5941911 1.5 1.6506582
3.1578064 0.70570236 2
4.042769 3 1.2109115
0 0.35723495 1.6659248
3.889339 0 1.9419731
5 2.215368 1.3799611
1.0658141 2.6496949 0
4.9617085 1.6790038 2
5 2.0955822 0.19059812
0.67032856 1.0178416 2
3.8863618 0.37317547 2
3.2037535 1.6424037 2
0 1.1585088 1.871489
1.8747238 1.5810485 2
4.6502814 3 1.6130362
2.0848253 1.1484669 2
2.6951168 3 0.79512656
4.4402075 3 1.2480397
0 1.5449392 0.48472804
0 1.826085 0.62439919
3.1582952 0 0.96663237
5 1.8358501 0.75838411
0 0.62827039 1.9786668
1.3824716 0.56181836 2
1.3973699 2.8274534 2
1.3593472 2.570308 2
2.7639067 2.6980464 0
0.16053836 2.0137691 0
5 2.8360333 0.56200767
0.75186563 3 1.2120332
4 1.3296633 1.8646477
0.45066631 0 1.0138321
0.85395318 1.5721983 0
4.8319373 1.5 1.0223221
4 1.3214463 0.291536
0 1.4294784 1.2865416
0.52271616 0.93345088 0
1.7785981 2.5384223 0
4.8740253 1.5 1.1571218
0.32293057 3 1.9097279
2.2890573 0.67550325 0
2.5105424 3 1.7548141
1.7957067 2.5646229 2
2.7964222 3 1.3338103
5 2.2800424 0.60451305
0 0.72149932 1.7101625
0 2.669379 0.58030367
0 0.024096455 0.36080173
1.1150442 1.6358757 2
3.2713776 0 1.2007457
2.2979343 3 1.2221845
1.2093072 1.0061312 2
5 2.9062476 1.7493234
1.6753602 2.9987104 2
4.8765602 3 0.42207924
0.73021317 3 1.4601533
0.022668624 2.2914991 2
0.54227304 3 0.81452149
0 0.16695806 0.58570033
4.8073869 1.5 1.1921759
0 1.9840373 1.1575938
0.28288379 0 1.2889354
0 1.3538593 0.50446194
1.590181 2.9244204 0
2.8696849 1.1336468 2
0.75613457 3 1.133204
1.1181344 1.989467 2
3.6295979 2.4661014 0
4.9318209 2.3300004 0
4.2291312 1.6077654 2
4.6757722 1.5 1.6363708
1.4564488 1.4907234 2
3.833777 0 1.8718683
1.0251297 2.5838966 2
1.9243933 0 1.8679459
1.1371827 2.067662 2
0.96264482 2.0416489 0
2.2740598 0.60999942 0
4.2159667 3 0.33720869
2.5470948 0 0.56549442
3.3685753 1.8563892 2
3.5794542 2.6320255 2
2.2214937 1.9321065 2
2.1815951 3 0.23781949
1.0450214 1.3362807 0
4.0750823 2.5961854 2
4.1230178 1.5 0.34122396
1.8050212 3 1.0358539
2.1359665 0.61396813 2
0.17662674 3 1.9466438
0 0.041253988 0.12516002
3.1436036 0.86724907 2
1.2684755 0.42143574 0
0 0.81820136 1.2659343
1.811723 1.7830524 2
1.1984752 1.7456703 0
4.3217463 1.5176054 2
3.5659978 0 1.8348799
1.1304955 0 0.020842299
0.3736034 2.5492778 2
2.3666642 3 1.3155608
1.8519609 0 0.2884571
0 0.00090624578 0.031140555
0.042527426 1.5192239 2
4.9871902 3 0.74268007
4.6168985 1.5 1.8765026
2.6701219 3 0.8404569
0.52336413 2.4161456 0
4.026361 1.5 1.3478763
1.8685418 2.509675 2
0.78122753 1.8637773 0
0.59250695 1.9794385 2
4.036191 3 0.48518753
0 0.78336346 1.2119603
3.7782485 2.2175341 2
0.42704651 1.7681861 0
1.3517147 3 1.7481545
3.5995269 3 1.1752337
0.64155275 3 1.2380823
1.9307359 0 1.6733708
2.41465 0 0.65911657
2.7902446 2.8451831 2
1.087571 2.1613758 0
4.3040581 1.5 0.64089686
4.6346579 1.8578649 2
2.6310875 0 1.8852212
1.1026608 3 0.058932364
4.6666784 3 0.69208646
1.0863993 2.5014832 2
1.3216757 0 0.033675957
0.64163017 0.48335239 0
0.42934182 0.35516828 0
5 1.9378333 1.5386802
2.9109406 1.9608148 0
0.31087723 0.40406194 2
0 1.815606 0.38175252
0.24646452 3 1.950663
4.7839179 2.4889548 0
0.87766945 2.5773561 2
4.0895824 3 1.5722892
2.8551798 1.5457778 0
3.045996 2.5954723 0
1.7342287 3 1.9383732
3.7743635 1.7789801 0
4 0.23124564 1.894039
0.096606836 0 1.7136497
3.9608686 1.5706267 0
5 2.0722792 0.30283883
2.5867708 2.7731695 2
0.80031037 0.23784818 0
0.73426187 0.95690203 0
3.6027906 0.59887493 2
2.9496477 3 1.5690423
3.1357009 1.9489908 2
4 0.37149382 1.2951965
5 1.6434529 0.021193784
2.8415217 0.84819949 0
2.3341324 0.20061459 2
0 2.0589688 1.8910826
5 2.8886433 1.383572
2.9767456 3 0.74991632
4.4818082 1.5 1.3593601
2.6773775 3 0.83510989
4.0529861 1.5 0.44264454
0.19393969 3 0.36917433
3.8740611 1.8002195 2
0.54017365 1.7602341 2
4.9236383 1.5 0.034417488
3.1763504 0 1.4811362
4.249526 3 0.6345517
0 0.92378533 1.8682053
0.99889433 0 1.5478393
4.7999187 1.5 1.599522
0 1.9294096 0.79466069
1.0190625 1.5282145 0
3.7105968 0.33247125 0
4.8778992 1.5 1.6010786
5 1.9774415 1.6045321
4 0.23815064 1.449627
1.4500186 1.203712 0
5 2.7277069 0.69150299
1.8553612 3 1.9316435
1.6736498 1.1578453 0
0.51102346 0 0.89602172
2.8528657 2.2408392 0
5 1.6328191 0.72618014
4.3561902 1.5 1.2925726
3.9186924 3 1.9217181
1.3986543 2.5698578 0
0.75506139 0 0.52706724
3.571914 3 1.6524833
5 1.535511 0.89327472
1.3538361 2.0287361 0
4.0867395 1.5 1.3679117
1.4472361 3 1.9045689
3.5678778 0 0.61545396
4 0.63968599 0.45445132
2.3107014 2.7529755 2
2.7444828 0 1.7008529
2.1079369 0 0.31295976
4.5011039 1.6519604 0
0.14062154 3 0.12404909
3.0025659 2.3490202 0
2.8086159 2.1465125 2
3.3047755 3 1.6388959
0.87479663 3 0.15907569
2.8051085 3 0.86642814
5 1.8539679 0.38205031
1.2011198 0.80850405 2
3.9588752 3 0.8737672
0.66299236 2.0142121 0
0 1.0530994 0.1527876
5 2.7590585 1.8332509
0.019189315 2.5724559 2
2.3370681 0.02324043 2
1.9472682 0 1.0383168
2.0904477 1.3449641 2
0.68370211 3 0.53663379
2.1695759 0.74921042 2
4.6152806 2.5066006 0
2.592001 0.30687305 2
3.6228781 2.3367729 2
5 2.1723528 1.6092786
4.7284179 2.0031965 2
0.90217555 3 0.084060416
2.3122838 1.1678821 0
2.1985517 1.4963897 0
3.7345068 3 1.9264531
1.2190562 2.1750343 2
3.7655196 1.4035469 2
0.021334877 0 0.1561742
4 1.2196418 1.6625611
1.7048057 2.3723714 0
0 2.9175484 1.858355
2.2180676 0.20768502 2
1.8205955 2.3666947 0
1.2161777 1.7024825 2
0.52273506 0 1.0427969
1.0806787 3 1.249416
0.23603335 0 0.56117779
2.3197317 0 1.6806363
0 2.770395 1.9716935
4.7608061 3 0.13588324
3.5956068 3 1.2751906
1.1936378 1.871665 0
3.849452 0.74536616 2
0.118378 0 0.55716139
3.7985547 0 0.36616999
0.78983915 3 0.18043032
0.52063435 0 0.85214478
3.5371518 0 0.94696981
0.24499068 1.4753504 2
4 0.14972827 1.313786
0 2.044518 1.1381596
0 1.4833928 0.29682159
0.25941074 2.7490325 2
0 1.4261996 1.4291928
4.5668025 1.5 1.2637792
2.4900281 3 0.7904256
2.662565 0 1.1394957
0.42259255 0 0.89552158
4 0.68522024 0.024560586
0 0.028950177 0.89840549
2.718293 0 1.2634687
3.1072884 2.1083157 2
3.5762658 1.7036284 2
2.0158446 3 1.7144119
1.6940371 0.67827564 0
4.7310829 3 0.46563333
4.9402556 3 1.8068237
2.2021153 1.7573323 2
2.2082486 1.5540621 2
3.3377919 0 0.80550551
5 2.5181675 1.5225068
5 1.7341264 0.76939034
0.83209038 1.1736962 2
1.8315729 3 0.086904861
4.1478195 3 1.6983776
3.0965092 2.4398236 0
0.89610541 1.8430659 2
0.5077309 3 1.682498
3.7755687 1.3542951 0
4 0.39714247 0.58929092
2.1995564 2.4966767 0
5 2.3523285 0.93639779
3.3929503 0.35590664 2
1.2027657 2.5303392 0
0.33965921 3 1.3065858
4.9314394 1.5 0.29440966
1.719466 0.44305637 2
4.5992827 3 0.20135601
3.4202676 0 1.7695389
5 2.0036526 1.1610039
2.5089993 0 1.8172141
0 2.4253623 1.0548482
4.0982122 2.7398276 2
1.1837213 3 1.2554182
0 2.6867373 0.092127249
0 0.98211676 1.721786
2.1402485 2.9629698 2
3.2519588 3 0.60099143
3.4756634 2.5681784 2
2.7728457 1.0705521 2
2.9742377 0.74293339 2
3.6189268 0.21155664 2
4.2616549 1.5 1.995116
4 0.95461541 1.6167581
2.2694614 2.2359741 0
0.41154668 3 1.7799978
1.0565121 1.0784661 0
0.38361371 0 0.42712349
1.2647575 2.6051826 2
1.3250151 0 0.63165569
2.133414 1.004618 0
1.5297856 2.968761 2
3.9358623 1.7830585 0
0 0.12548205 0.2622852
0 0.13071877 1.7091789
1.0462841 1.1521009 0
4 0.97017652 0.32451823
0.50795203 0.23460029 0
1.6339171 0.453953 0
0 1.6132094 0.99731863
2.36537 0 0.7428292
0.35140458 1.7765121 2
0.84932184 2.0746515 0
4.3494315 3 1.479339
0.069127083 0 0.70730275
3.7866395 3 1.3782477
0.7758553 1.7363653 0
3.4527793 0 0.29265893
3.7848923 2.456455 0
0.1682957 2.6451175 0
5 1.8144619 1.182402
2.784193 1.2102864 2
2.5572531 0.75796038 2
0.93361896 2.964381 2
5 2.2359517 1.4725038
1.9331208 0 1.1148199
2.3301935 0.90723693 2
3.000623 0 1.7602717
1.68196 3 0.30207363
4.3086619 2.7138016 0
0.1599703 0.30057824 2
0.19401217 3 1.9047542
2.1113153 0 0.0096831834
2.2551274 2.9875948 2
2.4579399 2.9969673 2
2.531878 3 0.44097328
4.710916 1.6990811 2
3.0802851 2.3533936 2
0.3878001 2.9911098 0
1.4325086 3 1.5206572
1.0672052 1.3491656 2
2.7782478 3 0.2909269
0.92104018 2.8065028 0
1.1490752 1.2131268 2
2.9015422 2.5576937 2
4 0.41889265 1.0637423
0.22041798 0.16131212 2
4.9993277 2.4575727 0
2.772053 0 1.6882422
2.1934421 3 0.051352926
3.4539096 1.4981974 0
4.4648681 2.5364826 0
0.66605347 3 0.65252358
3.0895405 2.2559526 0
0.060994074 1.4410342 0
1.1651582 0 1.931803
2.9224632 0.19299671 0
4.3714681 2.5762415 2
0 1.388052 0.30809891
2.1841562 0 0.85278541
0 0.59411359 1.143181
0.31232128 0 1.5281556
0 1.1023508 0.65154755
4.1617446 1.5 1.6004035
2.3378098 1.0659376 0
4.4692149 1.9266253 2
2.0653036 0 1.4773892
3.645545 2.6632938 2
0.82930112 0 1.8090354
3.7895939 2.6351979 0
2.4244738 1.9509482 0
0.84144974 0 0.89553261
3.3391247 1.5781089 0
3.298377 2.4877849 0
3.4775155 3 0.083622776
0.47027594 2.6157289 0
2.0120573 2.344167 0
4.2207274 1.8464754 2
4.9566531 2.7281563 0
1.2204098 1.3686491 2
1.4256725 1.119115 2
3.5546801 0 1.2373261
5 2.3609505 1.7456292
2.7895901 0 0.98618007
3.5571792 2.3876953 0
4 0.16083694 1.5799285
2.5915117 1.1608837 2
1.508164 0 1.6375291
3.8625653 0 0.61898082
3.3371935 3 0.0095309541
0.66444647 0.052598473 0
2.3165078 0 0.58679444
3.3601561 0.87124586 2
2.5988445 1.8914152 0
0 2.0589173 0.68311989
0.5480603 0 1.7410918
4.5146794 1.5 1.080219
0 0.36306185 0.7249825
3.7078011 2.622026 2
0 0.28850251 1.0095667
3.3526757 0.24344714 0
4.2557473 1.5 1.8931109
0 2.6532888 1.4098097
2.4406669 0 0.072440654
0.58358812 1.9500254 2
3.394006 2.5712709 2
1.2653204 0 0.86761159
0.12164652 2.9040544 0
1.715112 0 1.3188403
5 1.8343335 0.17590229
4.842124 1.5 0.50818247
0.4745326 0.41998196 2
0.16180609 2.4141018 0
0 2.4945171 1.4436083
0.98537302 0 0.62281162
0 1.6607192 1.02676
4.2644596 1.5 0.32631242
1.9238601 0.0056668213 0
3.9105966 3 1.4384731
1.6294215 2.8600955 0
1.7828841 0.20612398 0
0.77837312 3 0.66211671
1.2738683 3 0.76969701
1.548759 0.43439713 0
0 0.23591265 1.6613772
0 0.43897638 0.54659832
5 1.7873027 0.91240835
4.2636099 3 0.20270395
5 2.2498975 0.53980833
3.927073 3 1.7679038
1.2909871 1.6061801 2
0 0.66934001 1.8303947
0.70991659 3 1.1045229
0 0.6205526 1.2210653
5 1.7063627 0.99383253
4.7165513 1.5 1.8803527
2.9431307 0 0.21746901
3.2134914 1.9421055 2
0.47238976 3 1.0688447
3.3362329 0.5295952 2
5 2.5661206 0.51279497
1.4461384 2.632833 0
0.084579989 3 0.45647225
3.8812463 2.2628365 2
0.095649771 3 0.81765336
1.0199403 2.9432223 2
4 0.55955791 0.79128402
4 1.3284577 1.5968735
2.3267469 0 1.0559527
4 0.91772145 1.0013402
2.6350708 3 1.5813627
0.88059604 3 1.7070502
2.4205468 0 1.7717217
2.748111 0.004572372 2
0.37918726 1.0568842 0
0 1.6380152 1.4985282
1.326333 0.06347651 0
3.6257226 1.1137016 2
0.86555266 0 0.871638
4 0.096565992 0.84016031
5 2.1594098 1.0888522
1.3108712 0.09599755 0
0.97149146 1.1839143 2
0 2.9088295 1.9885311
2.9407568 0 0.12524238
1.3881705 0.18722799 2
0.27578738 3 1.67214
0.09695299 0.44892624 2
3.698329 0 1.7290728
3.1092587 0.85053325 2
4 1.2123275 1.0937028
3.6452534 3 0.039734364
2.4030309 1.9139814 0
2.1138752 3 1.2041645
3.209975 0 0.51252764
1.7436267 1.775919 0
1.7510467 3 1.6073837
3.4701362 2.2924182 2
0 0.18586342 0.90407956
3.4811776 2.5735741 0
4.7499042 1.5 1.6643696
0.099180475 1.4305323 2
4.7819381 3 1.0456079
4.9150572 2.7101686 0
3.7055919 0 1.4473308
1.6600711 3 1.3671659
0.094352365 0 0.68052441
2.3893929 1.3054576 2
1.1576223 0.036197081 0
3.2003396 3 1.1722161
0.94957215 1.2569416 2
2.0313621 2.9898407 0
1.3337796 2.3366375 0
1.3712842 3 1.4004518
4.3591514 3 0.31619069
3.0353444 2.3863361 2
2.3072157 3 0.2503376
4.1137271 1.962816 2
2.4360816 1.8430036 0
5 2.771035 1.197199
4 0.61781323 1.4774494
2.9585357 2.5503094 2
1.0081095 3 1.5795088
0 1.5632677 1.8917274
5 2.0911438 1.2479602
0 2.2429833 0.65112126
0 0.63569415 0.41540021
0.39108247 1.7739697 2
4 0.85403591 1.2265751
1.0405896 3 0.0685452
1.4412493 0 1.2711056
4.3447809 1.5 0.66819549
0 2.1508138 0.12131912
0.43279511 3 1.3653398
0.11483636 0.24837036 2
1.7830665 0 1.4575903
0.17750537 1.7735478 0
4 0.7499879 1.9549819
4.5388694 1.7629031 2
3.875494 3 1.968784
0.8838473 3 1.0216521
2.9486165 1.1275885 0
0 1.9988762 1.8099242
1.5549616 0.15246159 2
4 0.66836751 0.60394883
0.079808131 2.0224402 0
2.1133735 1.3326569 0
2.5097327 0.2086622 0
1.7571788 2.7153575 2
3.1170278 2.9123397 2
1.0805105 2.8671601 0
0.46222591 3 0.091632329
0 0.10222583 1.0793918
4.5663342 2.9583926 2
0 2.0549643 1.6498275
4.5594878 1.6262214 2
1.0456522 0.18270014 0
5 2.5417798 0.75229102
3.711262 3 1.9456066
1.6286097 3 0.86816984
3.3307669 3 1.7468178
2.2188506 0.18286386 0
4.7031026 2.1823637 2
4.0250449 1.5757408 0
3.3367553 0 0.74242997
4.2983136 3 0.12979004
0 1.7278469 1.4881293
3.8490939 3 0.17871502
4 0.87169117 1.4052539
2.4192858 0.86005521 2
2.2232072 1.3471912 0
4.7765265 1.5 0.54333204
1.7135289 1.4805256 0
0 1.1545084 0.077944219
1.1628332 0.76053238 0
5 2.514195 0.91952628
1.8756287 0 1.4062122
3.3321187 0 0.29921505
0 0.39552504 0.42547634
4 1.1369823 0.80529392
2.721359 0 1.4571675
0.70096636 2.6390917 0
2.6227052 2.8875003 2
0.48025349 3 1.4631226
0.36820284 1.4635283 2
3.3150699 2.1569803 0
0.64911085 2.6509817 0
3.7944026 2.845031 2
1.3929182 2.2209315 0
4.0741024 1.5 0.022013817
1.6240504 1.2623131 0
1.6842642 2.0444272 2
0.31110826 2.3836689 0
0.94968039 0.63530433 0
0.43506694 2.3291712 0
1.3103116 1.8885779 0
0.8835187 1.1781833 0
3.1721616 2.3860986 0
0.2317531 1.4493287 2
0.77887452 2.2118659 0
4.4513049 3 0.01878538
1.9067415 0.65304631 2
3.9492254 0.098314799 2
0.019809119 0.9944852 2
1.5638334 0 1.2329625
0 0.46924931 0.44328111
2.6102486 0 0.15896529
0.20973423 3 1.5339626
4.4538279 2.5454631 0
0.96818972 3 1.9376384
3.8183637 3 1.911325
3.8983111 1.0116528 2
1.3857623 2.7647052 0
4.0271616 1.8651538 0
1.366058 0 0.2420961
3.4737284 0.86290622 0
2.9304552 0 1.1360767
4.4590807 2.224221 2
0 2.2876651 0.97922647
0.25894755 1.6916149 2
1.1231136 3 0.70472181
0.37742439 0 1.0928222
2.8115425 2.8804109 0
3.8477566 0 0.90876371
3.3963859 0.32399186 2
0.73404276 3 0.59202796
4.7335095 2.4535317 2
0 0.059686892 1.2968401
3.0683906 0.703637 0
1.4791595 2.9882905 2
1.7388984 2.8837087 2
0.6055342 0 0.94477212
5 1.9004318 0.048954595
2.9932079 1.7233627 0
1.2208267 1.0314393 0
2.6463623 1.8779407 0
4.3744125 3 1.633954
3.7966335 1.9411076 0
3.5117791 0 0.37564722
0.69753891 1.4565668 0
1.8551564 3 1.5713804
1.7059404 3 0.29372936
4 1.4420227 0.36197799
4 0.45283777 0.77467406
0.93862164 2.1471398 2
3.3566079 0.75977445 0
3.7201428 1.8473345 0
3.5263042 3 0.069912359
2.1477089 0.65964407 2
2.4920068 0 1.2298203
4.2450042 2.7807426 0
0.78072834 0.27280483 2
0.080051683 1.4562902 2
1.7349191 1.810369 0
3.8638136 0 0.82588351
4.2063918 2.1220965 2
2.4218361 0.28893256 0
0.51128983 1.0746112 0
4.0797973 3 1.2163491
3.7354784 0.2843214 2
0.39041132 0 0.37096068
0 2.8750765 1.8152022
4.1637135 1.5 0.36770505
0 2.0728045 1.4819732
4 0.67181152 0.30584133
0.35572082 3 0.27228427
0.78269422 0.11304273 2
1.2278924 0.16182908 0
3.6288667 1.8837278 2
4.1700521 3 0.89848995
0.48642877 3 0.76704788
3.8141129 0 1.4744186
1.2061732 0 1.3730971
4.9364953 2.8226457 0
0 0.75228179 1.6106298
0.81002438 0 1.1420387
4 1.3337387 1.1547308
0.82610899 0.30313191 2
3.1830335 2.8408384 0
4.7056155 1.5 1.0351331
3.0656118 1.5706269 0
1.6218871 0 0.59767145
2.221149 0.82852328 0
2.2334096 0 0.95856893
0 0.36050355 1.0301658
3.3135233 3 1.4878827
4 1.4091763 1.1948606
1.2598976 0 1.1749728
0 1.4085739 1.2185358
1.1059606 0 1.3054763
2.388093 2.1475067 0
0.29465741 0.23426402 0
0 1.8466935 0.48193488
5 2.0672886 1.6596767
0.60325712 3 1.8239127
4.9793968 3 1.3654102
4.5857401 1.5 0.50754386
1.1336989 1.2833558 2
0.14614053 3 1.7924106
2.5106208 3 0.30142939
4.6482944 2.9004974 0
4.7552805 1.7705425 0
4.2771029 2.2030656 0
3.2368813 0 0.54405338
2.6621606 1.1610665 0
1.8688524 0.22464268 2
0 2.7561736 1.3600094
1.3097813 3 1.2236831
0.20530929 0.53359187 2
5 2.8361781 0.40642053
0 0.54223818 1.6843622
1.1039401 2.5079336 0
4.1127434 3 1.7009542
1.0408355 0 1.2890542
0.68173492 0.58165795 2
0.52069926 2.2206857 2
3.8543832 2.8891706 0
5 2.5859926 1.729959
3.0095005 0 0.39515713
0.67292333 0 1.3397841
0 0.68623012 0.15164831
0 0.2576381 1.9738648
3.6374059 0.83823937 2
1.6168141 3 1.6183032
0 2.2224131 1.6553797
4.5065193 1.5 1.4459437
2.3025615 2.9625151 0
4.0749388 3 1.474624
1.8218457 0.96432382 2
4.6330738 1.5 1.9833989
3.8001652 0 1.8216804
4.2293067 1.6523343 2
3.5296299 0.14509091 2
1.385088 1.3904731 2
5 2.6841869 1.7379625
4.1229916 3 0.82608056
1.2336419 1.0794764 0
4.5387435 1.724141 2
1.3085581 0.30861261 0
2.8937325 0 1.8060694
4.9424791 2.3350596 2
4 0.28128979 0.23528706
1.7499226 2.0309696 2
5 1.5919293 0.0064495578
0 2.5008755 0.078028396
2.3933706 0 1.1746166
3.4235568 3 1.7638613
3.2566257 0 1.4603704
2.8223023 1.8654901 2
1.4758134 0.77445823 2
0.076914519 2.2679596 0
2.5576959 0.096381247 0
2.8460708 3 0.62755364
0 1.7696596 0.52882624
0 2.215941 1.035702
3.4680138 3 1.8053753
2.1720812 0.7448684 2
4 0.79085892 1.734629
0.11355443 2.2555678 2
1.7263499 3 0.92080057
3.9902449 0 0.18240283
1.7954711 1.0937465 2
2.2403469 2.1793649 2
2.6509018 2.7530532 2
2.676682 1.903773 2
0 2.8636246 1.4070468
1.6447952 2.5977917 2
4.4731894 2.7884312 0
3.2733102 0.02011406 0
2.9283547 1.1991571 2
4.1569524 2.0895824 2
5 2.7009037 0.77422112
1.6257815 0.90539753 2
4 0.85259467 0.82526392
0 0.08311417 0.095243111
1.4364578 2.4955652 2
2.2007592 0 0.51894999
4.1620331 3 1.3751366
0.078985706 0.07674741 2
1.1208339 0.91300488 0
0.90967727 0.086797386 0
0.96724802 0 1.5521655
0.1325421 0.52267218 2
1.4283017 0 0.70802426
4.9213591 1.5 0.68990988
1.36124 3 1.3031052
3.9533556 0 0.60564053
1.723047 0.67106539 2
2.2664254 0 1.3497727
4.0527382 1.5 1.8014193
3.0670419 1.5005451 0
4.6543369 3 0.046845779
1.5849884 0 0.98242337
0 1.7113228 0.83338791
0.83971548 0.55997288 0
2.7888436 2.1706104 0
2.9679837 1.0360575 2
0 2.3433366 1.6621982
2.4420056 0 1.5676806
3.6401649 0.87222546 0
0 2.2087228 0.64816993
0.78756267 0.44143996 0
0 1.1511705 0.013520957
1.5860574 0 0.88345832
4.2062554 3 0.96885639
2.0900607 0.92386132 0
2.1803079 0 0.37336299
0 1.2741423 0.08934392
3.6680732 2.8041224 0
4.0851212 1.6918571 0
0.5116564 0.0678626 0
5 2.3183379 1.1652926
0 2.8047891 0.98739964
2.480828 2.2670784 2
1.7424127 0.051948477 2
3.1059213 1.1540816 0
3.0401633 3 1.0258712
1.3276364 0.95812809 2
2.0372055 3 0.083190896
4.0866876 1.5 0.41062075
2.3889489 2.2029257 2
2.4546113 2.9133055 2
0.9490748 2.4269066 0
0.17561969 2.2868536 0
4.7954249 3 0.024147056
3.8558128 0 0.7248832
0.034986805 0.75773782 2
4 0.97846586 1.574428
3.5113094 3 1.9705216
0.13114725 1.1254849 0
1.2983166 2.3625386 0
2.8048975 1.7179129 2
1.5750875 3 0.93521357
0.91268605 0 0.64664656
2.5402563 0.70321941 0
5 2.4839482 1.838605
1.125439 2.0007932 2
0.16171302 1.8804227 2
0 0.20519096 0.35514858
0.88606364 3 1.4758419
2.8118272 3 1.3905219
3.8745966 0.71751845 0
2.0848815 1.3364154 2
0.12791599 1.7618296 0
2.9974256 2.3701825 2
2.3055201 3 0.1644216
5 2.6616225 0.92302853
2.1278811 0 1.7470775
3.7522895 0.34989527 0
3.0500565 2.2789538 2
4.098937 1.5 0.9228037
1.2562848 1.6551315 2
4.6266465 3 1.8900231
3.5456491 2.8790145 2
0 1.2562089 0.11873822
2.0937531 0.19543077 0
0.3749671 0.72608578 0
0 1.8862619 1.3529642
0.15890244 2.789324 2
2.9171762 2.7758324 2
2.5002112 0 1.8884199
0 0.96603626 1.8454304
0 0.16042574 0.03024235
4.2876172 2.5163546 0
5 2.304481 0.041704416
2.0715201 0.80446768 0
1.4094188 3 1.9622501
2.9828105 0 0.45656779
4 0.91087139 0.92437905
1.9063172 0.46935341 2
0.68173057 2.5748358 0
3.2313461 2.2220778 0
0.1348902 1.6731256 0
1.1299233 0 0.98258245
1.1678391 0.86580563 0
2.4087734 3 1.4644536
0.88440013 0.34249252 2
1.5797254 0 1.1771315
0 0.41780955 1.9336977
0.51721019 3 0.89093983
4.3555751 1.5 0.79563445
1.3649988 2.0644932 2
1.2827576 3 0.95277238
1.7690357 3 0.09484683
4.4066286 1.5 0.33867732
2.9829028 3 1.5782657
5 2.8076363 1.1998227
4.6869836 1.5 1.6477418
3.6644676 2.5558817 0
4.8737688 1.7982931 0
5 2.6390646 1.2163278
2.4394133 3 0.42405283
2.3587682 1.3464438 0
1.6821386 1.1343344 0
2.4184339 0.33526564 0
1.9361807 2.3440108 0
5 2.4469428 0.70162392
0.77269417 1.361164 0
0 2.693583 1.6677955
2.6999767 0 1.3562485
4 0.67548925 1.539924
2.8569002 0.29151919 0
0.735466 0.088183045 2
2.8451025 3 0.5238331
1.4320011 0 0.64520049
1.6450891 3 1.7245818
3.1579595 2.8909838 2
4.4462986 2.8564034 0
0.11873078 0.21666609 2
0.31407529 3 1.9289135
3.6918151 0.98770332 0
0 2.430141 0.76947981
1.697934 0.01366064 0
4.7994442 3 1.9672221
2.0000982 0 0.36232701
2.6789742 2.9188473 0
0 0.3183904 1.1492469
1.5594722 2.6016235 2
4.199749 2.478816 2
0.25571647 2.6349053 0
3.2868357 1.9780958 2
0.2293295 0 0.80269015
1.7392259 0 1.8497039
0.016920999 3 1.3922676
0.0095496643 2.4336154 0
4.0757341 1.5 1.3926207
2.9260304 3 0.17993118
4.5094843 1.8099245 2
3.9846485 3 0.97983724
4.9426546 2.6096175 0
0.72999185 0.62592834 0
0 2.4646559 1.5562625
2.2147334 0 0.34912825
0.26695889 0.55502594 0
5 2.2706196 1.8350165
2.4823818 1.5149838 0
0.61235923 3 1.8577285
0 2.7134652 0.14949058
3.0715921 3 0.80007678
0 1.8977859 1.9461907
3.2425106 3 1.7014067
0.15571696 3 1.4486758
1.3128698 0.45575941 0
5 2.2661901 0.13848554
3.3503778 0.74320155 0
2.0007932 0 1.6403468
3.2474077 0 0.2838808
2.9352221 1.584095 0
2.3476224 0 0.82761872
1.8715867 2.341197 0
2.349905 2.2690883 0
4 0.95673215 1.0573068
3.429915 0 0.3088764
0.34910682 3 1.4378707
2.4490373 2.5983875 0
0.71794736 2.7259731 0
3.1892786 1.1366742 2
1.8002728 2.4873915 0
1.7317742 0.037221331 2
1.3112389 1.117666 0
0.54810494 3 1.2310345
1.7996079 0 1.7192272
0 2.3065693 0.41493371
2.5181065 3 1.5263501
1.2843432 0 0.51269948
0.16980295 0.40656155 0
4 1.2305996 0.16096379
0.99254245 0 1.5444038
4.1015844 3 1.6951828
1.3573778 3 1.4060982
2.2890332 3 1.0122218
0.11974619 2.0484297 2
2.4610589 0 0.95902002
3.7008829 1.1480309 2
0 0.019948125 0.11115785
0 1.08996 1.6611069
1.2854695 2.547895 0
0.77628291 0.65746504 0
4 0.22554599 0.43432215
2.1750348 0 1.5650725
1.6453309 0 0.61201596
1.8660798 2.9927561 0
0 0.08826258 1.5594159
3.4860394 0 1.9828576
2.5909247 0.7999801 0
4 1.2964481 1.060389
2.5814822 2.3867729 2
1.5996213 2.5074983 0
4.6055703 3 1.6723163
5 2.429522 1.1225073
1.0350343 1.8513886 0
1.9219587 2.0271902 2
4 0.94035715 1.2234087
0 0.93123853 1.4557455
0 2.0848494 1.2634058
4.0985746 1.5 0.74318212
0 2.2994742 0.63193905
0.53317088 1.3008031 0
0 0.4534702 0.81290525
2.6408665 0.5589897 2
0.88428038 1.6615148 0
1.9997319 0.6493513 2
1.8557899 0 1.6429067
1.9681028 1.6608385 2
2.8438489 1.8119482 2
3.560874 0 0.35934263
1.1080829 3 0.35485604
3.3257186 0 0.42918175
1.6250683 0.82551676 2
1.425976 2.0667186 2
1.9986775 1.5276237 0
1.7066478 2.0477614 2
2.8820128 1.8370565 0
0.84304911 3 0.96570808
3.7374959 3 1.994894
1.0363637 2.7079079 2
4.8108892 3 0.084022231
2.5596409 2.7329695 0
3.539995 1.126092 0
3.1458817 1.4954487 2
4.8900433 3 1.6229541
0.94535971 0.58709657 2
1.5842503 0.68338048 0
2.4802721 0 1.3395078
0.017230658 1.3146807 2
3.7711527 3 1.4835987
4.3093586 3 1.8621027
5 2.698848 0.2508131
0 1.3829141 0.81564927
1.6146508 0.98156434 0
1.4827123 1.4701134 2
1.2217518 1.0143465 2
0 0.0032044225 0.92432076
1.8630517 1.9297669 2
3.2840211 0.53056139 0
0 2.0694857 1.5906124
1.8992914 0 0.53970534
5 2.7512763 0.96380556
0.16549906 3 1.6555785
1.9563775 1.6613125 0
2.8435314 0.45773414 0
5 2.9778633 0.84140068
0 1.3850416 1.4109491
3.0711384 0 0.3365398
1.0153675 0 0.37220365
4 0.12130864 1.8315127
1.8163695 2.9283924 0
3.2960417 2.3623857 2
1.4889714 0 0.45540667
2.5636063 0.92653221 0
4.8402004 2.4584038 2
3.3458276 0.60523605 2
4.201086 2.5123813 2
1.3605161 2.5417359 2
3.8663228 1.039395 0
0.10235063 0.51347446 2
0.24270551 0.78080857 2
1.9086151 0 0.29342285
1.3078238 0.40900227 0
4 0.72081649 1.9128281
0.34844911 3 1.5631291
0.34154296 2.7909086 2
0 2.7450163 0.27815756
3.8635719 2.3332105 2
0.25510922 3 0.81457412
3.2619703 3 1.5935932
4.8680372 3 0.88946456
3.9459078 1.7741249 0
2.7619925 1.9467498 2
3.3335738 3 0.58389705
1.9035569 0.071946695 2
3.6570396 2.0489168 0
1.9899179 3 1.780211
5 2.7337987 1.6111671
4.7914181 2.761663 2
1.8436052 0 1.5394561
0.90139174 0.33374047 0
4.9012961 2.9176469 0
5 2.2883804 1.624645
3.2919095 0.13301969 2
3.5920813 0 1.1953872
2.3411644 1.8939486 0
2.465148 2.5630796 2
2.4137912 3 0.1364989
0 2.5862508 0.042923301
1.3005166 0 1.6521226
2.209384 0 1.7988187
2.504703 2.947325 0
2.5952561 0.34336418 2
3.5769002 0 1.5300642
0 2.9455163 1.0892049
3.963187 2.1871798 2
1.2974752 0.11889495 0
0.24377227 2.667258 2
2.1035757 2.9302914 0
0 2.0656192 0.47220215
3.3894486 0.76121998 0
3.3961322 2.5586295 0
2.4526985 2.9677706 0
0 2.2350402 0.24197794
2.7036052 0.44658571 2
0.55446178 0.61231142 0
0.084493101 2.8271425 2
1.76127 0 1.7572896
0 2.6436257 1.5047143
0 2.6663473 1.1771972
3.5201628 2.0322003 2
3.4761302 3 1.0609046
0.71984595 1.6560106 0
3.2499673 1.8236313 2
3.6569858 0 0.60189164
1.8329313 3 1.1547728
3.8470168 1.4396948 2
4 0.58518642 0.17148358
3.911242 0.50707114 0
2.3448064 1.5774076 2
0 1.8601104 0.18638588
0.031903449 0.76552403 2
4.9157977 2.2562187 0
1.1322212 3 0.11431146
0.40216073 3 1.5725975
0 2.3110235 0.63213426
3.1997132 1.4631211 0
2.7454057 0 1.0475166
0 1.0594143 1.9966242
4.9356747 2.0023589 2
1.0816754 2.3739002 2
4.5781808 3 0.44504544
0.18204553 1.6598234 0
2.0710506 1.2247577 0
0.65754938 0 0.068765253
1.3295176 0 0.6894421
0.7239669 2.2787883 0
4 1.3215741 1.8936604
0.51498115 0 1.428672
3.3309693 0.53699273 0
3.680232 0.71058369 0
2.0774474 0 1.4368956
1.1945711 2.6944747 2
1.9417294 1.1422322 0
4.8604612 2.424119 2
4.0996027 2.9077575 2
4 0.31290141 1.4352791
0 2.1759541 1.5508397
0.017428128 3 0.50600207
0.2194597 2.4967294 2
1.9496176 0 1.6735166
0 1.1439008 1.9438859
1.8832519 2.9453778 0
0.5985232 3 1.3198938
3.654866 0.98714209 0
4.1661215 1.5 1.0164644
1.0411917 2.7041657 2
0 1.4091049 1.3640954
1.5746723 0 1.25695
2.7965109 3 0.92073768
0.64461505 0 1.4795177
3.7907193 1.0552886 0
3.2701437 1.2513142 2
2.488524 0 1.7873968
1.2285322 2.5583515 0
3.3630271 3 1.8008654
0.77827001 1.6851369 0
1.947758 1.3916777 0
3.5961909 0.91853714 0
2.8337851 1.5601256 0
1.74098 1.4085003 0
0.55007774 3 1.1517087
3.4020119 1.8920196 0
0.31807524 0 1.3951359
2.29827 2.3257549 2
0 0.80167234 0.57288706
1.5870523 1.9972103 0
0 0.61804318 0.43490091
4.9220486 1.5 1.6735227
0 2.4638736 1.0139484
0.68359643 0 1.5639391
4 0.192489 1.2753536
2.2902927 0 0.75252265
3.9789021 3 1.5025557
4.5111699 1.7548379 0
4 1.3210025 1.3893331
0 2.1620269 1.487204
5 2.7354705 1.0711963
3.5839024 0 1.9023943
5 2.1649122 0.16134255
2.1992774 2.3667648 0
2.4965715 0 0.46833196
3.9001367 0.56730378 0
1.1039448 3 0.89214337
1.7772382 2.0110915 0
2.5616124 2.7890863 0
0 0.11648595 0.16231233
0 2.4773765 1.1499573
5 2.4517648 1.2479001
4.1885538 1.5 0.579198
0.9292717 0.68653691 0
1.417735 1.9782827 0
0.40608537 0.25302446 0
0.70475674 2.1524856 0
4.6036897 3 0.42222965
1.9104784 3 1.2746067
2.6324995 0.67322558 0
1.6084428 0.17855726 0
3.3254178 3 0.85216594
5 1.9397147 0.46694985
3.2036881 0.2894634 2
2.2788472 3 0.6626327
4.9583545 1.5 0.98999542
5 2.7673621 0.12400585
3.2212009 0.29385537 0
3.559073 0.62557048 0
4 0.99905992 0.65992683
4.7010422 1.9234569 0
4 1.3455479 1.9272101
4.8516412 2.9380224 2
0 0.87506223 0.19075567
4 0.34311083 0.28861129
0.83105707 3 1.9407823
3.4578424 1.9454628 0
0 0.24978681 0.86117661
0 0.62395161 0.0062209135
0 1.9073514 1.2485378
4.7932115 2.1283283 2
0.039661586 0.90865302 2
2.6356385 3 1.6892365
3.1116972 2.7409103 0
0.99232441 1.3349879 0
0.72074533 0 0.58174497
1.6172714 1.5053047 0
4 1.2693385 0.33020473
2.6279905 0 1.8413453
1.354292 1.2390966 2
0.04297711 2.2500079 2
1.4571971 0 0.3513259
0.61271328 1.802681 2
3.641562 0.075461589 0
3.5881472 0 0.38341668
0.35509637 0 0.39425993
1.5395044 3 1.5673225
4.0566273 1.5 0.71158957
0.94179243 3 1.9111435
0.58382732 0 1.1422405
3.7484488 0.62080485 0
4 1.3752031 0.064353056
5 1.6347902 0.62449425
4.782362 3 0.67158461
1.7667353 3 0.84586322
0 1.436087 1.4068909
0.95438409 0 1.6584816
3.1351695 0.60298932 0
2.6293411 3 0.58707964
2.9311697 2.7163427 0
3.5481796 3 0.40726188
2.233278 0.94422299 2
4.6177101 2.4543135 2
0.58587193 2.3211064 2
5 2.5713208 0.23102556
1.2086662 0.60913599 2
1.5037645 3 0.13885418
0 1.3649484 1.7510029
0 1.6895517 1.7274137
0 1.9174078 1.9642123
2.5694358 0 0.77202797
4 1.284169 1.8650062
2.8652387 3 1.4638585
4.393198 1.5 1.8104059
4.8937621 2.0578094 2
2.0239432 2.9128592 2
0.52447647 1.9847809 0
5 1.66518 1.1042502
2.0189543 0 1.9212588
0.37562913 1.288048 0
0.17336589 2.4492896 2
4.8463836 3 0.843692
1.9395835 3 1.50775
2.9092178 0 0.50508106
4.729794 1.8225075 0
2.8607006 3 0.93083721
0.22652924 0 1.8452659
4.8971009 2.6896272 2
3.3746946 3 1.0465561
4.7008166 2.3724549 0
2.409481 2.3107078 2
1.4653945 3 1.3265587
0.94196129 3 0.23185198
3.0120182 3 0.89318556
0 0.05181542 1.3268018
0.77892154 0 0.83432043
3.1723156 0 0.26570949
2.8635693 0 1.2644727
2.8972287 0 1.1070845
0 1.3487082 0.59886676
0.5951252 0 1.2085379
0 1.5408549 0.25420719
2.1954565 1.1715007 0
4.505425 1.5 1.1162834
2.6445336 0.28737482 0
5 2.7448542 1.0354877
4 1.0193039 1.8732355
2.0491021 1.3273933 2
3.5604181 0.034066062 2
1.8694369 3 0.99725473
3.0598242 0.62567568 2
2.3045292 0.94931626 2
0.62804437 2.4998462 0
4.4270329 3 0.58523273
1.7165426 3 0.4881267
0.35055768 0 0.42290697
0.74424672 1.0826631 0
3.9900262 0.93752128 2
1.9108816 3 0.80600059
0.59662342 2.5220578 2
1.1592851 3 1.0697893
4 0.70577192 0.24903364
1.1236998 2.1587465 2
0 2.0683038 0.13195689
4.8265352 3 1.0437144
4.1413307 1.8325012 2
3.01443 2.6465719 0
3.0474944 2.1327729 0
5 2.6165416 1.0652504
0 2.3327973 0.97072577
0 1.8582211 1.0668279
4 0.90331268 1.7303452
2.734525 0 0.58728224
4 0.54117161 1.4545183
3.2289097 0 0.26116496
3.5431416 2.4222236 2
5 2.1749387 1.3765202
4.1860871 3 1.5469009
0 2.9244111 1.7093816
5 2.1250491 0.54765809
2.1857953 0.30521226 0
0 0.67004865 1.3776618
0.70048529 3 0.94817644
2.0290132 1.4112898 2
4 0.81895941 0.59658176
0.0029893336 3 1.6371621
3.1275449 2.2772527 2
4.7485085 3 0.37139699
2.0385041 0.51757842 0
3.8742867 2.1967976 2
0 1.5864242 1.858282
0.66319662 1.8341017 0
4 0.32180136 1.3925461
4 1.4414024 1.9187152
4 1.4650499 0.95270652
5 2.0112813 1.7810137
4.6220679 2.8124044 0
0.16348657 2.2655683 0
0.11709183 2.5628252 0
4 1.3276471 0.24573028
3.6928883 2.6154118 2
0 1.3262469 1.4500307
2.2332408 1.9088908 0
3.741154 1.9074827 2
1.1257169 3 0.27955109
1.3145851 3 0.33808458
4 1.0073761 1.9513881
3.6742725 2.376745 0
2.0083721 1.5480983 2
2.4560714 0.75340074 2
3.375911 2.8061626 2
1.8534056 3 0.86783749
0.071970195 3 1.1731144
3.1521492 1.1103098 2
3.5900757 2.5993214 2
3.7588787 2.6108801 2
2.1405702 0.41681182 2
0.33397725 1.6622875 0
3.2920539 1.3539332 2
4.4811492 1.5 1.0285839
1.8648248 1.3709657 0
1.3986068 0.21987298 2
0.24063648 1.5117662 2
0 1.1253116 1.3543307
4.226315 3 1.5935031
0 0.33346573 0.62408686
4.5680799 2.3289311 0
0 2.5237243 1.2940457
2.6522887 0.20120066 0
0.001313325 1.6443135 2
3.6682906 0.41992855 0
0 0.061825156 0.99615175
2.1775684 3 0.87232399
1.6234719 1.6285667 2
1.1492171 0 1.6331055
2.8360903 0.86967212 0
0.0047275964 1.9778703 2
3.8960266 2.7115633 0
4.4146299 1.5 1.6337597
4 0.54948807 1.7320693
0.10837944 0.68117034 0
0.25450134 0.40264046 0
0.98863262 2.2969437 2
0 0.046394814 1.2687567
0 1.381566 1.9644989
2.9257743 1.8405124 0
2.8982594 2.347749 0
4 0.60677922 1.2489226
3.4316995 0 0.49942484
1.2543682 0 1.8776916
2.3431437 3 1.2558641
0 1.4912399 1.8406531
0 1.3014684 1.3051667
0.51481038 3 1.9434178
1.1948081 2.960551 2
0.61720085 2.2695746 0
0.6911121 0.62599045 2
3.711657 3 1.8724091
2.5650809 2.5731809 2
2.9811201 0.39233249 0
3.6719203 0.4377014 0
4 0.046356685 0.21165276
1.5903677 0.65418917 2
0 2.1162574 1.2903332
1.1491989 0.58067721 2
3.7793489 3 0.72294581
1.3422005 0.13954775 0
1.476469 0 0.16367489
5 2.1663063 1.1159539
4 0.05177258 1.6739142
4 1.1084753 1.0933745
2.1608555 2.6307528 2
1.593425 1.1711646 0
4.5310979 3 0.38492933
0 1.5065669 1.0774791
2.3096542 0 1.1708812
2.6184933 0 0.83096981
2.5449002 1.7562177 0
1.342636 0 0.53019696
0 2.3620725 1.4399056
4.8523264 1.5 0.93901098
1.8430392 1.9846908 0
3.3817441 0 0.72141129
1.0797169 0.35679358 0
3.8605778 0 1.2735857
0.56129944 0.28955019 0
0.17249429 2.4449584 0
1.449631 1.3275818 0
0.56716478 0 1.0583302
0.45156583 0 1.7493423
2.8016067 1.0197924 0
3.7157073 2.7572372 2
0 1.10329 0.23947091
3.9673538 1.717445 2
2.2160139 0 0.32548755
0.95798314 0.77785325 2
0 0.099429026 0.40784317
1.1253847 2.7842543 2
0.2012693 1.6316227 0
0.63277066 2.1563606 0
0 0.78741986 0.82216287
0.17888077 1.2560011 0
1.3663765 1.2648485 2
0 2.7274778 1.0466383
0 0.42846072 1.8296323
1.54726 0.5616985 2
0 1.3141667 1.2843205
2.5067258 0 1.0123262
0.38222104 0 0.80674279
1.4407164 1.5254227 2
3.3999736 2.611943 0
3.9037302 1.565062 0
2.771791 0 1.7060093
4.36765 3 1.085623
1.9427514 1.5937726 0
4.8256493 1.5 0.49672538
4.5378079 1.5 0.58508927
2.0001364 2.8203771 2
4.1156702 1.5987176 0
0.75367725 3 1.5040078
3.3329499 3 1.8449274
3.6880808 3 0.050686598
1.4150734 3 0.21758528
0 1.3269191 0.49754271
4.064559 2.1156425 2
4 0.14566226 0.74929565
4 0.91672516 0.13570014
0.30303967 0 1.2432215
3.2582376 1.0376364 0
1.7679784 3 0.6108138
0.8454603 1.4280556 2
4 1.2380177 1.2065251
3.8744452 2.7923396 2
0.74622232 1.0406177 2
3.6002707 0 0.21133892
2.8228731 1.4468688 0
3.3339598 1.8857129 2
5 2.6275876 1.9845562
3.1475177 1.6378994 2
1.4597278 1.3489929 0
3.823765 3 1.7377537
4 0.16104278 1.1723428
3.2112904 1.8663787 0
3.6467934 3 1.1854726
3.129904 0.059212327 0
1.3261895 1.4184104 0
2.5159593 0.62507695 2
0 1.7147132 1.6410918
3.6074803 2.8061771 0
1.6838466 1.2718617 2
1.0496331 0 0.19085924
5 1.817457 1.3632387
3.9195969 0.057578024 0
0.23567273 3 0.32301468
1.1263692 0 1.5621164
4 0.060804471 0.77092969
0 2.2719383 1.2306987
0 0.73153681 1.0620403
4.6574068 3 1.8940856
4.7372003 1.5 1.0201696
0.68194658 0 0.215774
3.3515024 1.1800776 2
1.3607295 2.9486041 0
4.7338691 2.6846056 0
3.5961399 3 1.2140588
2.813364 2.4166064 0
0.10136857 1.7793578 2
3.7309365 1.8429524 2
0 0.22274034 0.78757042
0.67811561 3 1.7605132
0 1.0139591 1.9624994
0 1.3890026 0.28263086
1.2692562 1.1609303 0
1.653808 1.614044 2
4.2285728 2.49594 0
3.0284615 0.88906908 0
0.98508352 3 0.66037202
2.5180824 2.7975078 0
0.9719373 3 0.077721983
1.0535882 0 0.0077903466
2.7910044 0 1.3864324
0.70377594 0 0.38522246
3.0059021 2.7895069 2
1.3004532 2.0239949 2
3.9366481 2.6920788 2
0 1.5484084 0.81195188
1.7437918 0 0.01156265
1.0712066 3 1.7052494
5 1.7208132 0.76920015
4.8062453 1.5 0.52695179
3.8554847 0 1.8147357
4 0.94424754 0.84656852
2.5897512 0.86305588 0
0.75733495 2.4959846 2
4.4724393 3 1.6626164
2.7604816 0 1.6621944
4.8436108 1.5001974 0
3.4324222 3 1.2508261
1.6095715 1.9181149 2
1.30107 1.7658069 2
3.6714633 3 1.6395534
0.86754894 0.34637654 2
4 0.90442586 1.7021286
1.9088454 3 0.62981331
1.5393847 3 0.086726673
0 2.3184981 0.78878355
0 0.50205648 1.0952903
0 1.6917937 1.0177504
4.0408673 2.7184591 2
5 2.295331 0.11200235
4.005476 1.5 1.6925098
4.4436207 1.5 1.4507571
2.0303588 0.67809409 0
0.25766957 0.19456586 2
