# .PCD v0.7 - Point Cloud Data file format
VERSION 0.7
FIELDS x y z
SIZE 4 4 4
TYPE F F F
COUNT 1 1 1
WIDTH 1504
HEIGHT 1
VIEWPOINT 0 0 0 1 0 0 0
POINTS 1504
DATA ascii
3.0128314 0.0026456404 0.61181742
1.5728165 0.30168572 1.0413229
0.95222306 3.1488814 1.265774
2.7616713 1.5132225 -0.005887446
4.9819341 1.5100149 0.059875254
-0.0073504234 0.3224557 0.0056666266
2.8174708 0.13496563 0.01009789
1.5895348 2.0425117 1.9937785
0.84098411 3.1695106 0.98732185
0.55917472 1.1879047 1.9926548
1.0284011 0.34576738 0.0038111084
2.8980761 2.7035987 0.0070929909
0.90538293 0.97657919 0.016521357
2.3069632 3.0537186 1.9994601
2.6003942 1.760686 -0.00057849626
3.2965653 -0.0080059962 0.28258994
2.6748922 3.4311633 0.63960385
0.32517225 0.056381706 0.24048527
0.26247144 -0.00060202961 0.92413509
2.5619025 0.42391208 0.01358865
0.0064222915 2.9617348 1.0167309
-0.00037154666 1.944795 0.013762732
4.8100538 1.4893562 1.0845631
0.017265964 -0.0082699638 0.78932071
-0.0023815457 2.27334 1.3620503
0.19648097 3.0341868 1.8519907
1.8391379 0.01741698 0.4234488
4.5732546 3.7046649 2.0205832
3.5611281 2.2369354 1.9883155
3.6978073 2.6405256 2.010344
4.5547194 1.4905806 1.8479363
2.2197514 3.3793931 0.22502476
1.6679244 0.28322884 1.6308241
3.7142093 0.0051141367 0.75579286
3.8840396 3.6286664 0.90540445
2.4199398 0.03767677 1.9833376
1.6583228 0.49825969 2.0015903
0.014078035 2.0145121 0.14059456
1.0984854 0.25296184 0.0026050103
1.7289536 3.2929866 1.3865383
0.20794867 2.5026779 1.9955941
1.5205195 0.39301017 1.9827614
4.606401 3.7348022 2.0024521
0.47857094 3.0705605 1.975931
5.041605 3.8587375 1.2862802
4.7373857 3.7857475 0.69015372
0.14501208 0.033424728 1.3977821
-0.0060079214 2.7714782 0.70955467
4.7077928 2.5138183 1.9896377
0.0087827491 2.0387707 1.0941355
5.8026452 3.5130665 1.8907757
2.8368859 3.4596829 1.1406783
5.4996257 3.364619 -0.016016053
5.1349173 2.2159443 0.0051232418
0.98371083 2.9515672 2.0101891
1.9615045 1.8215692 1.9990088
0.37401769 0.0068799052 0.5073964
4.1927347 3.1324906 2.0073769
3.6593506 3.6192467 0.10669988
1.5807183 0.37300658 2.0126908
2.2721164 3.3830311 0.17784433
3.4246023 0.64525074 1.8614082
-0.0053101992 2.3042998 0.15578775
0.59847522 3.0973113 1.5202874
5.0256801 3.6213543 1.9894845
5.982584 3.9785135 1.5225928
0.21867375 0.0088663371 1.4841057
3.0580416 1.6383332 0.0077686934
0.53994292 -0.0099017527 1.3457863
1.8023021 0.34039757 1.0403435
5.765234 3.4016814 1.2557409
3.9966078 0.22222826 0.32950443
3.8282323 3.6439583 1.1652805
5.7126589 3.2727258 0.42293209
5.7682939 3.4354346 2.0043206
2.2565739 3.3713822 1.5463446
3.5140095 3.0510285 1.9823154
3.2474608 3.5268118 0.19652356
1.4430764 0.44426587 -0.015021126
0.18951054 0.77064294 0.016741643
5.3907266 2.4623184 0.83797073
4.0061073 1.3061497 0.77764064
-0.00059476012 2.9016345 1.0052471
2.4590745 0.28040373 0.0067666536
5.0589371 1.8946979 0.015405819
4.0212426 1.5058249 0.1583451
0.0073137917 0.63714045 0.84334892
1.1319503 2.8583672 0.0006536803
1.4341638 -0.01296705 0.3321228
4.4808955 1.5001659 1.0107933
4.699903 1.9897466 -0.0037807564
3.7297449 0.68457985 1.4468156
5.8804679 3.6965885 0.63550514
3.9818599 0.41709128 1.9535716
0.0091314483 1.4973841 -0.001721953
3.9297464 3.1117957 -0.0041643172
1.4925414 3.2631834 1.7255058
5.8241644 3.9621229 1.3149216
2.8228943 3.4759657 1.507277
4.754066 3.722496 0.0026384327
2.722626 0.58778167 0.00092105806
3.1782846 2.5820503 1.9989296
0.17602386 2.5778904 2.0004666
4.1089649 1.504124 0.71041435
2.5943 0.37237647 0.0021880209
1.7216187 1.6306531 2.0099123
5.343225 2.3642497 1.3481944
3.2384887 -0.0089370748 1.8031681
1.8064519 2.7814491 1.9994171
3.6339629 1.3944752 0.005923423
5.8457532 3.9796557 1.9442625
3.3905072 -0.019714251 1.3147379
3.6107273 0.48583448 -0.001403142
3.2094691 1.5009686 0.0024767152
3.0404863 1.5326247 2.0029669
0.93598473 3.0541923 0.0062422254
3.6987369 3.2799361 0.016305339
3.9944007 0.19269219 1.5126195
5.0129619 1.5851705 1.2348059
4.5035429 2.009732 0.0041004973
3.7867041 1.2162672 2.0070014
4.0006428 0.040728182 0.8432219
2.6682384 0.55702418 0.010437418
3.7735999 0.13902275 0.005287875
0.78375828 0.00063755881 1.1332574
1.9376969 1.2336166 0.01420268
1.1538553 2.7927825 1.982814
3.0281122 0.0011678151 0.23578733
1.2500856 0.23158714 0.4192487
4.2496848 1.5055578 0.24356645
0.94182581 2.3235621 -0.00081573066
2.6332195 3.4412708 0.62722468
0.0076174648 1.5711628 1.7337254
2.3064704 2.9493058 -0.0056014168
1.5075874 0.27944398 0.8293975
3.9904084 0.158852 1.0751104
3.4802203 0.66626495 1.7904922
2.3788199 3.0455501 2.0030584
4.0069842 0.95522261 0.4429484
4.0389261 2.1804252 2.0018215
1.1580743 -0.022336051 0.34151268
5.5906219 3.008131 2.0036719
1.0016381 0.076976173 1.9895587
2.2820811 2.3283072 -0.0082577439
4.0011392 1.074568 0.99603176
4.980751 2.3981318 0.00060520676
3.0212862 1.3255905 -0.0072334819
-0.010644693 1.5242248 0.78192937
4.1735196 2.1600215 2.0018785
4.058383 3.6683395 0.10541721
2.7037623 -0.0076073469 0.72821617
0.072148904 0.89854473 2.0033565
1.7565181 3.2944062 1.7096287
3.6284091 3.4711454 -0.0010785772
1.1594512 3.1821995 1.405996
0.54630852 2.2244606 1.9994551
1.912773 0.55092281 1.9987466
2.3595166 -0.0022051204 1.0678525
0.83968103 2.2781093 0.010338712
1.7309852 3.2986186 1.7068129
0.57666463 0.11139884 0.052625023
0.0055679488 1.5245175 0.69826025
4.0233588 1.4881939 1.1188869
0.016990922 -0.0015583903 0.25761291
2.8151591 1.4256793 -0.010309494
0.0013319133 -0.0084302444 1.7058372
0.49361455 0.96431571 1.9900789
3.4454446 3.0093825 2.0048342
0.019263979 1.9048694 0.91693097
0.61041433 0.11146917 1.0418785
4.1696377 3.5523813 -0.0022058133
4.0001717 3.3691587 2.0055451
5.3114147 2.278034 1.4470176
2.4144745 1.8858409 1.9928659
5.9590173 4.0027723 0.92916846
0.287783 2.932025 0.0065513789
2.8298097 2.5591693 1.9864684
4.6384387 3.377913 1.989658
0.0061122808 2.5491259 0.7288211
5.3624029 2.4485989 1.9303799
3.0509717 3.5130751 0.14445244
5.9604535 3.8808937 0.27869269
0.95742989 -0.0067989482 1.7772756
5.5068502 2.7497425 0.68400574
3.1747477 3.1654499 0.0053498223
0.29080492 0.067006975 0.16623576
4.8656244 3.6434729 1.9877108
0.84796762 3.1388822 1.2606441
2.6011658 0.17741723 1.9890196
2.1051426 1.1649908 -0.01077685
5.4445648 2.6103876 1.4578344
3.8700068 2.8188288 0.0059649204
2.3043756 0.16029549 1.9836885
4.4468522 2.9108548 2.0025656
2.3848603 3.4153588 1.6517733
3.7187755 1.3438083 -0.0053300415
1.8843163 0.36258185 0.38539073
0.0031463455 0.41845533 0.31853625
4.0103617 0.69051039 1.8762274
1.6387775 3.2763085 0.66968673
3.9664996 -0.014680523 1.1507442
0.41134474 0.010688995 0.54244763
3.7113128 3.5958767 1.636306
4.0174646 1.0317597 1.02397
5.1751003 3.6277914 2.0001028
0.37025294 0.076376706 1.9921578
-0.014703017 2.4374218 0.31758922
2.8754177 2.8781462 -0.017322537
2.9094069 0.54293716 1.8959115
5.8714013 3.708977 1.2108479
1.8645931 1.3702465 2.0119936
2.5147257 1.843206 1.9970801
2.4357648 -0.012889262 1.5651448
2.3937607 2.0909648 0.00092971645
5.8649554 3.6743011 0.32365856
2.2642515 -0.0046488554 0.22185028
-0.013982397 1.3988365 0.97238725
0.0091800401 0.039547086 1.2593437
2.8516531 3.4523108 0.061649259
2.6564941 1.454291 0.014504717
5.6629896 3.9190302 1.0320976
1.8182906 0.1099961 1.9991891
5.7183409 3.288295 1.0428149
5.597899 2.971957 0.47152448
3.994303 1.4870571 0.82177389
4.5371947 1.4941193 1.7480785
0.58559173 0.0087935254 0.094674319
5.940949 3.9196098 0.17875542
4.0147357 1.1792864 0.62676114
5.8123522 3.5612943 0.55028611
3.9966915 0.16097844 0.72729176
2.0302114 2.5708554 1.9978694
0.14551847 -0.013218844 1.4787923
0.75588554 3.1263463 1.4773302
-0.0090811346 0.034178831 1.8043401
4.834847 3.807127 0.70056659
3.0063961 3.5049267 1.7925369
4.7562208 3.8034337 1.0894285
1.9100145 -0.011879453 0.70782173
5.283658 3.8724451 0.55854034
3.3744121 2.4190319 0.012508297
5.9741435 3.9238052 0.21969326
4.4972 2.0197499 2.0067444
4.9416165 3.4766278 0.0034628604
4.8025823 3.3923118 2.0007799
1.4996328 3.2548087 1.188905
5.1604209 2.4784935 2.0002358
4.7198863 1.6234685 1.9931736
0.62066841 0.10781219 1.4471095
5.8269529 3.591032 1.7587351
0.0094733536 0.82593352 0.62358928
5.0561819 1.5870073 1.8712938
4.7936945 2.502821 0.0017472839
1.6585294 3.2814553 0.79506952
3.4027154 1.1912801 0.0085046357
0.0073161344 0.35736117 0.065816365
-0.0023939253 1.2587833 1.9656792
1.5430965 2.3520486 -0.012664064
2.8569088 -0.016989911 0.5395782
-0.0028035857 2.8871233 0.36147597
4.4804258 3.397902 -0.0033411982
1.8274996 0.80523425 1.9987298
0.80217749 0.092690185 0.008071186
1.6434848 -0.0011260742 1.4931352
2.1411397 3.3600807 1.4896686
0.3962501 0.54555076 2.0043802
0.35244244 0.32230607 2.0092232
3.3463845 2.5551195 0.0077556241
3.3176267 2.0152879 1.984769
3.2613616 2.8141539 -0.0049859127
0.58216 0.11350153 0.6431089
1.3332018 3.2325931 1.9178573
3.5262482 0.40880877 0.0038765916
5.3605204 3.8974524 1.9832951
0.67044455 1.3483981 1.9835613
0.00085354497 1.5431581 1.239669
4.6432567 2.348563 -0.010407459
1.623217 1.0588429 1.9930023
2.9083931 0.54588467 0.63470215
4.1183629 3.3271461 -0.0074369917
5.0298581 1.6141328 1.1295794
3.9623435 0.73517323 0.48043144
3.623019 0.017279213 -0.0076350956
1.9550109 2.312773 -0.020565014
4.0150771 0.38859668 1.4049823
-0.01488262 0.48736033 0.92356259
0.53960693 3.0812411 0.094261177
3.363585 2.1009254 2.001312
3.0156391 2.1928446 1.9954087
2.3716495 0.44424221 0.53928959
2.2683718 3.2387431 2.0043678
0.74150759 0.43205288 1.9960709
1.2210542 0.005870447 0.03527575
0.0034170647 1.1004204 1.6259305
3.2193067 0.6032145 0.36450967
1.8621784 0.0034254175 0.67020059
2.1227875 1.9200906 2.0047569
0.009020851 0.24313629 0.22958174
0.23963842 2.9573815 1.9911233
0.10161979 0.64863425 -0.0024399667
0.49145693 0.084462002 0.41727236
5.9773488 3.9384465 0.99216288
1.2989058 1.1366134 2.0118122
2.2104313 0.42677087 1.552928
3.2688999 1.1650121 0.010598408
0.0083521148 2.2485971 1.957399
2.5719757 3.435262 0.5863781
0.61370838 2.5628109 -0.0049192132
4.5198855 2.8989055 2.0033591
1.6843464 0.3272045 1.2674078
3.9909317 0.74420887 1.5220007
3.2184868 2.472662 0.00028634182
3.4471958 1.164116 2.0137954
0.56357056 0.069177002 -0.0044827424
0.91959703 3.1486399 0.31930771
2.5126193 1.5126946 -0.00081445964
1.9524148 1.1407787 0.0066022882
-0.0095101846 1.2157327 0.1594108
4.1898818 1.645538 2.007154
3.9892445 0.73837155 0.90885031
2.3423553 0.33407745 1.9960855
0.016973106 2.8202765 1.4991786
0.0024741318 2.273489 1.8163129
0.65295136 1.4079299 2.0239706
1.7455091 3.2797003 0.96353358
1.4022472 0.0020577859 0.62708998
1.8522589 3.014468 0.011334288
5.1693578 1.9008584 0.95021778
1.4965127 0.26594633 0.3414827
5.7480345 3.333632 1.5498935
4.597651 1.4983934 1.9480121
2.9279704 0.35707828 -0.0044316808
4.0132608 0.086131431 0.15936024
1.4247663 0.27127549 1.4404181
0.38036618 3.0617464 0.89096278
2.4514787 2.9539857 -0.024077542
2.366323 3.1490648 -0.0028586318
4.1415486 3.2527733 2.0162575
3.3254135 3.4953794 -0.00012127902
3.0002134 1.0608978 0.00042106124
2.8436007 1.6914668 1.9951683
0.30614254 2.0515831 1.9868495
3.9958422 1.1128561 1.0250677
0.16801022 2.6744103 -0.0045906412
-0.0021077893 1.7500036 1.8170582
3.4257071 0.04144679 1.9888409
0.86076111 1.7538314 2.0027752
2.6677637 1.7983333 -0.002335313
3.7703202 3.6056817 1.8906946
-0.0058456347 1.3029634 1.1566826
2.6335096 0.10370071 -0.0012984468
1.6006868 -0.009898847 1.9826914
2.2589688 0.31743392 2.0169179
1.3983871 3.2313371 1.3275009
1.3062695 2.69274 0.0053985049
0.69469136 1.228139 0.015785618
2.7582181 3.447865 0.59239358
3.6899576 -0.00029067311 1.9284979
2.2559645 -0.0058304905 0.42538381
1.9310175 2.1168694 -0.0070866942
1.9145354 2.7160895 -0.017232647
4.5753541 2.8906891 2.0165336
2.4440346 0.46839461 0.33509839
3.691282 3.5878892 2.0021789
3.6286025 0.23156887 0.0081246076
4.8869596 3.4818549 1.9863064
0.00726313 2.0242388 1.1245543
3.9393454 0.28465477 2.0012398
1.1860883 0.215507 0.11291844
0.98155802 2.9200897 2.0053756
1.8931503 0.34750289 1.6206003
1.1288964 0.027668076 -0.015183176
4.9937739 2.3706911 2.0001476
3.7346482 -0.00010497562 1.3055727
5.6613889 3.1337361 1.654865
4.1074576 1.5073675 1.7289335
3.8795118 -0.00012104915 0.66885614
2.6361654 3.43905 0.13680233
0.66494966 0.10451252 1.7797173
0.43608356 2.5942285 0.0017372832
-0.016905693 1.5572847 0.14766078
4.4419832 3.7440963 1.1706537
3.7201877 3.6260154 1.4212512
0.68036467 0.12572627 0.13403717
1.8451283 1.4231055 1.9951057
0.0041587236 2.3647208 1.2814404
4.6183486 1.7837296 1.9938641
3.5401773 3.5817652 1.3579738
3.6995866 1.7195139 2.0056019
-0.008054168 0.23998888 0.89469129
4.1578279 2.0465589 1.9937292
2.4894295 2.009268 1.9994249
4.4644103 3.2126279 -0.015706658
0.27576941 1.3076038 0.010611478
1.4605855 -0.0079454398 0.69681495
5.87711 3.7213526 1.8697476
5.9756961 3.9968946 0.93292838
3.0448625 2.6835766 -0.013623901
0.011242054 2.9101338 1.0798492
1.2905031 0.24602017 1.9560089
5.6731801 3.1534252 1.1380929
3.3691838 2.165555 1.9991057
1.2443558 3.1882341 0.32422939
1.4987124 0.27780569 1.8195592
2.0111763 0.37553698 1.1969529
3.4210293 0.6606586 1.3746841
1.43568 2.0857244 -0.00031372477
0.37124905 0.052503146 1.1872873
1.593814 1.6462892 1.9858371
1.6351548 3.1622064 0.0069640204
1.1162766 0.20169285 1.7172105
0.14856097 0.01195288 0.5690642
0.63855231 0.0025503896 0.4791913
1.1368649 3.1945777 0.85093665
0.00046707288 1.7147791 1.243798
4.2144108 1.5011994 0.4791452
0.11907647 0.75416458 0.016706772
2.8755884 0.32567561 1.9917911
4.8876877 2.6996217 1.9883472
4.5551538 1.4910169 1.8309082
4.0083237 0.83561534 0.35762385
0.9947176 2.937885 -0.010994768
3.0865846 3.5143249 1.4117453
3.5630951 3.5769887 0.17917822
1.7929825 2.9406824 2.0013113
4.4003458 3.7307706 1.1257412
4.2497234 1.4891484 1.4199293
3.9254179 0.73923069 1.8603197
1.9525079 0.9266212 2.0042784
0.52813822 1.5416899 1.9876179
2.7442813 0.5181545 1.6395348
2.5571883 0.32606331 -0.0087344348
2.7826071 3.1197865 1.9990733
0.19651721 0.5711441 1.9756668
5.921442 3.9904211 1.1869845
0.013768189 1.0189303 1.1629553
4.1601505 3.6865494 1.9464813
0.095053814 2.9966288 1.216361
2.4344046 1.5402179 0.0055624102
5.4165931 2.5483248 1.7719536
2.5676367 3.432544 1.5337334
5.7044015 3.2920172 1.5686357
2.1140778 1.4471238 -0.014558676
2.5890982 2.9791784 2.0024483
3.1707118 -0.018942898 1.2874824
3.8933105 3.4334855 0.0017169404
5.4129753 2.5633135 0.14448406
0.71498775 1.4343541 0.0018849551
3.6010604 2.9954741 1.9955236
0.94588774 1.205436 -0.0098697282
0.0024144249 1.4991357 1.1394945
0.15048252 2.0336523 0.0050881524
3.5465107 1.9781927 -0.001696352
5.0882673 3.8241992 1.2012584
0.91337496 -0.0048689926 0.50062448
2.8635359 3.4799438 1.4619387
4.725122 3.808305 1.4373468
1.5034325 0.10965187 2.0156898
0.0060746414 1.364611 0.49249032
1.4707904 0.0052579315 0.40003625
1.6030318 3.2674942 1.7305448
1.6613612 1.9141951 1.9848518
1.9230555 0.0037502958 0.91382724
2.4967115 0.46908629 1.6519353
3.3861558 2.8452075 2.0026565
3.3092275 2.4193411 2.0065212
3.7353048 3.5691631 1.999964
2.6884911 3.331001 0.0029135498
2.5526538 0.47047886 1.2826684
5.9999766 4.0122838 0.6670289
2.0029407 0.55924571 0.011905149
5.2041039 3.5987778 0.0083199609
2.2345104 1.4209415 1.9922554
4.2341638 3.7143738 0.65750426
0.70236593 0.14074062 1.4871674
3.677789 1.2406642 2.0020888
0.036018096 0.008758733 0.74300766
4.0013895 1.1255677 0.56447077
0.021792328 1.3020154 1.7793266
2.8733635 3.4738979 0.059496768
2.2889495 0.41629982 1.1485537
-0.0067497012 1.8072124 0.3506341
1.5526247 0.31115016 1.803987
-0.017796902 1.4471942 0.80285275
2.2219985 0.0046575861 0.36616847
5.1206484 1.7924488 1.0038723
2.3853116 0.020256491 1.5875722
4.0012517 0.36746061 0.43726772
0.89445275 3.152072 0.43090311
0.0075168572 1.8187302 1.1429695
4.0040455 0.36403888 1.2370766
2.6244557 0.48545069 0.028623309
2.2804759 3.3826821 1.105575
3.3618636 3.5597427 1.3505515
2.8017685 1.8314118 2.0042021
3.9838679 0.41747645 0.56190318
3.2950182 3.5374124 0.53318638
1.4824893 0.36071998 1.99726
0.16171716 0.025246089 1.347683
5.0446687 1.6346258 1.2759757
4.3391676 3.6086564 2.0017869
2.5189126 0.0060286811 1.9056475
2.7888412 2.4573655 2.0165405
0.38867506 3.0556197 1.9642636
2.1589787 0.41844332 0.85103559
0.10917158 0.019310201 1.3973081
0.75212252 0.12315448 1.3139125
0.0096744122 2.6687632 0.017476011
2.0826821 0.0035320383 0.44551006
1.7662721 1.4823844 -0.021617444
5.2684169 3.8731699 0.98802936
3.3680992 1.0597996 2.0028367
3.91571 0.73882043 0.11018967
-0.019617284 0.91965562 0.68797499
4.5699878 3.4730833 0.029045504
3.3200269 0.22593531 -0.0049989242
2.8827579 2.1578419 1.9913396
1.1158946 2.2453392 1.9900323
-0.0027761736 2.3768687 0.67208308
2.6413987 -0.013343313 0.94224888
3.7870879 -0.0026334592 1.5491104
5.3136663 3.8698852 1.2975615
2.0095959 3.320147 0.82462275
4.0060802 2.6965415 0.0067545911
2.1385214 0.17279106 1.9829673
1.9926651 0.012283192 1.4553697
3.5464914 0.78393984 1.9930265
0.67669296 3.110465 1.4562756
1.9828473 0.37449518 0.49887288
1.3214768 0.23347266 1.3423185
1.6649586 3.253408 -0.0094307829
0.52773094 1.457072 2.0037358
0.45817384 3.0736625 1.4086417
2.4131525 -0.0086058257 1.083361
1.9293293 0.35301343 1.6677573
0.40620086 0.59468216 2.0022604
3.2217467 3.5424714 1.9635667
2.2685339 1.2639337 0.017495368
2.3191018 0.43853912 0.89340091
3.2588036 0.58192569 2.0049689
2.2881362 1.8085037 0.010181089
2.9155614 2.6397128 0.0059927967
5.1191149 1.8541613 0.65645111
2.8914971 0.54088044 0.18545608
3.4991541 3.5778255 1.8396642
5.493753 2.753608 1.6302164
0.21163185 0.042709745 0.24683736
2.7008846 3.4632413 0.91028178
0.319213 0.054118689 0.63396031
0.0048262654 0.63653749 0.36107486
4.3729582 3.2837441 -0.006036967
-0.024455104 0.1254791 1.3655308
3.9232256 1.2539107 1.9907259
2.7807331 0.012708089 1.817703
1.2260628 2.236762 1.9838588
3.6012113 0.82371747 1.9972914
5.0887604 1.8286455 -0.007988859
2.3000255 3.3950689 0.98807758
3.2921362 -0.0094857458 1.5066028
5.7630939 3.6127591 2.0020897
1.3181502 3.2259624 0.55456537
2.3047135 0.0043367911 -0.0062243934
-0.009835301 2.3673513 1.128566
2.0348592 0.55546641 1.996471
3.5050545 0.65674537 1.5019269
1.371835 0.26155382 0.048098013
0.54681939 3.0084736 -0.0068082046
1.3608409 1.5999106 0.00051293575
2.5285797 -0.0060916864 1.3711648
0.36815211 1.8748326 0.0041354699
1.2655737 1.2490277 0.0016429416
1.9694525 0.36882132 0.78395712
3.063297 0.56257826 0.20211102
1.1156508 3.1002407 -0.0067438618
4.0123568 0.50915116 1.2091523
3.0461051 2.9046156 2.0036838
1.2543299 3.2180068 0.98145562
4.1009936 2.0361097 2.017051
2.6046233 1.3854604 -0.0025793477
2.6399899 3.4442043 1.9587598
2.5369797 3.4245183 1.6370165
4.5585599 1.6765912 1.995772
4.9637084 3.1189773 -0.010304408
0.69569069 -0.017251037 1.7133981
-0.013546992 2.2293789 0.56781489
5.1988692 2.0274007 -0.0044875946
2.9638088 3.4657261 1.6059812
5.3019838 3.8846161 0.35988232
-0.0046665315 2.6156344 0.67803127
4.7461739 2.8911357 0.0058740941
2.600769 1.2280582 1.9883418
2.3818598 0.19634841 2.0116665
3.9947629 0.91975248 1.5378447
4.4869204 3.7432868 1.336428
4.3243589 1.4877923 0.71742982
1.8703922 0.34167573 1.5394551
0.010859804 0.44204351 0.97636545
1.9622312 0.0052849124 0.0027944185
0.1536786 0.0051332074 1.4653829
4.0208988 1.1437994 1.1164025
1.5079026 3.2649946 0.025113508
5.9381566 3.8151054 1.7889793
2.3591416 3.3972495 0.039389521
0.59002388 2.0140584 0.014304817
0.0021866783 1.1371456 0.078316271
2.7258251 3.4469664 0.45003003
0.87129819 0.0071239593 1.8059884
3.8199966 0.80095762 2.0052474
0.12430114 0.031901374 0.98500836
0.33094755 0.0043844134 1.8073163
5.9104409 3.8339725 1.9132683
1.534878 0.28199843 0.72729915
0.25981891 0.056906264 0.015243146
2.9938722 0.029738938 0.0065783137
0.26483142 3.0492258 0.54670376
5.7214227 3.2509649 1.0812056
2.2076621 3.1345184 1.9924488
2.0323908 -0.018495178 0.76988363
4.002912 0.6842469 0.36882317
1.6135813 2.7963531 -0.017640471
2.1266205 -0.010729029 0.1156815
4.3438845 1.7406793 -0.0053805392
3.8376608 0.010022356 0.47240058
1.4741124 2.6995757 -0.0017000006
3.0914958 3.2050614 1.9974346
5.5168037 2.8196342 1.853218
3.8904829 0.7327736 0.63241678
2.2454369 0.36910081 1.9896165
0.64221519 3.1182084 0.12441881
1.8457884 3.0200565 -0.0067489878
4.0138373 3.1597033 -0.0071685803
2.6371582 0.48168334 0.17163625
4.0833745 1.4797407 0.82774901
0.46208155 -0.010203622 0.42677867
4.7235918 3.796593 0.1018452
0.61236459 3.0922918 2.0074768
2.1044683 0.39970127 1.3685216
2.1223831 2.0669088 0.0029803363
0.41922963 1.4470723 0.0050147269
4.9051518 1.5081846 1.3731164
5.2521501 2.144984 0.049999621
3.1911836 1.943072 1.9878938
0.0036908498 1.810549 0.038376231
1.0011029 2.8745921 0.0038711079
3.6516838 2.8719721 0.012124552
1.8422407 3.3103249 1.7665668
2.3021245 0.41667694 1.6163878
3.3628671 3.0238593 2.0071507
1.5604452 -0.0066655856 0.48119649
3.1058447 0.0015553881 0.66740865
1.1627632 1.4847683 2.002285
5.3129668 2.2570837 0.34949809
1.8390291 3.3075361 1.031933
2.0594578 2.4679372 0.010135354
1.5567385 0.0072182827 1.4932679
3.9955547 0.56085849 0.31699094
4.4193668 3.4616404 1.9919565
2.4173622 1.0484208 -0.0092596449
1.8198606 0.10578948 2.0085099
5.169178 3.8495059 1.2635425
-0.015510091 1.4128948 1.7685801
2.6335392 0.53301233 -0.0033796199
1.6961625 0.46957624 2.0175576
1.184504 0.21236376 1.8031604
-0.0029249659 2.369005 0.70079869
-0.010482189 0.14634804 0.26170722
1.6499043 0.29884461 0.11286874
0.0040446753 1.2500095 1.4272159
1.3954357 0.016364103 0.20863774
4.2093654 1.5037237 0.5101403
2.1388621 2.6401803 1.9899822
5.3053064 2.2967796 0.94337428
2.1518033 2.5758545 0.0049779401
2.663342 0.52297735 0.87769711
4.4232202 3.6153445 0.019855216
5.4156628 2.5980852 2.0141053
-0.012590243 1.3609334 0.53996491
4.0036621 0.88840401 0.67870021
1.6852832 2.2584989 -0.0094016902
4.9186053 3.7541671 0.010839195
0.77435243 0.14537142 0.6392706
3.0597603 0.5708003 1.4932679
0.0093345586 0.72854 1.6562554
0.41239923 0.062313501 1.0216717
3.9603791 3.6547832 0.60558259
4.630724 2.7277701 -0.0016501873
4.4618111 2.0735898 0.01028172
2.1847668 2.790488 -0.021056755
-0.0072708926 1.1324941 0.15357481
4.4442592 3.7489479 0.074817926
2.0932477 3.3506 1.7524617
3.7582974 0.98453796 0.0049354821
0.00084486924 2.1734145 0.57752353
0.002902041 1.9060912 1.5175983
4.4423704 3.0651174 2.0107491
0.013979817 2.0317609 2.0111496
3.8226292 1.4503936 0.0081761247
4.6093416 3.2384202 2.0101573
3.0003345 2.6281431 0.00073913706
2.2869263 0.015330761 0.16378717
0.93004692 3.164264 0.51499701
3.3409719 -0.018585417 1.4927927
5.5753002 2.9561892 0.34780493
0.014731468 1.5014412 1.3021284
2.2531559 0.43317246 1.9862802
4.8608189 1.972504 1.9981006
4.9329348 3.641463 2.0016496
-0.00071841694 0.33137837 0.82499462
0.07009384 1.4635671 1.9990205
0.24811652 0.062434684 0.48756808
3.010478 -0.018580392 0.91301149
1.7696873 0.50186557 -0.0043909405
4.524334 2.7078133 -0.001773237
0.3337698 2.4620814 -0.0088708159
3.5414889 0.66181743 0.92059034
2.8720582 0.53529167 0.7973702
2.6560967 3.4516459 0.3454648
0.13689986 -0.0063794772 0.2673113
3.0882139 1.2031009 2.0006642
2.1044712 0.96940583 1.9961605
2.3470461 3.3936377 1.9334327
0.95801497 0.18461886 1.1385051
2.6364253 2.2996013 2.0087705
0.26054838 2.5401878 -0.0020212422
2.3849328 0.45941204 1.8819515
-0.00010117286 2.1012206 0.49666381
-0.015907086 2.8319495 1.1006584
3.3636115 0.6160484 1.4784889
2.600281 -0.018974124 0.2578814
3.4191506 2.3674624 0.0037124329
0.58818173 0.098374948 0.63235694
5.1681418 3.2577395 1.9904808
5.476099 2.695044 0.67323941
3.3051779 -0.019909346 1.2871578
1.3808641 -0.005362079 1.6909487
3.6542747 3.3782077 2.0073314
0.020516796 -0.010366302 1.8923706
3.8426237 -0.0067501371 1.0272862
3.319416 3.5431654 -0.021492608
2.6455412 2.9112108 0.0050008451
0.81051463 3.1216147 0.26245371
2.5977778 3.4348001 0.55236489
2.3340282 0.44337657 1.9502037
2.0021522 3.3479424 0.90113527
0.014053914 0.37816298 0.95536894
4.883945 2.7673314 0.0025946195
3.6700649 3.6061256 0.064940579
1.3535652 0.22092873 1.2490909
4.1233454 3.6950729 1.6769968
4.0106497 0.33967686 0.56743604
5.2368832 2.0788002 0.080062032
1.7298273 3.3025317 1.6769953
1.5142324 -0.014137349 0.91770506
5.2303414 2.0835316 1.9294307
0.85394514 2.243818 -0.00050941494
5.8620901 3.998282 1.071309
1.5541401 0.00067583646 1.1677366
5.6370068 3.0542483 0.90698403
1.6762381 0.31287655 1.9959761
2.4702373 0.44816473 0.21444924
2.5626769 2.3346813 0.0098303473
1.0364084 0.45187905 2.0143924
3.0748599 3.4979384 -4.0335886e-05
-0.00091034028 0.17647851 0.36960611
2.3862555 2.1481712 1.9845006
3.2908106 0.61790794 1.3716863
0.93577993 2.4153476 1.9988928
5.0848823 3.1493011 2.0118167
2.0614877 1.3111881 -0.0030729729
0.0034620778 2.7318833 1.998028
2.4814031 0.0078364955 1.201182
0.21888153 0.0043715029 1.7970442
5.8192163 3.5863929 -0.00050802762
-0.0085595278 0.059083618 0.7465263
0.6717549 2.1399593 1.9913607
1.605383 -0.0079751015 1.6672472
5.7970481 3.5100782 0.8965525
2.3673596 2.9601252 0.000951925
0.47194278 -0.0040000714 1.0009748
3.0983541 1.3600858 -0.0024611037
3.5069025 3.5400343 1.9979678
2.6263568 0.87638599 1.997466
1.7198558 0.0052611316 0.34429243
3.9932914 1.2209342 0.82428706
0.0027947917 1.1319357 0.42798993
2.9868267 -0.016734559 1.2377577
4.0171237 1.3204373 0.63307667
4.8972054 2.3644454 2.0069368
1.8435062 0.9057008 -0.0090996474
1.5540909 0.47025758 2.0011983
3.1295133 2.6473007 -0.011474082
3.265017 0.88775104 1.998469
2.7975876 -0.0039282171 1.324494
5.4973574 2.7176263 0.6162824
4.4624672 3.7350252 1.9832667
3.2323706 1.0003718 1.9913319
1.5558019 1.7513932 -0.0015917687
0.60296696 2.2636969 0.013865341
1.9046059 0.36544639 0.74798989
2.2998903 2.416384 2.0111239
1.3877785 1.2688676 2.0023017
4.9582472 3.8320563 1.0286412
1.4221652 1.1707768 2.0146592
0.1509213 0.54881334 1.9986689
1.7984481 1.2180026 -0.0044862214
4.1834369 1.4953902 0.96071368
4.0015359 0.035770942 0.60073084
1.0830876 1.5709881 0.006852312
0.8699497 1.3136355 0.020772764
5.8254366 3.976949 0.65335965
3.9959257 1.1940321 0.45930007
2.0067112 1.9220086 0.0025031888
0.44355524 2.8936965 -0.016954826
4.9321365 1.5031353 0.12431468
1.0266395 1.324708 2.0006211
0.99430919 3.1832426 1.0357075
5.1349163 1.8607378 0.4296551
-0.009044962 1.8091726 0.20014712
4.0563369 2.0115452 0.014055064
0.008122988 2.7101982 1.3366159
3.6790943 -0.0023511741 1.169639
1.5886626 3.2610936 1.6892693
1.4545282 3.2513077 0.50316596
4.6493392 3.755532 0.65914959
-0.028365443 2.2559774 1.2270237
2.3318424 3.3774638 0.89234799
5.4963179 3.9155047 0.39498633
4.7770391 3.7879832 1.1710395
0.002522246 1.9612626 0.587825
2.1979434 1.5981935 0.0017944006
1.0895369 3.1884127 1.1847448
0.79288638 1.6430907 -0.0095925583
1.6409649 -0.0043489062 1.8304957
0.015979018 0.76318491 1.7257404
1.7544273 1.3150492 2.0136132
0.0048272316 1.5888458 1.202453
3.6173899 3.5941062 0.04380247
5.4785295 3.9285018 1.7065063
2.0393791 -0.0057578268 0.87230074
5.2843542 2.1858251 0.070904806
1.5658436 2.7324958 -0.030480873
1.5261626 0.0051363856 1.6106361
3.19262 0.61572284 1.3600047
0.64089727 3.0967557 0.8087979
4.6702342 2.7284074 2.0028844
3.9951138 1.5072036 1.7121521
0.96013743 0.24429351 2.0040503
4.0011721 0.17088011 1.5378914
2.3549354 3.3870614 0.79700178
0.82209367 3.1278832 1.9358548
4.0055857 0.55740678 1.4346218
2.0362029 0.38202024 1.9037384
3.9936228 0.32442144 0.11346069
3.4586923 0.67567837 0.0063761724
3.4302206 1.2958041 2.0036008
3.1768348 0.010054238 1.5629995
3.4734576 0.64618355 0.62840015
2.2236149 0.41671494 -0.0050441236
3.5485442 -0.0011143765 1.4626446
2.6953933 3.4621556 0.22845793
4.7204762 3.0979304 -0.00012304202
4.0084572 0.51870906 0.25052631
5.5300231 2.7777743 1.084527
2.1809537 0.030035667 -0.0008487851
4.6237264 3.7033823 1.9905463
1.4103132 0.001703016 1.176392
0.0025880439 1.170992 0.48011631
1.7128655 3.0348151 -0.018219152
5.4464769 3.2551379 -0.00068510423
5.6784124 3.9348488 0.36013934
1.6227139 0.29106978 1.3594682
2.0073178 0.1939 2.0111129
1.5623356 0.081776477 -0.00054118375
2.5482101 0.43620598 0.0070540244
3.1669352 0.60337496 0.87841904
-0.0017292727 2.9308593 0.11016277
5.1480603 3.8517838 0.71026838
3.402216 0.63992304 1.1136855
5.8530345 3.9710522 1.2062685
3.9990506 0.28911972 1.4441897
0.27457574 3.0394864 0.31921732
3.0295956 2.3555784 1.9913168
1.8647832 0.33619708 0.084951155
2.3448935 0.011897967 1.3347026
3.4118412 1.2388161 2.0036423
3.278373 0.0044099167 1.6645371
0.021120688 -0.013988518 0.535016
0.014113065 0.81180102 1.1890501
5.7007365 3.433516 0.0040649013
5.1045737 3.8548887 0.83362663
1.9955539 0.364384 1.40991
4.9376135 1.5564649 2.0111217
2.741708 3.9633589e-05 0.76466507
1.9894024 1.1864877 1.9759279
3.2482567 3.5499973 0.16340849
0.013545911 2.0195966 0.96850461
3.3541644 2.1550436 0.0013385876
3.2677472 1.3649969 0.019995613
1.1607162 2.5143323 2.0057514
2.1559207 2.0805674 0.013847782
0.41705933 2.6141722 2.0090308
4.2183895 3.6892037 1.90001
-0.015322773 1.9092857 0.69890422
1.4482504 3.2340825 0.60806286
5.1070995 3.8447146 0.57031733
5.1951618 3.0969834 1.9957218
2.5971138 2.3282485 -0.019719522
2.6230252 -0.003200138 0.14932561
5.2661047 2.1885996 0.46797946
3.0548584 2.4222739 -0.011083897
4.0230045 1.2080631 1.6840498
5.5292249 2.837745 -0.00098367478
3.8749871 0.00020848219 1.9043977
4.6938305 1.5015444 1.3384131
-0.0010984781 0.58442849 0.90958339
4.8250256 1.5048749 1.5506395
-0.0065442803 2.9476743 0.050174139
3.7910922 3.3518529 1.9746494
5.6093435 2.962096 1.7345523
4.4377103 2.196923 2.0001235
1.9789879 -0.018203763 0.28486457
4.5813327 3.0450721 0.015517791
3.7389367 0.7088517 1.1164176
-0.0049436195 1.3260502 0.030805891
0.90733737 2.5122056 2.0023999
5.4197817 2.6455154 0.009201101
2.1936884 1.6718569 1.977659
3.6411676 2.2622795 1.9967995
1.1711968 2.0823505 2.0206513
-0.013405424 2.7492344 0.90534842
2.2906005 -0.017494015 1.3804758
0.22151034 0.047652457 0.2847628
4.0046873 0.47368506 0.58165419
3.0143399 0.55870152 0.59049696
3.828109 2.9663599 1.9830494
2.1709406 2.9222739 -0.0064487429
0.8777163 0.29310471 1.9992691
0.79298156 -0.018153694 0.98364657
2.3239443 0.93763459 -0.0020098237
4.8452539 2.3863881 0.014359686
4.7167349 1.9424928 0.0013046699
5.487855 3.9072134 1.6103089
1.4372596 0.48052523 -0.01524103
2.9644611 3.4947009 0.84524632
4.7604494 1.5018437 1.6165622
1.4010884 3.2249188 1.7508354
5.1880445 1.9995043 0.76412219
2.6253984 0.50183171 0.88566083
1.5472804 1.9923998 0.0028134331
0.47410837 0.90790105 1.9956926
3.261147 3.251302 1.992563
-0.011407611 1.2098067 1.2124137
2.5688291 1.8229319 2.0053232
3.9409149 1.7591507 -0.0064352122
5.9179082 3.745373 1.0246625
1.1140776 3.0655239 0.0011089112
1.9353203 3.3263347 0.57828981
4.6415625 1.7990054 2.0032275
1.1239911 0.0050363657 0.54465419
-0.02247389 1.1339351 1.1378837
4.238925 1.4976736 1.9758149
2.7297945 3.4695561 0.40195844
3.4799068 3.5781691 1.038765
3.8501182 2.9930286 -0.011003429
5.3053885 3.7820895 2.0022793
2.0354104 0.38637552 1.3319435
2.1477761 0.27728972 1.9963709
2.6393342 -0.00074707012 0.39040327
5.3213105 3.4490983 -0.014132435
-0.0032887158 2.9690957 1.5582916
2.3444331 -0.0011757297 1.8815287
0.20691472 -0.0082715182 0.67497796
1.4465593 0.24829231 0.01344985
0.94828576 2.6957755 0.0033058545
2.3591897 1.9214313 -0.0086348392
4.3089805 3.7356226 1.4930235
4.9158406 1.4934794 0.53527206
3.1552119 3.5262389 0.10295338
0.0072893756 1.4701234 1.7329983
1.629118 0.015217754 0.48660332
5.9137845 3.7735751 1.8316599
4.8939824 2.4669533 0.0015138353
5.2581091 3.7134104 2.0055292
4.0125589 0.59973931 0.05085611
2.1176901 3.3338237 0.0048937118
4.1975279 1.7238418 1.9801016
2.999465 1.0098296 -0.0095198452
1.116577 2.3399072 0.012243156
3.1509559 1.1325784 -0.0010726524
2.7722962 0.53347093 1.4096189
2.0382354 1.9294108 1.9782583
0.69420093 3.1162946 1.1930287
3.594569 -0.0055360878 0.68996036
3.6382031 2.8918262 -0.010152291
4.2574968 1.6650118 1.9983789
3.0693681 3.4845304 1.5885881
2.0098922 0.099977441 0.0029463079
4.7186852 3.3878205 0.0068121199
2.2985344 2.3668685 2.0176337
3.6456656 -0.0035270646 0.21040402
5.0627942 2.513746 0.01480236
-0.0073000412 2.4738629 0.84477073
1.8390533 -0.0032106701 0.80746168
2.8038893 1.8402551 0.0032288078
3.1853285 3.5263801 1.6757469
5.0606027 2.5591924 0.0038006739
1.7327491 3.2777894 1.3764304
1.3120966 2.5327663 2.0064352
0.12869039 2.72364 -0.0075912606
0.13798316 -0.026496748 1.7705908
0.99876899 -0.01065611 1.2041203
0.30787173 0.042248808 1.1580433
3.1525259 0.72333199 -0.0097201355
2.35939 1.002123 -0.0076414412
1.7952933 2.1779771 1.9974377
5.1838236 2.0029621 1.8324986
-0.010788697 1.7499819 1.1704609
4.489934 3.238111 -0.0051327995
5.018754 1.5201131 0.83912402
0.87822503 3.1487598 0.62077069
0.0032841293 1.1902093 0.62022978
0.43519133 1.5620753 -7.4279019e-06
5.2129803 2.0193794 1.743395
6.0013347 3.9423027 0.50834239
1.7557971 1.5680428 2.0139792
2.6916659 1.0829672 0.0044959541
5.3158665 2.3318083 1.9455009
1.8938814 3.1872602 0.010829589
3.7662005 0.32814372 1.9903013
3.8687754 0.74017251 1.9688599
1.7447873 3.2772388 1.8274657
2.601208 0.16524622 -0.020570498
0.9486481 3.1510727 0.060523476
5.4306521 2.5689149 1.4856681
2.6809475 0.3942405 1.9929415
0.010700068 0.51147574 0.78654367
5.9927034 3.9218979 0.10936088
0.089844577 3.0103571 1.5247291
3.0161202 3.0992165 -0.012959342
3.2193127 3.5414052 1.6782357
2.7695465 0.0047609191 1.9254571
3.7637515 0.99201167 2.0090399
-0.00020965516 1.4235121 1.4255873
1.9648737 3.3353796 0.61246663
4.299767 3.7144887 0.82782626
3.5056889 -0.0049351947 1.1385794
2.7471676 1.0307642 1.9873366
5.8959193 3.7082665 1.8204482
0.57433701 1.7930754 1.9826708
3.5548308 0.28416696 -0.018016331
5.2174506 2.0199475 1.0408521
5.7648048 3.4389932 0.90204287
5.0100584 3.8275113 1.5518194
3.1812654 -0.016643129 0.94969326
2.4777017 0.46463573 0.61517972
2.1487603 -0.0022001038 0.30836484
4.593873 3.3939593 1.9993719
0.22375017 1.8344861 0.012085971
4.0015464 1.4488169 1.2097913
4.4113517 2.1231828 2.0085137
0.55841404 0.92048943 -0.0091069983
3.0698962 0.70903802 -0.0074083409
0.89040381 0.0042082155 0.59423029
0.47336704 0.54371542 0.028267821
0.0036736361 2.7923763 1.5340323
0.0051342687 2.9391923 0.13370068
-0.012581572 0.82295507 0.31130412
0.66244549 2.2017856 1.9996992
2.0438752 -0.0079810964 1.6571227
0.93947905 1.5231321 -0.012641655
3.2623508 3.2566051 0.010888411
0.887707 0.99600154 2.015115
2.5404227 0.49010152 0.54118884
3.8628457 0.62826043 2.0053496
2.7211893 0.51104099 1.8199999
5.0802402 2.9216607 1.9958616
4.0199881 1.449092 1.4388028
1.9665631 0.38066357 1.220113
1.4698579 3.237056 0.39833581
0.38966027 1.7770112 0.0067544444
1.8709664 0.35305378 0.70946258
3.9988494 1.177176 1.7957398
3.7496953 -0.022695621 1.7716624
0.16379733 0.044459801 1.2607583
2.4105597 0.76295066 0.01244769
0.53338146 0.0028622104 0.62548542
3.1129801 0.56636447 0.52805847
5.5236516 2.8265958 0.96334589
0.57802653 0.11754781 1.1661015
3.4553921 0.0032482096 1.7977481
0.22943768 2.6722295 1.9984651
2.9145911 -0.01509882 1.9861273
0.76145631 2.2850268 2.0036428
3.9947329 0.75266069 0.73775655
0.21278629 0.060178544 1.781906
1.3475894 0.24525419 0.34560445
4.9536386 2.6296906 0.0016658533
0.74007136 3.1247592 1.334534
3.3044477 2.6507518 1.9840252
-0.0093501685 1.9025145 1.4773599
-0.0020355601 2.03157 0.84530979
5.0314198 2.426331 1.995685
5.7653141 3.4226396 1.914542
3.1604514 1.7851074 1.9895399
4.5711417 1.4991745 1.369892
5.0824785 1.7103728 1.5821209
4.4679589 1.5094321 1.8386601
1.7014546 3.1044757 0.00021242558
3.7673905 2.3251648 2.0125031
0.82164717 0.19268084 -0.0083054993
3.0506027 2.0030787 2.011076
0.020248445 1.6429807 0.35433391
1.5796669 1.8072916 -0.0054154457
4.0181842 1.360788 0.049784888
2.8729112 3.4866154 0.27078041
0.93621999 3.1540594 1.1248362
5.2005978 2.0145605 0.51562279
0.088451378 0.019644657 0.71179187
2.4783249 -0.0014123922 1.5880436
4.1342793 2.7480934 1.9783427
4.0010991 0.80989093 0.59862345
2.7224152 0.85042083 -0.003533744
1.5342877 -0.0046544638 0.2137771
1.7592659 0.49821234 0.014238389
5.0124726 2.7613404 2.0031455
5.8198209 3.7777159 2.0059016
5.4285045 2.5815473 1.5247407
2.1269331 2.0401299 -0.0040231156
1.8088851 0.35580745 1.8757261
1.2130543 -0.0036251794 0.75280565
2.4351745 2.5125542 0.0088794623
0.64783281 1.6510609 1.988436
3.8646183 0.80484235 1.9859704
3.9984062 0.91621995 1.851485
3.3169532 1.4443196 1.9932876
2.300385 1.5295281 2.0006168
4.3226523 1.5002215 1.3586575
2.7326121 0.50728726 0.89422792
4.778933 3.7846806 1.1956128
3.0360298 0.67625231 0.0097195022
5.9085975 3.8047276 0.77479249
1.2751355 0.0083626276 0.19296136
2.8774219 3.1648483 1.9988611
4.3134904 3.7029107 1.3537928
3.5123949 0.28143677 1.9870427
3.1439497 3.5209606 0.49654353
2.8592956 1.0178167 2.0145388
3.5037661 3.5942473 0.53521788
1.6400918 3.1932669 2.0036433
2.9013095 0.0036417716 1.2285382
1.1898522 -0.015941422 0.88926762
2.561425 3.4341955 0.074955367
0.7949096 0.15927996 0.31630445
0.056208421 2.7747195 0.027283352
1.7194846 0.34095439 0.0015295964
1.6733704 0.30573824 0.81648731
4.0048008 1.3194017 1.2038513
5.8555665 3.6467586 1.6999524
3.9630053 0.2134233 -0.003048114
0.53498322 0.50043517 -0.0056379982
3.9975085 0.076497234 0.45740673
2.0273697 2.0441787 2.0076766
0.2157921 0.032606464 0.62066007
3.9694679 1.1789253 1.9891425
2.2266493 1.6164036 -0.0050083599
1.9891741 0.011154533 0.59907305
0.65010905 0.11760781 0.80878776
2.3632872 0.065136656 0.0047227489
4.2929111 1.6445026 2.0056701
1.5957091 0.31204003 0.5874812
0.2279381 0.013594148 2.0010841
1.9036596 1.4080431 1.9977989
5.5422659 3.8404469 0.0049725086
3.7189093 3.2274537 -0.0086266128
3.833389 3.6339426 0.47892609
1.6653712 0.041738696 2.0047708
4.7846594 3.4771571 2.0020139
3.9850855 0.73254633 1.1439549
3.311408 2.6450727 2.0032406
1.8832957 2.5923481 0.0032337464
2.7772436 -0.0053324471 1.1485989
3.4099298 3.2359879 1.9981039
1.7316003 1.7797523 1.983029
2.4751539 2.821605 2.0015814
5.4817905 2.7472076 1.1817994
4.7575202 3.8036001 0.67991853
5.0513449 2.0311081 -0.0053114034
0.25726128 3.0403049 0.81641132
1.0483041 1.4935749 2.0066442
2.946728 0.54833061 1.4961897
0.96307331 0.00010565746 0.035997983
0.30387363 3.032383 -0.0043470571
4.3826342 1.5062803 0.31746814
2.4267433 1.6751857 -0.0026610168
5.3110356 2.2351255 1.8283614
5.5052257 3.9288611 0.18430026
2.7942021 0.0079148412 0.80920684
0.48158956 0.054647453 0.00488086
1.720715 3.2281346 2.0019679
1.8398035 0.34926209 0.41914928
3.8623455 3.6428192 1.2623543
0.14874987 1.5722814 2.0127919
3.3984456 0.8174392 1.9951301
1.2788255 3.2210524 1.4686751
4.9766316 1.8411579 0.00057443755
0.71366364 2.6546919 1.9991634
5.3956728 3.8976152 1.3531564
3.2228916 1.1854908 2.009613
0.011344324 0.67069668 0.79077041
3.6822264 2.9490483 0.0085800244
1.4545555 0.73522717 2.0021253
0.60226053 2.5734065 2.0161669
3.0869153 2.0700393 1.9992591
1.9067889 3.3082473 1.3581548
4.9220972 3.813489 0.71736544
0.0095780697 1.415939 1.519405
1.3942609 3.2321813 0.53642535
4.8857832 1.5039212 1.4867699
4.3373218 1.4936198 0.045463547
5.4220257 2.5489969 0.70769382
0.6672619 0.0071176854 0.78475505
0.87667942 0.0094086677 1.0909988
2.4269488 0.4467617 0.69683999
3.598129 0.67079401 0.64386559
4.5537481 3.4122176 0.01482447
4.3559351 3.7338114 0.52558929
4.4770546 3.7452726 1.0120273
2.9531758 -0.017212613 1.193612
5.6265659 3.0443599 1.0313257
1.3862231 -0.012100323 0.58300954
3.2534084 0.61572212 1.8168525
3.4224174 0.00052783341 0.12962084
3.894506 -0.01616261 1.1918519
2.2550375 2.1906419 -0.0048477147
5.24299 2.488446 2.0087979
0.012968582 0.17841995 1.984798
-0.0026363996 1.6512882 0.73582453
2.7670562 0.017900208 1.9176283
3.6425579 2.8930068 1.9914536
1.5736057 0.81591475 2.0200789
4.5806179 2.8062191 2.0083258
0.50665736 0.33277309 1.9873859
2.4900014 -0.0018206035 0.98765284
-0.012182524 1.5593011 1.3474138
1.3938191 0.27128732 1.9806551
-0.018460751 0.80346125 1.3519487
1.195282 0.10598997 2.0059853
3.2681155 1.5001858 2.0029585
0.0091337301 2.3824358 0.92915648
2.0620422 0.55526078 2.0072176
4.1616898 1.4982824 0.050263632
0.8495968 0.17268844 1.8163272
2.7193182 0.33297622 -0.0096838269
1.3090963 1.5689363 -0.01522015
2.7937737 0.012294698 0.1906119
-0.0062638833 1.4953815 1.3217566
0.52408147 -0.0064291698 0.74725854
1.2838145 0.0018077944 0.40523329
0.0028325848 2.602881 0.56206429
4.006928 0.14981177 1.6578079
3.9987948 0.40828192 1.0640675
0.012732286 1.9793172 0.54989576
-0.016172534 1.3919108 1.0912874
2.6132948 0.45866501 0.016965695
3.8980839 3.1242876 0.00069757091
1.4833802 0.71114504 1.9953907
3.0992572 0.81664145 0.0028421211
4.6445417 2.0232377 1.990728
0.0030728301 0.35241362 1.677687
1.6563615 0.061000895 0.010667407
5.973062 3.9958341 1.25798
2.1210146 0.0022043684 0.3571372
3.9888289 2.5114424 0.0011020656
3.9792299 0.42668962 0.49337015
0.31232941 1.2506933 -0.025666317
2.6227765 0.48519498 0.092757732
2.6841154 0.014100397 1.9713074
2.1283114 -0.0093328254 1.1721324
0.62711656 0.11951171 1.6058948
0.061866425 3.0029058 0.55365872
-0.012347653 0.095661893 1.1707945
0.14458169 0.076741874 0.00084184093
2.5750954 3.4416707 1.3910774
-0.0026636238 2.5501499 1.7408721
0.26232198 0.0060972976 1.7732873
5.7714152 3.9606047 1.7350287
0.23490626 0.06140729 1.622786
1.6534429 -0.0075975861 1.0638868
0.97248262 3.1763878 1.9317336
2.3109407 3.3831279 1.2041676
1.6881636 0.29485464 0.0026915108
3.6106431 2.1176074 2.0034792
0.60315555 0.12229621 0.28361124
2.6824088 2.8261685 2.0029709
4.8002524 1.4992604 0.54537016
3.5096166 3.0379999 0.0013777415
-0.012875188 1.4303218 1.3258501
0.29482013 2.2195957 2.0057261
3.9947195 0.11760893 0.46097416
1.4262319 2.5804586 2.0066183
2.9189093 3.4776323 0.33005047
5.368917 3.7443554 1.9890903
2.2127533 0.0089378739 0.51711893
2.5291815 3.4161127 1.902452
3.2847891 -0.0083849747 0.26294971
0.2641212 0.043831717 1.6081959
1.0659935 1.3865314 -0.0098500699
3.119494 0.46462137 1.9940898
2.2793601 0.17023925 -3.6594083e-05
4.0088496 0.67234367 0.8842445
3.2282307 1.3904241 1.9884968
5.0408301 1.587716 1.7797705
4.4955797 2.9432445 2.0132036
4.0174689 1.0182226 1.2857542
5.4695868 2.6557603 0.89307159
0.0076787909 2.126163 0.949525
5.4451084 2.6616127 0.11411287
2.3739109 0.44295162 0.15279721
5.0060644 1.5253227 1.407775
4.4157467 3.0086389 1.9921725
2.7209687 0.64247662 2.014703
2.6465013 0.49560282 1.8714787
5.1780257 1.9091747 0.13555706
2.8281214 2.5675373 -0.0042121531
4.5336189 1.5060232 1.619239
1.6381738 0.01490548 1.9730357
0.41643021 2.7056992 0.0029820402
5.0117102 1.8481658 1.9946729
5.7325058 3.3061659 1.0602227
2.733732 1.5258073 2.0190959
0.76379752 1.0993996 -0.010142021
0.98023278 0.16285205 1.9862757
0.84334695 0.0040527838 1.4186347
0.31937537 2.1223638 4.9135298e-05
0.81518942 2.3946514 0.0062853028
4.5476351 2.0939274 0.0072003081
0.42675003 3.0925221 0.04559144
3.4187577 3.5603821 1.7829924
4.0077009 0.45612693 0.62976038
2.0128758 0.3690553 1.2450254
3.198252 -0.019591924 0.055382673
0.03116055 1.4606031 -0.0091782659
5.9090285 3.7693756 0.54000324
3.9995937 0.97179276 0.19635181
0.84007424 0.14922483 1.5262483
2.2199726 0.4256041 1.1973799
4.0834656 2.975698 0.0090781441
3.2267804 1.6830267 1.9843313
1.4527647 0.17237592 2.0079226
4.9059663 1.8216556 0.0017614118
0.31604916 -0.017742261 1.8920274
3.6148207 2.6029789 1.9796853
3.4133272 3.3294039 0.005111889
-0.011085025 1.8071556 0.2105304
2.3455012 3.3937669 1.350585
5.6215301 3.0255687 1.5033472
4.7374001 3.7899532 1.0975785
3.1780243 3.5263116 1.0184165
0.99749875 -0.010630927 0.57682633
2.3382232 0.41402116 0.02287177
1.9644101 3.3204045 -0.010614341
3.5184577 2.8775406 -0.010789773
4.4572077 1.5040289 0.25945452
1.1815344 0.9102273 1.999377
0.0041376059 2.335017 1.1537782
0.16796571 2.6115448 0.010857303
1.0550995 0.20165487 1.6446893
2.0072787 3.3378007 0.16593108
2.7484319 0.52371657 1.3340333
2.1287515 0.10340694 2.0040193
0.47618598 3.0746024 0.88906538
-0.010049078 2.4460542 1.134395
0.2743794 0.051917233 0.091997564
2.6852732 0.016942281 1.1260376
0.0006623735 2.2821007 1.3770982
1.341849 0.63590634 0.019771064
1.1399786 0.19703837 1.5557711
5.9479623 3.8797615 0.63671762
2.7030513 -0.013507131 0.22427244
0.7487362 3.1227186 1.6313853
0.92922664 0.0047485889 0.28793347
2.9723604 0.60774815 2.0026703
1.6069717 3.2880001 1.2479109
0.89915723 0.010362397 1.0166397
2.5511346 3.4025292 0.19113874
3.1045685 1.0739598 2.0034621
1.9879229 0.37583926 0.34801492
2.9967124 0.17687885 0.011816313
2.2791207 1.6235853 1.9965838
1.6848065 3.2078071 -0.016127484
0.91182095 0.17169209 1.0591249
3.8470445 -0.011643634 0.45273644
1.2197219 2.3580661 2.0037467
4.5129366 1.4991677 0.71568954
0.5330193 3.0976086 0.28745604
0.0019066751 0.2868365 1.859936
1.498897 1.3825296 1.9906332
2.6008835 0.3792448 2.0058002
4.9519939 1.5114403 1.0338321
2.5657892 2.8438947 2.0095041
4.1839099 2.9007478 -0.015564983
0.3888016 -0.0072701294 0.92413425
5.7265244 3.2944653 1.3354292
3.5293925 0.6734885 0.94576812
3.7361205 3.6263309 0.52290869
2.7026291 0.60753334 2.0035906
1.0269303 1.7065083 2.0041296
1.443217 3.2456832 1.0925419
4.9801569 1.744657 0.010157245
3.7014606 0.25512916 1.9886612
-0.0048075467 2.7623072 0.53676021
2.1024032 2.5530846 1.999511
5.0815387 2.5023794 -0.0098448154
5.6933174 3.9498329 0.76702517
3.4964802 1.9129624 -0.0065146396
2.2149851 1.386272 2.0056102
1.4359587 3.221477 1.3092182
-0.01455817 1.0492302 1.4747399
2.6023729 3.4305062 1.9035308
4.8043308 3.7158267 1.9931045
1.9541348 0.5453468 2.0073218
2.6189883 -0.0061459085 1.1777769
1.4639047 3.2453372 1.4125769
2.4367332 0.46893117 0.10611046
2.902467 3.4785738 1.2145668
2.2710845 3.3748693 0.44285706
-0.0084758336 1.2531459 0.23936442
1.0337441 0.2012534 1.7912207
3.0908482 0.0089910012 0.92392856
3.5756207 3.5920372 1.9555998
-0.015833786 2.2456694 0.9644962
0.0010611734 2.6223698 0.26968002
2.1854248 0.41821873 0.26049969
0.39169532 0.85397607 1.9984287
2.7413623 0.50339395 0.60306329
2.6467688 -0.0034775296 1.0962573
0.006865975 1.5745161 1.7654444
0.60661066 1.8840586 -0.018070005
2.5629075 0.0077618686 1.4950829
4.2170544 3.6919188 1.6799383
5.1804218 3.8599348 1.9315257
3.9844668 0.4582932 0.3534587
4.0988021 1.5030636 1.4127169
3.5652611 3.6109352 1.8743531
3.5874953 0.060551234 1.989015
2.1421695 1.1493845 2.0036709
1.5757955 0.23200537 1.9763846
4.5370483 2.1009653 -0.0029086552
0.19292586 0.96607381 1.9919307
5.9233813 3.989073 1.3267362
-0.0088355001 0.10958032 0.72118151
3.6084731 2.3841712 1.9794748
3.5849504 3.3076947 0.00013311522
5.2664919 2.1628854 1.9165339
0.78452766 0.15196049 1.6482767
0.31913409 2.4281824 0.014864196
5.5209146 2.7583463 1.0563945
0.0057196594 1.9693856 1.2451338
-0.016119173 2.2832913 0.47445819
5.7253718 3.9465017 1.4126431
4.0102563 0.8193292 0.46801138
5.2968903 2.2581329 0.91712695
2.0118737 3.3262131 0.89856321
2.3212976 1.0817038 0.015301822
5.7051878 3.3229988 1.2728281
0.76801163 3.0325413 0.0098551372
3.0903597 -0.0022820402 0.21631199
1.725616 0.33895463 1.9991008
2.2221136 1.4836749 2.0017374
3.3042014 0.61276525 1.5383395
3.8463757 0.54299998 2.0006242
2.7360761 1.9229298 1.9974794
4.0339413 3.3076415 0.011438169
0.58608586 -0.012004907 0.18757786
0.25542268 0.048229247 0.56164402
5.1181207 1.8489082 1.7813244
0.90343231 0.23460834 -0.0091625955
2.382324 3.3948579 1.1041926
3.4974134 3.5637913 0.6303708
4.2204123 1.5142443 1.7879637
5.5162201 2.7915573 0.49658117
0.87739778 2.7974403 -0.0013617434
2.0785003 0.80463749 2.0015085
1.0044243 1.471583 0.001720181
3.4703805 2.9667428 1.9931816
1.2373019 3.2039418 0.90817064
0.27373376 0.053095367 0.4928357
2.0003436 0.37331238 0.81771064
1.9127359 3.3024349 1.80485
4.7593584 1.4978607 0.47170436
2.4936888 0.486498 -0.004023382
2.3691278 0.43359107 0.10283775
4.9008155 3.8155096 0.31028295
3.8029013 0.0088409241 0.62564939
1.8480877 0.0073520658 0.27280158
0.42950469 3.0680406 1.3287387
1.4389452 0.518861 1.9845767
5.6612935 3.9414587 0.088518254
1.0462919 3.178493 0.98892146
0.0097376071 2.4178598 0.30526954
1.1934268 2.2717483 1.9760175
5.9816742 3.9597461 1.9314892
4.3897424 3.7439535 1.8545161
1.8679866 1.6368705 1.9812839
