# .PCD v0.7 - Point Cloud Data file format
VERSION 0.7
FIELDS x y z
SIZE 4 4 4
TYPE F F F
COUNT 1 1 1
WIDTH 1505
HEIGHT 1
VIEWPOINT 0 0 0 1 0 0 0
POINTS 1505
DATA ascii
4.7924671 1.5352763 2.008121
0.6414181 0.12913629 1.9672157
2.4123185 2.4773707 0.012643917
5.1663041 3.4092994 -0.0031119587
1.3636026 0.84901923 -0.01359154
4.2099214 3.7024603 0.92366344
0.001622205 2.7641356 0.6542908
4.013761 0.84619427 0.044252086
1.8975226 3.3208389 0.39479661
4.8838615 3.3563929 1.9981893
4.0664072 1.8757037 1.9931539
5.8124995 3.9536021 0.81838661
2.8270574 0.62320089 2.0026667
3.1325095 0.0020721981 1.9038874
-0.0081445733 0.89268023 0.17501333
4.7678623 3.799423 1.9980533
2.2513161 2.8476036 2.0090945
4.5419817 2.8232162 -0.0057075466
3.5788996 3.6124442 0.23668243
1.1987277 0.014548085 1.3433098
3.5546443 -0.0095208408 0.77055138
1.3028241 0.54029119 -0.00069980713
0.10033148 0.0071426639 1.3498416
0.23292777 3.0469022 1.4945635
1.8409293 3.0261698 0.0046715727
5.0994568 1.742236 1.2583137
3.1378393 -0.015045218 1.0013355
0.0033447959 -0.00014719473 1.0493342
1.0516847 1.8221037 1.9995779
3.8211279 3.637563 1.0097761
3.6617403 0.98494148 -0.011140548
2.6335447 2.6880071 -0.0067063309
3.9822359 0.42370734 1.9983859
0.54634851 0.0081653735 0.82913727
0.0088916607 2.66853 0.23102914
-0.0049881893 2.1701639 1.0976907
2.9970171 0.0031855355 0.31241378
5.3122649 2.2497199 0.73247463
5.5410752 3.9251599 1.3853078
3.9867535 0.53768033 1.5882908
1.7032334 3.2809923 1.7059064
-0.025869673 1.5014212 0.88401991
1.8825324 0.37455484 1.6564329
1.7191151 0.33183551 0.99229985
3.9919541 1.3725386 1.8600545
2.3367541 0.017042974 0.0899349
5.2390685 3.8670998 1.8419255
0.013798347 2.9090295 0.71185267
0.17274602 2.1563079 -0.0052779075
0.32153049 0.0093040532 0.55638474
0.35381341 1.0433865 1.9942281
3.9443758 1.5496597 0.0050817481
3.656034 0.67063057 1.1234992
3.3186429 1.9996246 2.0053413
3.6539037 0.67606282 0.77211958
1.6346836 2.5586104 2.0011523
3.960233 0.73319411 0.95849776
0.72083414 0.13557804 1.5225222
2.7908046 0.0053444761 1.6143079
4.0039768 0.24802206 1.566803
-0.0032582041 1.7004285 1.0831985
4.5767274 3.7634218 1.7380037
5.5060611 2.7188513 0.46731642
3.9954906 0.13049057 0.82498372
1.8323456 0.35001817 1.5082278
4.0070634 3.656054 0.76618296
1.7032382 0.47594497 2.0078173
0.87217444 3.1443217 0.61629343
2.4578276 3.4209664 1.0459313
0.15470918 0.76976651 0.0039098603
2.3144829 1.3677267 1.9915209
5.8959341 3.6993518 1.4945098
2.1293631 3.3428466 0.54490727
5.2883639 2.2351904 1.9632096
4.3099799 3.744781 0.098446019
0.41303843 0.38552266 -0.0087856818
1.3791126 0.0096182534 0.17844741
1.2623138 -0.00090102549 0.70339465
3.3039665 2.2370305 0.0058312537
5.570406 2.8811512 0.010632009
0.51985246 1.8616567 2.0029697
2.6300511 1.6651058 0.0096790669
2.7874563 0.68628663 -0.0043939082
5.9217482 3.9862807 0.33454803
5.2716737 3.893244 1.0376382
4.6666784 1.9411993 0.012109286
4.5189009 1.5064651 0.058724832
2.1455686 2.3271246 0.00020928608
1.8763931 2.1683323 -0.011706498
1.115822 0.19966818 0.0054371646
5.2328458 3.8130882 0.002840372
2.3535779 0.28352201 -0.0053787059
4.9900842 3.4302161 2.0093558
3.1475368 3.5274093 1.3962244
1.7065189 0.25198865 1.9931232
4.736383 1.5020812 0.34857959
2.8870516 -0.0036920772 2.0116587
2.9516888 -0.0044345059 1.0549757
2.082232 0.32546854 0.0030251292
1.5557026 3.2616317 0.35088408
2.2010384 0.42808938 1.0691559
4.1455884 3.7016273 1.1099023
0.63230675 1.9453371 -0.011719546
1.4269173 0.27824751 0.37841433
0.55674189 0.82228041 1.9983135
0.47850299 0.87399191 0.022273857
2.9033992 1.9440955 -0.0044163531
3.5310924 1.5675164 2.005547
0.012285885 2.316365 0.18239456
4.4166889 2.9081497 1.9868425
5.1261415 2.1675875 1.9830112
0.0014151369 1.7703305 0.067275055
3.5306909 1.8252472 -0.00190259
2.2193274 0.4330695 0.49862692
-0.0091832019 1.9476022 0.54523963
5.0251336 1.8305316 -0.012686847
3.9894729 0.48497495 1.4575514
0.70290685 -0.015902635 1.4151778
0.91947913 -0.0083644819 0.96043676
2.721751 1.4912357 2.0063605
0.7105329 0.1313781 1.3598388
3.3293176 3.5700088 0.73139566
1.541236 -0.010492781 1.7911736
0.51994973 -0.0073245177 1.2597581
5.0522766 3.4519386 0.0007733666
5.6588874 3.9392488 0.57977277
3.9951725 1.1280679 1.5936947
2.249315 1.4829094 1.9964062
2.176707 0.86602122 -0.0099235475
1.9542979 0.36014223 0.65389419
2.4343758 3.4002328 0.8979888
3.1082923 1.3596432 1.9962827
4.9667082 1.865355 1.9917972
0.92365462 1.6606687 0.018264847
0.66219306 3.1013234 1.7779574
2.0711343 0.38141569 1.3167807
4.0083289 0.46711597 0.60369509
1.4193596 0.26208803 0.85064971
5.0904326 1.7226243 0.4131088
3.9753838 1.7808933 1.9960294
5.9138174 3.7928946 0.70490736
1.4675306 0.0088533042 0.48808384
0.20776051 0.004932384 0.84400481
5.5564804 2.8847852 0.95215523
1.2445804 0.0093879355 1.934051
-0.0059581203 2.3140914 0.97252733
1.343514 1.7043573 0.00050334004
3.2173026 2.1855226 2.0110521
1.993022 0.37972251 1.3103385
0.58433527 3.0987754 0.93420982
4.3899708 3.7274005 1.8886095
3.0307024 3.2504671 -0.0081549948
0.0086167119 2.7957871 0.69874597
4.2683902 3.7195015 0.48212022
4.0178657 0.27617967 0.099313378
4.2161918 1.4965112 1.5268987
1.0762062 3.1766601 0.24940801
1.6551279 1.7826554 2.004087
2.182776 3.3464143 1.5292377
0.079757541 -0.0038755126 0.02241596
0.3834672 0.50249743 0.00064853602
1.5933434 2.2661572 0.0071436581
4.0098844 0.60379565 0.39637607
0.61402798 0.12321342 1.3832536
2.2148232 2.032191 0.0044332617
5.0138559 2.8428078 0.0027150665
4.0121346 0.25124168 0.04546966
3.9929621 0.84491074 1.1203194
3.7526486 3.6024578 1.9236565
2.8268125 2.8856254 -0.0037351856
4.294632 2.6099916 -6.6402456e-05
1.1866319 1.1966189 2.0036035
0.41186169 0.3476212 2.0034714
4.5155792 1.5443312 2.0170379
3.0817873 -0.0062096836 1.2813228
4.5221095 2.6366763 1.9997306
5.7425084 3.4007638 2.0042317
0.49712756 3.0777483 0.82154053
4.5915937 1.5041832 1.6125865
0.16713381 2.6154521 1.9912024
3.9941428 3.6672871 0.019550163
3.6112273 0.09284927 0.00058591279
4.8028126 1.7049627 -5.9439044e-05
-0.01472142 0.56452686 0.046458993
2.5323308 0.46616015 0.80837947
1.4498582 -0.023713185 0.64992565
0.44245762 0.36666515 2.0067499
3.1135919 3.051465 0.019840674
1.8346573 0.34811038 1.5868886
3.7721684 -0.0080003859 1.1487689
3.9320321 0.49596378 -0.0063516665
0.17339578 1.0881695 -0.00091979094
4.1838312 3.6918766 1.276963
2.8330433 0.73873311 2.0030262
0.66107762 2.3165121 2.011415
0.0086695272 2.2169344 1.9925023
3.5286579 3.6202202 0.44027022
1.2763368 0.24367815 0.26416704
0.22356263 0.38869908 2.015877
3.6646955 2.1090395 -0.011147495
2.5667114 2.6873186 2.0144413
1.7073923 -0.011403656 0.060619533
4.0729957 2.1052639 0.0081282333
3.6939659 3.6277707 0.57069224
1.2324772 0.00049849035 1.6500767
1.2246603 2.9550416 -0.00022228211
3.0466142 3.1116526 0.015421986
4.7215238 3.7838898 0.82316273
2.2676685 1.1034539 2.0121922
2.3946972 0.3369599 -0.0039324807
3.9847174 1.1756811 1.3439121
5.2355385 2.0641229 0.54114527
5.1731095 1.8798531 1.6895957
4.292275 3.7178633 0.83671647
5.5140629 3.6084421 2.0069203
-0.0036998696 2.5903163 1.0208203
0.88470542 0.17303385 0.41552123
3.1772487 3.5446784 1.1964215
5.326755 3.8867905 0.76184571
2.33289 1.735339 -0.011112532
3.9126282 2.300715 1.9847807
0.27284181 -0.0065868045 0.6920889
3.4708505 -0.0059960419 0.41225943
0.51201171 0.58883017 1.9940821
2.3528512 3.385843 0.067145124
5.0974178 2.8360868 2.0022683
2.011765 2.8679402 0.0012563786
3.432986 3.4568894 1.9989737
2.7398102 0.52941775 1.8493892
4.0125928 0.16152951 1.3346123
4.1008539 1.5251832 1.338536
1.5733955 0.0093085086 0.81641173
0.0099498425 1.6465188 0.86938709
-0.00014436099 1.1485384 0.77610272
0.15519255 1.5778239 1.9960992
-0.001236274 0.31327718 0.59619868
0.019382358 0.67272007 1.3063951
5.5475149 3.1937997 -0.0089097116
0.84236807 2.2374635 -0.0091070989
4.1178699 2.4670506 1.9884396
3.5300367 0.00077237131 0.77199697
0.11375561 1.0456188 1.9957542
2.3387244 0.44198573 0.75488728
0.93903488 2.40418 2.0029805
1.8944056 1.3924327 1.9859046
0.0058688987 2.1354036 2.0068383
5.4161496 3.9107862 0.39688081
4.5172324 2.1612206 2.0068481
2.3567581 0.44162872 2.0160501
1.5413259 0.0081602875 1.5596346
1.6895385 2.6665986 -0.0032716391
3.9447768 0.74370813 1.746262
2.0565886 0.94753629 2.0147257
4.5700541 3.2881536 -0.0029647606
1.1321796 0.0026078327 0.53198206
3.966825 2.0697789 2.0065005
0.0837579 0.0078984285 0.75240964
1.1769977 1.5571877 2.010884
1.8882569 1.9343811 2.0034006
5.4295712 2.5966814 1.2549559
3.472892 0.71744227 0.013850949
4.2464623 3.7137933 1.0953181
3.1363995 0.59216821 0.19188362
5.8856068 3.6770248 1.9598873
4.5672102 3.7471013 1.1261882
5.09582 1.7769278 1.7470359
0.78383088 0.15335798 0.22258958
3.7667837 3.6269591 1.3181109
3.9988728 3.6734064 0.80927807
1.593886 0.29348779 1.5365847
3.0769284 3.5032794 0.20276839
3.9945459 0.40200183 0.86223561
-0.012706674 2.9662912 0.4297708
4.4484949 1.4756768 0.33032522
1.3863363 0.26727414 0.65316796
1.656056 0.3278923 1.8948565
0.0047747302 0.74945503 1.3393523
2.3080299 0.43934929 1.7978988
1.4540967 3.2339015 0.5968498
2.6370261 0.0081195813 0.61552131
5.173286 2.9034185 -0.015097369
1.9821639 1.173303 -0.01739181
2.0665739 0.74106681 -0.0069764126
1.798288 2.0963595 0.0056750434
4.0103359 0.81541049 1.1241496
4.8085885 1.492425 0.41305095
4.8712668 2.4669411 1.9893758
3.9118755 -0.0052176653 0.418235
4.7204614 1.4972885 1.7163004
0.78317398 0.1430791 0.6135956
4.5968871 3.2620103 1.9957975
1.1162431 0.3932924 1.9999794
1.7767216 0.02976026 0.016694207
1.2848117 3.2132773 1.9841809
-0.0058528269 0.77185291 0.032858249
2.503221 0.45383093 1.7461393
3.9793541 3.6810243 1.3544836
2.0524468 0.38210791 0.55738395
3.7775381 2.2832766 0.00015501854
1.0129508 2.6687796 1.9960953
2.8228097 1.3632919 -0.0097569507
1.711274 0.30036774 1.9088416
5.6867013 3.2369411 1.5797353
3.7421989 0.7483303 0.0060067908
1.5043387 1.3785158 0.0094921719
3.0492151 3.4897504 0.99582326
2.3292553 0.0080644246 0.017890101
0.36616901 0.90922546 -0.00042371586
3.6571772 0.70537466 1.1051309
4.0039043 1.0540836 0.60473931
5.3308234 3.890734 0.80874103
1.5949645 -0.0027327356 1.8761184
0.69777554 1.4288006 2.0052812
1.4594861 3.2367635 0.68185413
4.2168312 2.1411872 -0.0038329677
4.2669234 1.5189325 0.67327929
4.6667466 1.4982185 1.9400692
5.7886467 3.4973991 0.006131982
5.5594296 3.9389703 0.98584902
1.056501 3.1909709 0.54171288
5.3390431 2.3884051 0.66848999
3.0325162 0.092577107 -0.012990643
4.1606483 1.9240335 0.0087774647
1.871501 3.0644314 2.0052159
5.6322184 3.0601377 0.32544473
2.5252697 2.4703119 1.9917078
0.99443567 2.004137 2.0002236
3.7147558 2.4125044 2.0059586
4.9810853 2.119946 -0.0026034201
2.924891 -0.0076847663 0.89513755
1.4290608 0.26676357 0.62763268
5.2664256 2.1580167 0.2679137
1.2136184 2.9159739 2.0015028
0.92637217 1.1546494 -0.017296955
3.9833941 3.6636262 1.8652033
-0.009414806 2.5086763 1.4377172
2.2774847 0.032345898 2.0005898
2.0694382 0.008196732 0.12775041
0.48903978 0.91504544 -0.013085756
4.2316098 2.7929647 1.9901342
0.00079353497 1.3258085 0.22505896
5.2313294 2.1130304 1.0882803
0.36875543 1.7310487 2.0134523
1.8160269 1.5367141 2.0052998
3.6612074 -0.00030396626 1.8956676
2.1221921 1.8474848 0.007430098
0.97030622 1.5086879 1.9968259
3.1331742 0.59054041 1.3833008
3.9894474 0.46273649 0.64549714
0.51532322 1.0348362 0.00020307855
1.4730989 0.94287556 2.0030694
-0.017365377 2.915993 1.5505867
-0.0084638186 0.60931015 1.9515417
0.0037413184 1.3352904 1.2709343
1.0319763 1.2861207 2.0105505
3.7826643 0.71601474 1.6055062
-0.017266406 2.6438358 1.7441674
4.7600217 1.502389 1.9867088
4.0747848 2.6068406 2.0167634
4.0282211 0.82588494 1.6183988
4.8855228 1.4904814 0.37919611
5.193769 1.9881468 1.6905854
-0.0048648068 0.0025822176 0.4542799
0.0077150757 1.8405565 0.44973251
4.108501 2.8376365 -0.0022728844
5.062324 1.6309192 0.1698581
5.3679967 2.4067388 1.1991664
-0.016786048 2.6029146 0.37367126
0.3109073 -0.0027967079 0.04226904
0.51156634 3.0879583 1.5326097
1.5243691 -0.016115092 0.022138031
3.4833214 3.5822339 0.3301062
4.6046181 3.7576125 1.0394403
0.24837387 1.6696529 1.9810728
3.5777566 0.95973378 -0.0074526826
0.62369192 0.12073337 0.49999863
5.7107048 3.9606965 0.13311115
2.9283924 0.59197313 0.01415428
2.7578762 2.8924744 0.0084930742
1.8488218 0.22170819 1.9719805
3.9078743 3.3094685 -0.0026060105
0.87284327 0.154568 1.1569706
0.23947938 0.002258756 1.1107272
-0.0042356425 0.23363681 1.6744999
2.4432197 0.44630533 0.89591688
3.8613558 0.89733827 0.017957339
5.2350674 2.0866041 1.6471778
1.9195578 2.8828406 -0.0053644367
5.4862137 2.6949918 0.31758395
3.7138495 2.1433203 0.023562454
2.7898395 2.1863749 2.0027597
0.0083736023 0.13152497 1.8716079
4.6753798 2.0509975 -0.0098489271
2.4277744 3.408565 1.6985863
2.5199409 0.46421769 0.92099291
4.39292 1.5111525 0.48188248
3.7693617 0.7062121 1.6679161
5.7180367 3.9584801 1.4392612
3.2233057 2.1738827 1.9951546
5.2116342 3.8591204 1.6216366
2.1447525 0.41415533 1.8603357
0.86232638 0.011222364 1.8368665
3.8259068 -0.013317071 0.8622331
5.1312213 1.8150074 0.44963196
2.4909256 -0.010787796 1.9283078
1.7209841 0.16922581 1.9849161
2.7847352 0.20281552 2.0034571
1.7408537 0.85798872 2.0155561
2.9164414 1.0983102 -0.0094966572
2.1569974 0.4127439 1.0515651
0.0071699396 2.9911325 0.73520041
4.4320822 3.2343647 1.9961568
3.2939887 0.0082446821 0.76709425
5.598702 3.0303888 1.3026174
-0.00083828991 0.14617325 1.3229859
0.50250369 2.2525086 1.999643
2.2070482 1.2003365 0.0061265016
0.1022052 1.685281 2.0056639
4.0113144 1.2233242 0.27394909
3.0885582 0.12185325 0.008030666
1.1143876 2.3814991 2.011353
0.39661312 0.82739067 2.0001986
2.18682 1.2180043 0.0076479577
1.9866276 0.40163168 0.9648813
3.3795223 1.8145804 0.0053139813
5.078012 1.6965312 1.9521389
-0.000214302 2.2769294 0.24596463
3.9151154 1.7681661 2.0011225
4.6006646 3.7693775 1.1808257
2.0700614 0.0075740726 1.085014
3.7894871 2.8125813 0.0061865114
3.824929 -0.0035977217 1.76796
2.9888682 3.5050156 1.4354633
0.19968411 0.042330153 0.55516404
0.35661629 3.0767503 0.3524012
3.5316341 0.012496233 0.6305204
0.51473325 2.9981003 1.987125
5.1185279 3.7326434 2.003912
0.0014590211 2.7107952 1.2153524
1.8963957 0.0028810264 0.22637355
5.7958794 3.5185428 0.73217994
3.6355522 0.0085792588 0.58789283
2.3821819 1.2810273 -0.015836904
0.65721411 2.6450429 2.0069227
3.886903 1.504975 1.9993
2.6503778 2.8387704 2.0032585
1.7928208 3.3009109 0.74495286
5.9184122 3.7825704 1.9321992
3.9511411 0.0019547779 1.9686329
1.6297706 0.30215344 1.1886845
5.3819804 2.4648385 0.46364462
0.44788423 3.0508447 2.0038323
0.079797611 2.9991651 1.1065426
3.1586995 0.56425613 0.96316701
4.9022069 3.1859963 0.0060774339
0.032114882 0.36150831 -0.015810344
0.0057904818 1.2649968 0.038255416
2.8233676 2.4005244 0.0038045589
4.0008535 0.24109252 1.1301947
0.24116005 3.0277481 1.9524208
3.9497542 3.6621063 1.7250667
1.5304213 2.764497 1.9943035
2.2515857 3.3718169 -0.010174543
5.5130382 3.934268 1.8065681
5.2061353 3.8564563 0.95266622
-0.00075228827 1.2408465 0.23824842
2.3976839 2.4636717 0.0080106286
3.9798703 0.25242585 1.1163175
0.67685884 0.13126415 0.31864592
5.6036487 3.0430007 0.97477549
5.6505709 3.9509265 0.89189303
3.3281884 0.63767129 1.220371
3.6982412 3.4407749 1.9925382
3.9996989 0.39599594 0.24618651
0.98935241 0.0059594954 0.11048634
3.3600042 0.00018419957 0.92445993
0.43942696 1.8792336 -0.0019211012
4.0058408 0.8362813 1.6054678
2.9524431 1.7245038 1.994884
-0.014768286 2.6266654 0.015554243
3.4656827 3.4779699 2.0085249
0.25627056 0.070874862 0.45051005
4.4836459 3.6705465 0.012702648
0.51036507 0.10198335 0.6804679
-0.025938712 1.7326467 0.23487796
0.0087964246 0.3983027 0.0030261073
5.1146727 1.7595139 1.9059247
-0.0021638116 2.0869277 0.039404288
1.443355 0.0039526136 0.43681318
3.3114517 0.61798197 0.4569369
4.7596245 2.8442667 1.9927424
1.8869176 3.3030128 1.8991947
1.9871864 2.8984797 1.998155
3.9988377 0.54514807 1.5124967
1.3300583 0.25642145 0.83204204
0.0056390562 2.2784483 1.705713
1.1459668 0.20945369 1.7893671
5.631803 3.0525167 0.27201194
0.55959499 0.0013808896 1.2264863
2.1011114 2.7055974 2.0021062
0.6068725 -0.0088098496 1.761745
5.0679464 1.6352443 0.1159792
3.0577943 0.54067087 2.0082803
4.0905671 1.9925759 0.0024775274
3.8081088 -0.011244173 0.75509602
4.5928564 1.502564 1.9466532
-0.0079916874 2.1975203 1.2802589
2.7833192 0.5314846 1.3783619
3.70048 0.0083364006 1.9969894
2.5011263 1.824559 1.9948959
5.7555566 3.6478612 -0.0076064072
3.6643932 3.6053338 0.85871625
5.2708178 2.1652038 0.62231344
3.9575667 -0.00036490228 0.39079118
3.8543377 0.72752982 0.37511382
5.7656631 3.4051394 1.8602533
2.9449854 1.9065874 -0.016539538
4.196352 3.5899172 0.0065723811
0.6836307 1.7920007 -0.0023489844
3.9920325 0.39926612 1.0063616
3.9247417 1.3539338 0.0089192875
4.2826524 1.4997572 1.3574591
0.35258532 0.0019850964 1.0892512
2.6425636 3.4434083 0.46253425
0.58802354 1.6838272 -0.0061800568
5.1021008 2.1280098 2.0074584
5.7848854 3.7057924 1.9860486
5.5152965 3.9159129 0.7634449
0.41412526 3.0553222 0.92967302
4.9117508 1.7819381 2.0010047
0.44356164 0.075895697 1.9959643
1.385909 0.050273564 -0.017619193
0.77634686 -0.0021510683 0.89836514
2.8205886 0.0072466191 0.89252311
2.5159047 0.88489342 2.0028439
2.2500856 0.59454989 -0.0085913055
5.3754377 3.5313971 1.9975002
5.5895047 2.9555421 0.70022917
0.88855231 3.1369913 1.4413321
2.6024997 -0.0077675045 1.4358264
2.9245992 3.4922869 0.35961491
1.8550439 3.2296493 0.017857878
5.8326483 3.5396347 1.7933215
4.0845151 3.7049134 1.8054713
1.2933899 0.24431539 1.762543
2.5047765 1.4742889 -0.0013841154
3.601805 1.3900368 2.0115027
1.8924974 2.9251349 -0.0077029057
2.877526 2.0874877 1.9929749
0.004444018 2.8186674 0.46724051
2.1646433 2.6172297 2.0229828
3.3723869 3.3447893 2.0133064
5.6760578 3.2185938 0.23649809
2.9856691 1.1914454 -0.011187422
1.4645354 0.49132961 2.0080791
4.0414634 1.5142883 0.53768373
0.098195963 3.017894 0.41268635
4.7574339 3.5441802 0.023812624
5.221633 2.0335877 1.2920007
-0.010891719 0.050977837 0.81248087
5.1490159 1.9325452 0.57777482
5.7698011 3.4150665 0.17294031
0.18855502 0.037182037 1.0775799
2.8698506 0.0088239722 0.7500065
5.1466856 3.867738 0.078331739
1.211929 -0.0014526491 1.0204372
3.1528835 3.5070143 1.9343188
1.8403358 2.3759592 0.00041395237
0.28478977 0.73169672 1.9800855
2.9609222 0.00065460213 1.9908092
0.83994704 0.15962282 1.4511883
4.003705 1.4430374 0.59604508
3.0561769 3.5120158 1.4049078
5.8949189 3.7228515 0.0049628643
2.252104 2.1829085 -0.0066742115
-0.0026653418 0.26209861 1.8038902
2.7231991 2.7474272 2.0010676
0.48887974 0.08908768 0.77746326
2.4361391 -0.019792432 1.1329113
2.3238361 0.90039271 -0.0017206336
2.4513268 2.8870192 2.0012922
3.9973211 0.98193085 0.092444651
1.6207974 1.7839378 0.00030769256
1.7730809 0.43011853 0.0031546089
3.4401326 0.66602832 1.2366043
1.8005826 0.33931726 0.85047084
5.2278967 2.0274007 0.070839919
4.516511 1.8802757 2.0010052
2.0199876 0.040966235 1.9854602
0.64006734 0.1152954 1.1701175
1.1092052 0.22585094 0.1819337
5.6911545 3.9550254 0.60745102
3.5294552 0.36469084 -0.0123621
3.7339473 0.7042622 1.8305004
0.38056812 2.8484292 0.011644732
0.21874778 -0.0054614274 1.3935074
0.0026306403 0.21425064 1.0321919
5.4725523 2.6613548 1.4522501
1.3637438 0.25345814 1.5107228
2.8782341 3.2587442 0.0024415141
3.4062083 3.5621884 1.2798159
0.68229568 0.010771415 0.59587526
0.29257935 -0.00042490018 0.17536303
0.76190943 0.14723147 0.21297918
-0.00019904829 0.30992326 1.2663019
3.3389182 3.551872 0.4306311
2.4112771 0.52175808 1.9907783
3.9973907 1.2063242 1.2569338
4.5089393 2.4972351 0.0099637276
3.3406181 3.5493522 1.5106416
2.6301141 1.036523 2.0055287
5.792232 3.7844114 1.9907222
4.0501976 3.6729944 1.736358
5.7563739 3.9543805 0.95118988
0.79131317 0.0025308696 1.2321132
2.106977 0.20166026 2.0004427
4.0026054 1.1000459 1.6963406
2.0648086 3.0706916 2.0109632
4.630641 3.2895024 2.0040016
2.5810351 2.0745881 1.9965723
-0.011986597 1.5514765 1.3241233
3.7123392 0.6972512 0.86555719
4.0012465 0.2941373 1.4912262
4.7495732 3.7903769 0.2490218
0.97288263 -0.0082420949 0.59926343
2.6576033 0.67530757 2.007113
1.7807454 0.34342045 1.9182551
2.399452 0.087860495 0.00064777222
3.8986273 3.6322293 0.17352015
0.54983491 1.2429377 1.9943019
5.9732804 3.951375 0.43910137
3.8114398 2.2245815 -0.00020658014
1.3688077 0.26684052 0.12749274
0.92365205 0.27895129 -0.011440702
0.58495867 0.093826622 0.34461364
3.5941999 2.5799034 1.9976453
4.0082803 0.75090712 1.9654757
4.3037624 3.1710193 -0.0018321455
3.0370526 -0.017343611 1.7493231
3.3915849 0.643987 0.1996095
4.5959883 2.9062393 1.9915928
4.8625727 2.0271525 -0.0022782029
0.030084344 0.73617494 0.012810768
3.0118592 3.5076087 1.3046505
2.9526317 3.488873 0.32626858
4.6088419 3.7756028 1.2329487
0.90270901 0.0086271176 1.9206443
5.1908784 3.850898 0.26014873
1.9631077 3.3269091 1.6043324
2.9365299 3.1552453 1.9970121
3.0128078 1.7606359 0.017462106
2.842056 3.4711776 0.26008248
2.2617233 1.7609825 1.992328
2.5864077 2.5638454 0.0095817577
1.9374088 3.3161736 1.4946955
1.9054307 0.60192883 0.013873256
5.4845819 3.9142346 0.94527686
0.66808528 1.4775058 -0.013547127
2.0227609 3.342381 0.63970727
3.5934393 3.6032758 1.9226751
3.5588005 3.6045465 0.38209707
2.7427194 -0.0060321097 0.26558626
4.4293666 2.2463639 -0.008897623
1.5096215 0.28940457 0.99482793
4.9353261 2.2392445 0.014195316
0.3676677 1.9665773 2.0081367
2.9331229 0.53228343 1.5136424
3.6223412 2.4082782 -0.00097938802
0.20828338 0.41098094 0.0043243929
0.00012341584 0.3140572 1.206161
5.5909405 2.9568806 0.019424682
0.39341035 2.4077253 -0.0079254732
1.6086938 0.31467649 0.63046926
2.8883839 1.0379339 2.0126486
3.4414802 -0.012423926 1.7638304
2.5888813 1.8604519 1.9920708
5.1536498 1.8624306 0.76789719
3.2501373 3.5478292 1.754741
4.4709783 1.5697654 -0.0010883943
4.0080466 0.19534461 0.61843097
3.7459342 -0.023312366 0.075850271
2.7821071 3.4622068 0.78007752
3.8957388 0.72530431 1.910491
5.5951929 3.9505522 0.46648189
3.200341 0.5875625 1.7749711
3.4898746 -0.0014431495 0.49164265
0.82931942 1.8616439 0.016661296
1.8937776 1.8692225 2.009057
4.0061474 1.3403176 0.54420519
2.7032533 1.7324402 -0.0029668408
4.0219026 3.669071 0.54939121
3.1235886 0.43690673 0.010429084
4.9036818 2.6420245 1.978803
4.885603 3.8127809 0.29285195
1.5007982 3.2526765 1.6706175
0.30073762 3.0517843 0.17580615
1.3609536 3.2224836 1.1239656
2.3921976 0.43957937 0.92115039
1.7796705 1.4191141 2.0094762
4.9184237 3.8133116 0.31055146
4.6839952 3.7629702 1.0609711
-0.0010505082 0.5504781 0.42306939
0.012737475 2.7689695 0.62340915
2.4303718 1.4021245 -0.0068674595
3.6410432 2.5933561 0.012217228
1.7625405 3.2641258 0.13542558
0.99919665 3.1606388 1.0953835
3.870096 1.3182091 0.0045915162
0.0100084 0.0033309902 1.6560569
4.6576862 2.3768837 1.9969225
5.7248578 3.3446176 0.38700575
1.0165243 -0.0026985814 0.30115005
4.9953885 3.7161751 -0.007597914
1.0909388 3.1712489 1.2887623
3.4106131 0.64091223 1.0377884
5.8640099 3.7723398 2.0045588
5.6129217 3.0577083 1.6771939
4.3113689 2.4235284 -0.017075092
4.6830521 3.7783511 0.58598381
2.968508 0.41556481 2.0068567
3.8058634 1.9486424 -0.0010606552
0.29466137 1.6327728 2.0019333
-0.010032975 0.011377356 0.99937427
3.4539936 0.046407972 0.012032231
0.50608677 2.1754818 1.9935217
0.333689 3.0644894 1.5230914
0.35110736 1.1142414 1.9902141
4.4272923 1.975515 0.02054124
2.7249725 3.4646435 0.7226547
3.9962218 0.64973938 0.19486243
3.998652 0.46868271 1.7508456
3.2915378 1.3218873 2.0047812
3.1867971 0.0039403704 0.11623632
1.4599557 0.49868697 -0.0097337635
1.0895509 1.5868565 0.012011223
2.7573602 0.21540625 1.9963887
3.7095444 0.69479084 0.63092172
0.51577437 0.092830308 1.6789776
3.2845693 0.62725198 1.3650532
2.7633336 0.8219505 -0.016798843
0.24678375 -0.0073552569 1.7843974
1.8644322 -0.017512284 0.35358295
2.1621871 0.61619145 1.9996204
5.7922859 3.4753993 1.9259931
5.0380054 1.6025182 1.6731937
4.3325901 3.4571502 1.9965857
0.24710594 2.0896277 2.001986
5.2072124 2.0572703 1.5737414
0.51775837 0.62630403 2.0018244
3.3365278 0.62548947 0.89777154
4.0262418 3.6612709 1.4847184
4.3169136 1.496899 1.0358566
4.2143888 3.4169371 1.9749451
3.9626977 0.014885907 1.3628217
3.3591859 0.62647843 1.3307191
2.8140156 0.53724736 0.99000883
3.2171628 3.5282423 1.8969308
2.6187029 2.3238699 2.0152879
2.6007552 0.88032633 -0.00044007259
0.65065879 2.7684624 2.0043836
2.5744019 3.4257078 0.94438076
2.1069112 2.642271 -0.01060137
2.2726476 0.42957994 0.49340728
3.161299 3.2132478 -0.0067672506
3.4927824 3.5763319 1.9099357
3.9027929 3.6571271 0.61879021
4.0034165 0.64594752 1.2747332
5.4337697 3.9045858 0.3242403
2.5466213 3.4207308 0.92184615
0.53609759 0.015228308 0.039111339
1.7621282 2.2071588 2.0011969
1.2157044 0.22215717 0.79678357
4.8743429 1.6468016 1.99999
3.0127447 -0.014644926 1.5244987
1.5241002 0.86957502 -0.0043297894
4.4141574 3.7216175 0.56975931
0.43719974 0.009256728 0.86862171
1.9228203 3.3273323 0.82334888
4.7611446 2.234714 -0.0021222348
-0.010113282 2.6697719 1.0001862
1.8864934 3.0991549 1.9859148
3.9870141 1.0134001 1.8936909
0.87405419 0.16320199 0.80062264
3.4541609 -0.00019037178 0.43132985
3.993964 0.74617714 0.081575356
3.2612936 0.010312127 0.60094941
2.7890439 0.33525154 -0.0085915513
3.9874256 0.20867631 0.76336282
2.817194 0.98945349 2.0132153
5.6934905 3.9508924 0.75927985
5.709198 3.2500401 1.500425
4.553092 2.6975136 -0.015620924
0.85318559 0.41473237 2.0106719
3.504391 0.66104877 0.49418813
3.9755118 0.69152927 0.45189461
1.4321363 0.00050372659 1.9347529
3.5206046 1.0559089 0.013314503
5.2218132 2.028332 0.77771044
0.028901933 1.4462391 1.5474776
1.5680623 2.8793771 0.0027908471
1.6739982 2.9032946 2.0088806
0.60566103 0.011925537 1.9714379
1.0636752 1.9880977 1.9958807
-0.0040762974 1.5880209 1.7926061
1.1904455 2.7496176 2.0020192
0.13167614 0.61901599 1.999952
4.0136309 0.3390851 1.3216361
1.5102686 2.6229877 -0.018228272
2.9308188 0.55319816 1.8096669
3.9072297 0.0040606675 1.6287545
0.42642918 -0.0049942695 1.3284644
3.8648491 0.56916445 0.0063362988
4.0577097 1.490703 0.89061064
2.1064157 0.40043619 1.0638213
5.6798697 3.4508822 0.0036314994
1.4004049 2.957037 0.0043308735
0.84813577 3.1461363 0.48770916
1.6138721 0.29621455 0.4705036
3.6105928 3.4112985 1.9959658
3.6142423 0.67100465 1.7011271
0.34859309 1.0761184 2.001236
5.9976087 3.9593906 1.0874994
4.5238571 1.915428 1.9888263
0.73251563 0.51213551 0.00072542281
5.9687009 3.9594321 0.87661487
1.6812187 3.2632296 1.377036
0.85175872 0.00039424334 0.39436045
5.3810635 2.5086017 1.0747924
5.9587793 3.9965668 0.70902741
3.9963205 0.91684365 0.98981833
0.010940772 1.2507143 0.77440107
2.1397197 0.022325026 0.49838337
1.1286473 0.20578742 0.61470962
5.4230094 2.5286238 1.9851123
4.743402 3.8028491 0.094027124
4.7360687 3.2195671 2.0043163
3.6311347 3.6155441 0.35251921
2.8702121 3.4753823 1.0561973
4.8821335 1.4911945 1.6716648
0.45045066 0.079387799 0.69522822
3.2984719 3.3060288 2.0036976
0.051927354 3.0304601 0.13829225
1.0029955 0.0063356161 0.74973565
1.5802377 3.2553296 0.094684154
5.9737201 3.9848855 1.9148659
4.0084219 0.75069618 1.160724
5.4037061 2.4572532 1.7448972
0.89712167 2.6407604 1.9889592
2.9341636 3.4892235 1.8433787
1.721868 2.7006724 2.002845
5.4644003 2.6659217 0.013059294
0.86049235 0.15689303 1.6981453
-0.00092239049 1.2622302 1.0118567
2.6583993 2.5062928 -0.0059951413
4.0086217 0.42799813 1.9028302
3.0757899 2.4339089 0.013567867
1.0973462 2.7725878 2.0033164
0.24496274 0.27257341 -0.011436309
2.0651834 0.653772 2.0100086
0.55196798 1.1647441 0.00073256262
3.508281 2.0286622 2.0017598
0.98741472 2.0497346 2.0032368
4.955514 1.4791635 1.7562559
1.1140529 1.8461584 0.020034639
4.5823135 2.6662006 2.002331
3.6581616 3.6226523 0.30523521
3.9946129 0.093244992 0.24994907
2.744489 0.28222385 1.9958465
2.5545495 2.337208 1.9824969
2.7764764 3.4479191 0.70718914
4.0842161 3.6869407 1.0889266
0.69551629 0.14569785 0.26681721
1.708385 0.32856977 0.35170245
0.0049851737 0.71623451 1.8456326
3.9883761 0.96803945 1.5011202
1.3182759 2.8131826 2.0015287
2.3847177 0.078103051 1.9881799
2.4587486 0.801301 1.9983358
-0.0130085 0.32729763 1.7445829
2.6470082 0.015233344 0.97228426
0.36348423 1.8654833 0.0071426318
1.349106 0.22853586 0.16609724
3.9400368 1.1329155 1.9903222
4.0026178 1.2376661 0.50462967
1.5109726 2.4737964 1.9940052
1.5821955 -0.0042327028 0.42249936
0.9388867 2.2873008 2.008424
0.33858553 3.0666568 1.1702577
0.027817715 -0.009729648 1.5929145
5.4148259 3.8957143 0.12084579
3.994982 3.6732433 1.2641302
3.6196909 3.6153371 0.94651413
2.9069402 0.52289075 0.28229091
-0.001724316 1.3574575 0.24868731
2.9895186 1.6455024 -0.0008080366
1.3313019 0.23828989 0.29097867
1.4544512 3.2465775 0.54337728
2.9836578 0.57384562 2.0096054
2.064472 0.35906202 0.75938147
4.8303304 3.8031595 0.26328743
1.5754964 2.3292346 -0.0059078652
3.9968309 0.83332139 0.91410351
0.393177 -0.006382898 0.2685169
3.3563879 -0.012688921 1.4557359
2.8618541 0.52557498 0.89529502
0.29013479 3.0390866 0.33595484
0.00022648757 1.1618586 0.69722819
0.012302543 2.1149411 1.8148762
4.6149383 3.769552 1.4073886
4.674201 2.9112966 -0.0074609201
1.3150191 3.2097156 1.9860938
3.8313544 3.6432853 1.9834021
0.016477803 1.5865237 1.3103877
1.0690824 1.6474761 0.0027719608
2.0571601 1.9893142 0.010127392
1.4045694 3.2402306 1.0904574
1.2367522 3.2135706 1.3701168
2.1331818 2.6427274 0.00550417
1.3953491 1.9698306 0.0078656431
4.6156325 1.4971023 1.5731305
5.7930264 3.4988248 1.906731
3.7368414 3.1009772 1.9996312
5.8102002 3.959924 0.22191004
0.55180442 0.026895605 0.80647326
0.9503864 0.27757356 0.0011297252
3.6872754 0.0033549962 0.85626662
0.23949461 -0.00019041276 0.80247229
4.8346143 2.2359562 0.002555599
5.4705696 2.6685843 1.6694168
5.267427 2.1280391 0.20292018
2.3623452 0.17811467 2.0109241
0.00336261 2.1705089 0.65654194
4.2091966 3.582406 0.0059898426
0.10078612 0.24963725 0.00052141043
0.00019502128 1.7309221 0.73653674
0.044707239 2.8001776 0.013717836
1.02584 3.1857533 1.0053712
2.3600483 2.458832 2.001308
4.0799212 3.6729949 1.2258054
0.89077085 1.9682148 0.001683013
5.1017613 1.7672623 1.8584355
2.825227 2.4655132 0.010057478
1.7290468 0.87202734 0.010028727
4.7613378 1.4870602 0.27505738
3.7828958 1.5604085 0.0046369052
2.4981468 0.048253056 0.014243827
3.1304326 0.28952605 -0.00765693
0.41794091 0.6527766 2.003551
3.6940548 3.1422133 0.00041233198
3.8980367 0.010432473 0.93855953
3.5354962 -0.00023523218 0.14936553
3.6815956 0.7490325 -0.0046449476
5.7478747 3.3704679 1.2822148
5.4202876 2.5273187 0.22592956
2.4500802 -0.003478216 1.1315756
0.32219586 0.011576955 0.36148641
2.0298021 0.81126708 -0.0033562745
5.3968973 2.5124025 0.042174768
3.4746668 2.7015514 0.011383449
1.7946585 1.9746522 0.0011848261
5.2213535 2.0458288 1.9166619
3.4410183 0.0099567901 1.5988841
1.6044657 3.2504907 0.099648543
2.8049593 2.0808187 -0.00083643605
2.4570642 0.087541588 2.0144379
1.5367491 0.28784811 1.8643137
3.870611 0.72551757 0.28431997
0.0048800753 0.31006971 2.0030084
3.4169211 1.276855 1.996797
4.9768105 1.4958885 1.6294611
2.7570517 0.4905394 1.8291925
3.2039659 3.5347023 1.7777752
3.9143534 3.6711092 0.70965147
0.00042342249 0.95268625 1.0684346
0.69170552 2.0648777 0.0077019688
1.3040369 1.2663711 2.0010138
4.0168252 1.489386 0.57359421
1.9086399 2.7767634 2.0012507
0.89352244 3.1465337 1.6967641
4.3310051 1.8910134 1.9651849
3.5629382 3.5827341 1.3884445
3.5968986 1.8151777 1.9917229
2.4595053 2.2200277 -0.001574877
-0.014514447 0.29794601 0.51994497
0.5864833 2.4028749 2.0093095
4.5318732 1.5025002 1.5153854
1.7762434 1.2160672 0.012703912
1.6519315 0.8549245 0.013952575
3.4604325 0.0045107049 1.5008765
0.6190446 3.0005558 0.00047825158
5.2865882 3.8679724 0.5050742
2.0035639 -0.0056710201 0.58944142
5.7617636 3.951267 0.40848958
4.0931792 2.7485619 0.012516095
4.1207919 2.2037506 0.0039135381
4.0128884 0.95778424 0.83262074
2.9059825 3.1522202 2.0090725
3.0035486 1.8571848 1.9840331
2.1320245 1.807568 2.0084517
0.68348455 0.00047839325 1.3734828
4.017303 1.6436009 2.0140493
1.3128973 0.2474978 0.97048819
0.13495527 0.015885981 0.20220283
3.1289525 3.3056753 -0.00011235346
4.0015402 0.26431206 1.3521971
2.7985826 0.53968495 1.1625569
1.8903868 3.3045928 0.39325464
0.84404355 -0.0035072824 0.14755827
3.3728433 2.7894795 -0.0129457
3.8682005 1.474672 1.9886498
1.9913549 0.0092403153 0.16720453
2.4627516 1.6848949 -0.0043452517
1.5355675 0.49367502 -0.022831084
4.129456 3.2181199 0.0030896931
4.2267795 1.9457481 1.9954003
2.6882169 2.6784222 0.0016905083
4.5286031 3.7706997 0.88049453
4.5347891 1.7702514 1.9962068
5.5984006 3.5821359 2.0097475
3.467622 3.0160441 2.0101876
5.0068302 1.572475 2.0135903
-7.2076284e-05 0.60806495 0.3601031
0.016100341 0.25663611 0.50380218
4.0229855 1.4161143 1.9686621
2.6731894 2.4262059 0.0065407832
3.5954978 -0.0064165662 1.5760955
0.9512037 3.1559658 0.59602261
5.5905418 3.4751852 2.0060761
-0.0046456275 2.980751 0.56803572
3.1513488 0.59566277 0.74146563
1.8592293 3.3124623 1.6214617
2.6074412 2.72206 2.0037904
1.8230648 2.5022883 0.0081736874
2.9358711 3.4796958 1.8251998
3.9877748 0.70276135 1.3044342
2.2275341 -0.0076952381 1.5071863
1.4593788 2.0112906 1.9991723
5.3340988 3.4817133 1.9914789
-0.0051338733 0.65842772 0.34437788
0.020581348 0.93119419 0.42403501
2.2159388 3.3782084 1.294993
1.3280824 3.1679454 -0.0043069264
0.14459847 3.0287089 0.38657331
4.7514586 2.3660667 0.0016112562
2.8628886 3.4873211 1.7341485
5.5991836 3.9577401 1.3810518
3.4108548 2.7281857 -0.0073937858
2.4729409 3.4072413 1.9338869
2.7965841 0.85163319 -0.011820843
1.4664825 -0.0031291472 0.79509139
3.436326 0.65779263 1.4527502
1.1607311 0.24221937 0.79417831
1.1846181 3.1995912 2.0118084
0.53207928 0.11273491 1.9579302
1.5035928 3.2583964 0.91730613
0.82806367 0.019027296 1.9335437
3.1185546 0.00066184439 0.4176375
0.92514861 3.0911705 1.9952575
0.84569806 1.4196967 1.99175
1.5392027 2.2744789 2.0031462
1.163507 -0.032091547 1.6594734
5.0057955 2.903578 1.9989072
2.0810852 0.38923216 0.73581278
5.3512115 3.8817148 0.62051815
4.5078812 1.8613002 0.0011078017
4.7470508 1.6507246 -0.011429907
4.8825979 1.6343799 0.0088919224
4.3994889 1.5024705 0.57824779
5.0467587 1.607512 1.9081441
2.1091988 3.350877 1.9334149
4.0009608 1.2101356 1.9399477
3.593941 0.00090332434 0.7505281
3.3801224 2.574348 2.0073326
3.1860881 3.2972944 -0.0091383243
-0.018296048 1.0087799 1.0574354
3.8447597 2.0782526 1.9973928
1.4797165 3.2386603 2.0129313
2.360714 -0.0047754543 0.54701912
4.0237546 3.6626828 2.0015163
4.0146732 0.23889259 0.064391799
1.6174994 0.36435577 -0.0084504168
-0.0060636252 0.17441821 0.12401639
4.0988784 1.4933012 1.5089749
0.33553568 3.0770023 0.57021928
-0.0060416753 1.1425697 0.38438359
3.0276861 3.4931333 1.5262909
1.3356901 3.2225611 0.6115973
5.0397811 2.0530667 1.9981986
-0.00075931381 1.8123192 1.6676068
3.6627989 1.0653263 -0.020280421
3.1437263 -0.0023954574 0.30854726
2.7432606 0.011102868 1.5264882
2.2064838 0.83490121 1.9908727
5.7748775 3.4664526 0.0022936231
5.5243797 3.9321098 1.3762517
0.0021311024 1.0696325 1.4458624
5.7778702 3.4452257 0.72504503
3.0266428 -0.0085624754 -0.010552755
2.1392374 1.9383614 -0.0098227328
1.0092287 1.2498758 2.0074878
2.3323827 0.43693864 0.47050533
0.3246581 0.63533419 2.0053992
5.8991637 3.9843454 0.23693603
1.9999527 0.39507514 0.34956723
2.6134553 -0.00095913454 0.28233442
2.5649464 1.1185079 2.0070953
1.0857422 3.1995237 0.50393754
5.4885626 2.7175653 1.79223
0.29448196 0.95426989 -0.012068649
0.005356269 0.29253531 0.66398692
2.5569386 2.8744242 -0.012917913
2.7073183 0.50510359 1.4988798
3.668227 2.4436314 0.0081915362
0.081892923 0.055898424 -0.011723753
2.0860765 1.362626 -0.0021998025
4.8090272 1.4937428 1.9944361
5.7952204 3.5002551 1.7971503
5.3860478 3.910537 0.91013432
1.0586202 0.02391036 1.6436237
3.9909365 0.48135957 1.3247283
4.0101504 0.23004925 1.6573495
-0.0026674729 2.0585072 0.74426657
1.9824841 1.4243387 -0.0030903586
1.1264544 2.5435603 1.9893283
4.0091872 1.2299223 0.57680804
5.2725053 2.1689551 1.934158
5.0052757 1.4890524 1.0973446
4.6132193 1.5014135 1.2181062
4.0013475 1.4964136 1.94156
1.6920106 2.1642711 2.0076592
0.0034782812 2.9739614 0.52370709
1.8922945 -0.023088979 1.9377254
5.840631 3.5900126 1.4532915
5.1742754 1.9979908 1.997269
1.0942678 0.2256476 2.0003831
3.8019414 1.8306867 -0.0058692377
5.7884841 3.4869866 1.0727556
3.2235484 0.16747499 1.9958878
1.6282314 3.0062864 2.000519
1.1361078 -0.02506684 0.17362157
2.6892049 2.9904022 1.9916795
2.3203549 3.3730319 1.6133655
1.5755094 1.4986073 2.0119231
1.8408751 1.8093162 -0.0086977482
3.7475975 1.5169206 0.00079069042
3.360131 1.3443429 2.004679
3.1943991 3.5372546 1.3645281
-0.0087060882 0.2215184 1.3732834
1.4166038 3.2348044 0.0027069801
0.20501666 3.0427186 0.065250486
2.0266597 0.0038761972 0.36591071
1.76803 0.33346125 1.7206842
5.7932882 3.529707 1.2927588
4.0120544 0.81436515 1.1528285
0.996306 0.004884549 1.6924647
5.2164302 2.0118413 1.9010984
2.1783044 0.75140858 0.0054632556
5.5782614 3.9100568 1.4387125
5.9571567 3.9977427 0.22657619
4.0076737 0.38364944 0.3518143
4.4047489 3.4598794 1.9809844
3.706053 2.7283673 1.9856442
5.3812327 2.4760737 0.49547544
0.2026448 0.017900215 1.8598807
3.3059392 2.0866725 -0.0052301059
1.9953949 0.38694438 0.42942888
4.7974744 1.6166738 0.0063059414
2.7293873 -0.00427446 1.6984299
2.8801196 0.5296514 1.5885838
2.6854401 2.8359473 2.0007074
4.3054438 3.7156942 1.8532578
2.114259 0.10542853 2.0049462
2.9133303 0.0010128986 1.0883559
-0.008614732 0.26696682 0.63994944
5.3900042 2.4350779 1.3962889
0.56558651 0.0037174874 1.192719
0.52807993 0.93773288 -0.0013661477
0.010651183 1.9715964 1.0099944
4.4594812 3.7512834 2.0056849
0.0035926979 0.56605464 0.36244428
0.40947503 3.0809813 1.9498888
0.76912665 0.97144729 1.9848471
0.007821423 2.4613745 0.077672675
0.18432604 3.0202723 0.44784775
1.2870613 -0.0033094506 0.72375238
2.3069415 -0.00040772089 1.3170288
5.1558776 1.8742783 1.4438442
4.0113921 0.90403706 0.16008137
3.9099405 3.6367412 0.39052409
2.9219823 2.7130334 1.9942939
4.2744832 1.6165203 1.9953519
0.92055452 2.9804194 2.0161624
0.60849947 -0.0089099593 0.96044528
1.3475118 0.26650003 0.20787784
5.3416014 2.3738885 0.11882526
1.7592854 2.5648377 -0.012416378
3.9903064 0.61883026 1.6600676
0.023966674 1.6459308 1.7400001
3.9679623 0.6526792 1.9979187
1.1012685 1.3069738 2.0038626
2.4244165 1.1044037 2.0004194
3.357506 0.60066998 -0.0069930339
5.8694401 3.9707205 0.306454
0.51087677 0.09477178 1.1365442
3.037751 2.3173673 1.989409
5.0846071 3.5487401 -0.010332578
2.7186985 -0.0043876758 0.90381205
2.0435057 1.4700786 -0.0064330092
1.7723621 2.36696 0.012561103
0.49589562 1.7147248 0.017412893
-0.0034046385 1.9297972 1.6080359
3.9995933 0.50703728 1.1062498
2.1159215 -0.0074298 0.96665102
3.1083083 -0.009809196 1.5140756
4.717423 2.0847499 2.0074372
0.6146313 3.0927198 0.82882792
5.8220749 3.9674757 1.9641238
5.851851 3.6350989 0.68234348
2.8202636 0.0027749434 1.7536767
0.78818756 0.14725745 1.2648119
4.6394787 2.727293 -0.024368417
0.001837389 2.1427135 0.040195018
1.5483282 1.6152858 -0.015607992
4.6594486 3.3771205 0.00017149557
3.0067904 2.2021019 1.9981484
2.0015299 2.0391409 1.9817188
5.2399983 2.1036096 0.074883252
2.8771782 0.0010626254 1.021341
1.6200821 0.12902309 2.0195036
3.7392874 0.71774954 1.0955772
2.3816237 0.46151209 1.8301785
2.4241276 -0.0087165665 0.64312637
5.2171998 2.0213184 1.4604534
2.1235943 0.39925054 0.4432196
5.5516415 3.3310683 0.011456234
4.5632257 3.7544394 0.43628883
2.8809936 2.9193048 0.0026362671
-0.013760756 0.86207682 0.53958577
4.0131421 0.40997651 0.97251558
0.0045965463 1.4628582 1.5935212
4.2393813 1.4827887 1.7795529
1.1283193 2.812355 1.9995748
3.4129777 0.94421005 0.010731667
4.0041618 0.81368756 1.20977
2.1223142 3.3497679 1.0776863
1.119503 0.20791979 0.19905052
3.4197366 0.38084918 1.9942122
2.0546122 0.85500193 2.0071685
5.6580968 3.1650133 0.20811413
2.2229359 0.64373702 -0.0020882033
3.4398372 -0.0020030204 1.8443974
-0.0007024653 0.064290248 1.3076785
2.438693 0.65765524 0.0015358562
3.307992 1.5161685 2.0052154
3.6051254 3.6043248 1.3527277
5.7413912 3.3640683 0.7571438
0.52356213 1.7334684 2.0021734
2.8379135 3.2595308 1.9941126
1.9843291 3.3429284 1.0879494
0.86950159 0.16181225 0.19129096
5.876801 3.6916306 0.6110819
-0.00092290563 2.4758525 1.1263151
3.3977957 3.5956459 1.0975147
5.2536054 2.137176 0.67669731
0.0013941212 2.1585042 0.99571383
1.1108682 1.904424 2.007093
2.1284916 3.0785336 0.016521357
-0.0077666077 2.0320761 1.2500143
4.8878341 2.7441707 1.9994215
0.0095440848 0.19166088 1.1947474
-0.0046044448 2.0807128 0.96414417
1.9950159 2.6463747 -0.0098687243
0.46277475 -0.00060202961 0.80810267
0.6635294 1.1990401 0.01358865
2.8298047 0.71402782 1.9987001
0.60510069 1.0811765 0.013762732
5.5781016 2.9201138 1.121091
3.7462571 3.1785543 -0.003345957
1.3216338 0.21295562 -0.0038399952
2.2895114 0.0010784552 0.095157929
5.0284433 1.5665371 0.83208036
0.52425337 3.0845501 0.88426769
-0.004599195 0.84542143 0.41466272
3.0965359 -0.013748129 0.2143632
2.3581579 3.3827603 0.97309697
3.0000181 2.9178712 -0.0010467207
3.9935527 0.61270219 0.79133952
3.8291616 2.7017779 -0.012688553
2.3332782 0.56403124 -0.0038073328
3.4772866 3.5713453 1.9049941
0.40815976 0.092139758 1.2110554
2.7423401 0.50779843 0.49894103
4.0084591 0.01922684 1.3632628
0.50300205 3.0886614 1.5081842
3.3236325 0.67720824 -0.0044058659
3.7818394 3.2042201 1.9827614
3.5009351 3.5763183 0.36845165
4.0348582 1.2744365 1.0991615
0.28834051 2.148757 -0.00019546058
3.4707208 2.1952803 0.0068154172
1.8121976 3.1187685 1.9881648
5.4649391 2.673913 0.24744719
5.6791892 3.2161818 1.3849597
2.4796975 1.6432698 0.0026469675
2.351773 2.3230534 0.0073862071
5.9350114 3.8104086 1.554674
2.4533763 -0.013739992 1.9137065
2.2510099 0.42985889 1.9810365
1.4224669 2.475801 0.010188982
4.8608713 1.8647696 1.9990088
3.7755878 0.0068799052 0.077206597
4.8526831 3.4078491 2.0073769
3.8890865 2.2044864 2.0178647
4.8797522 2.0248363 0.012690778
1.5529147 2.5970573 -0.0088151973
0.74029166 3.1268027 1.5937998
2.9911685 3.5145216 1.114134
3.5428972 1.7399315 1.9863166
0.28779402 0.15678237 1.9894845
0.59009093 0.56610841 1.9991646
4.3995328 1.5088663 1.4816552
1.2980076 2.6571763 0.0077686934
2.8264842 0.52130324 0.78994226
4.3513427 3.7279661 1.3421348
0.88351375 0.1710569 0.63574195
5.3664923 2.4213755 0.028241761
3.3013511 0.62504488 0.69256228
-0.0005791859 1.7966659 0.62278217
4.6379838 3.7736602 1.8809916
0.18818487 3.0266507 1.9102093
5.1414227 1.8403163 1.2824262
3.145226 0.57510316 1.3527313
4.0008574 0.66608912 1.6639785
3.9976385 1.8978667 2.0167418
4.749589 3.0941675 1.9904016
0.0067325584 -0.0047731069 1.6273603
-0.00059476012 2.4624195 1.2794403
4.1528125 1.5026841 1.5774429
3.1504381 1.2468861 2.0154059
5.7705793 3.4030271 0.01012126
4.3927464 3.743032 1.6970661
0.72254008 0.020728068 1.533757
0.0054031396 1.6325481 1.8371842
0.28795841 1.1540831 0.0067009395
2.3418894 0.01455304 1.3941084
1.058622 0.29957098 2.0171511
0.00047649609 2.8748019 0.91868228
3.3859909 1.8794628 0.00016360884
2.6555614 2.2666907 1.998278
5.016469 1.5244799 1.3441199
4.5283127 3.7691453 0.45005843
2.742111 2.2747715 -0.00072205794
4.2829647 1.5078348 0.9650678
3.581434 1.3606634 0.0026384327
0.32369417 0.0060527963 0.65715373
2.3659799 0.002216843 0.92429453
4.6437397 1.4998213 0.69758588
1.9405377 1.3276092 -0.0071394951
3.2327585 0.94088632 0.0021880209
0.20778973 -0.007133808 0.54108661
1.5749079 1.7149174 -0.012325337
2.6749434 -0.0089370748 0.88712287
1.9243553 3.3136463 0.6637069
3.9140604 1.3543389 0.005923423
2.6344116 1.4084023 -0.0018991174
3.9422102 0.72075343 0.71748167
4.1829386 1.4770143 1.6317016
5.827436 3.9693985 1.7187129
0.36079052 1.5380157 0.0029668149
0.93839693 2.3649299 0.0062422254
5.1305652 2.7759717 2.0163054
0.99950135 0.24265273 -0.014712589
0.19664544 0.014316834 1.0076673
5.7377162 3.3855386 1.0170131
1.4117444 2.293169 0.0070014247
4.2538557 1.914434 0.0026641011
5.1055984 1.7717824 1.735703
4.7368693 1.5136422 1.7964528
5.1731286 3.861059 1.9756544
4.9002428 2.2498703 0.01420268
4.3750072 1.9616866 1.982814
3.8112838 3.635956 -0.010876582
0.25741944 0.045462247 0.58806968
5.579627 2.9657099 0.56874561
3.7830386 3.6412082 1.9159777
2.8760931 0.18921706 1.9929074
1.718704 -0.00042765192 0.73599148
1.5302247 3.2439809 0.44052678
3.3326159 1.3908377 -0.00137065
-0.0095914686 1.7687682 1.1458361
4.7151709 3.7993941 1.7202516
0.89489782 2.0527515 2.0030584
5.2318978 2.061034 1.5208861
1.4412563 3.2378473 1.6443564
4.3230152 3.6996675 0.51524442
3.8259704 0.74996811 2.0036719
2.7018988 3.4664938 0.41207239
4.6314158 2.837497 -0.0082577439
2.990499 2.6809781 -0.0048944373
2.8611412 0.53887057 0.65432096
5.2318416 3.355778 1.9927665
0.8181175 0.0092528481 1.1477969
5.939528 3.9781799 0.32270741
2.4827874 0.43529871 2.0129685
2.1818349 3.3557386 0.03899749
5.562932 2.8856261 1.5967366
1.300895 3.2184691 0.54696107
2.7839804 0.96185356 1.9989214
0.77747166 2.6682706 2.0071297
0.0044500628 2.7597194 -0.00054496148
3.9315012 0.24894734 -0.0012533357
3.6704929 0.68870699 0.93144464
2.8728323 3.4711351 0.010338712
4.1015177 2.6548362 2.0265715
3.6563118 2.4060822 0.007960205
0.0055679488 2.7696767 0.4403311
3.9413745 2.0176282 2.0032322
4.7624249 3.480119 0.0030758774
5.5547609 2.8919718 0.0007237799
3.8800774 3.462218 1.9955156
1.5322843 2.4592981 1.9900789
0.53679383 3.0976374 1.0342662
3.0752532 3.4743226 -0.024207087
3.625736 1.881328 2.0015476
1.3046194 0.017753704 0.26284504
0.078646772 1.4419976 0.0055452078
3.1212704 0.0083772531 1.1480049
2.3990643 2.1801555 -0.0071340245
1.6835965 3.2902019 1.5767972
1.9308254 1.0199823 0.0065513789
4.9672613 2.8031623 1.9864684
-0.0067283274 0.96043652 0.88962555
5.3304811 2.3150177 0.27383196
0.42343062 2.4391568 -0.0032666416
2.0211093 0.004892474 1.4410648
0.0046306998 2.536581 0.39619729
1.2662584 0.22981051 1.5657079
1.7419807 2.1438162 0.0023922522
4.1624403 1.5116661 0.56865156
3.7890909 0.72293556 0.38046616
2.225455 2.1128221 1.9877108
1.3702105 1.1810416 2.001919
2.7154605 2.9975526 -0.010980333
2.1243141 0.40176499 0.92989242
5.9366403 3.8405766 0.79861957
4.6686959 2.9305894 2.005965
1.4884813 0.38408786 -0.016311578
5.14255 1.839607 0.30830449
3.8948677 1.5389873 0.0095307194
5.0107093 1.7094089 -0.0053300415
-0.0052987523 2.5048692 0.31015611
3.8365061 0.56867629 -0.010239546
5.718576 3.9445586 0.19880441
1.081113 0.20592122 0.21573108
4.9162307 3.1850617 -0.0038346713
5.8804708 3.9875023 0.89207113
0.99749088 1.1818787 0.023265347
2.3623133 1.8641541 1.9948655
1.5655501 0.0073900581 1.6162672
4.8426538 2.9479659 -0.0078421487
0.49178723 1.3442096 1.9961008
1.3902136 0.66609108 1.9826775
0.69700813 0.25059736 -0.0005488731
-0.010808602 2.2270427 1.3792459
3.4223528 -0.018291844 1.4302052
5.0859671 1.7216514 0.87560111
3.8336806 0.70570928 1.2131809
5.1887856 1.964874 1.0498813
2.7962091 1.8303707 1.9885951
1.2358593 2.4709563 0.0066537061
5.5196414 2.8279011 0.55830395
2.9738641 3.0968716 0.0040680794
0.58890837 2.2828233 -0.00042693573
4.8077178 3.7980309 0.71645111
1.2610523 0.9328804 -0.0010973176
2.3327162 3.3978209 0.2492542
4.4338431 3.7392123 0.049839176
3.4670706 1.7602518 0.0032555906
3.8588569 0.56455106 2.0158782
1.9550807 0.36132804 1.7765092
2.2377276 0.42697597 1.7084581
3.2803969 0.62335902 1.4251699
4.4205279 2.792171 1.9889256
0.54006582 2.1554048 1.9920921
1.1190567 1.6998022 2.0046775
0.011232362 2.2120588 1.5530396
4.0271258 0.62851667 1.1329654
2.9822075 -0.00069725449 1.288114
-0.0090811346 0.14879008 1.3194729
0.0029425854 2.1989114 0.50971097
2.435986 0.46081924 1.2034225
4.0110106 1.1065742 1.2961024
4.0264082 3.6639042 1.2532445
3.9113879 2.5480652 0.013468774
1.5257317 0.2858997 0.85665327
4.5631199 3.660398 2.01331
5.5484414 2.822155 1.5992512
-0.0045460593 1.7816677 0.44070944
1.6747296 3.2772498 1.2206925
3.5178721 0.0046044663 1.8733361
4.1940317 1.4891262 0.38958392
4.4699645 1.5209061 1.5358945
4.0603867 3.6686015 1.8312523
3.6721728 2.2480519 1.9944782
2.7010283 1.7504729 0.0059923409
