# .PCD v0.7 - Point Cloud Data file format
VERSION 0.7
FIELDS x y z
SIZE 4 4 4
TYPE F F F
COUNT 1 1 1
WIDTH 1562
HEIGHT 1
VIEWPOINT 0 0 0 1 0 0 0
POINTS 1562
DATA ascii
0.46789065 1.1222663 0.36293048
5.5631423 2.0811665 0.92865402
1.0191088 1.4303318 2.2040827
2.2028668 3.1531053 2.2028215
6.0070515 3.3807704 0.20643486
0.45670101 1.8048192 0.84315544
4.4485598 0.22886488 1.5771192
3.857928 2.6945629 2.190243
6.2746568 3.9560394 0.2015204
5.8266783 3.5855939 0.21655275
2.608572 2.4614794 2.2060068
0.78080899 1.9062804 2.2094922
2.3630023 1.1436168 2.2107925
2.8887656 0.1831384 0.30098403
4.0680099 3.8207326 0.55901867
1.0576899 3.2477741 1.6649435
1.9640968 3.4040427 0.99307287
4.8356009 3.9829347 0.39646852
5.6697383 2.3597608 1.3619413
1.7604269 0.90827197 0.20528121
1.2876214 0.1187081 1.8861115
4.8593121 3.9839971 0.56058669
0.60630161 2.2311232 0.20989576
1.3385024 0.12456866 0.76406395
6.1778584 3.7827857 0.87926775
3.938962 2.1818702 0.19830881
1.211501 0.89591593 2.2024138
2.2369366 0.16183797 1.6919861
1.3948219 2.094425 0.18700936
0.42746836 2.4859385 0.90277719
1.6963407 3.3560436 1.1657013
5.9360814 3.0684059 1.751919
4.9614234 2.0245178 2.1917078
0.60645896 3.1333327 1.8042802
0.87549865 0.73200214 0.20595865
4.4666061 1.7321198 2.0505269
6.0796785 3.4634261 1.6970364
4.4875712 0.30271658 0.5541414
2.2954473 0.16382894 1.9460739
6.1859841 3.7795267 0.68365514
1.6588193 2.3508902 0.18270305
3.0067554 2.6779416 0.1899932
2.5013871 3.5121028 0.34839976
0.47935507 0.92931706 0.93169582
5.9846144 3.5759845 2.2074013
1.5973856 3.2074573 0.18691425
3.5238285 0.6725263 2.1901343
5.0255032 1.7502321 0.60994941
1.054064 0.11190289 0.49622291
3.2358768 0.71126634 0.82406539
5.3955932 1.7626858 2.170068
4.238452 0.21718147 0.72396314
5.8832731 2.9290621 1.6250266
5.2684135 2.957068 2.196826
6.2021117 3.8412588 1.3239242
4.4520149 2.4999247 2.2121038
4.4617529 1.4896077 1.5728036
3.1979661 0.68928301 1.5954863
3.7471275 2.0689378 0.21705678
4.2422199 1.6994606 2.2072887
5.2799416 3.5638361 0.21661797
2.1239038 3.4191568 2.0141327
3.4533591 3.7120814 1.6125464
2.6863463 0.46078387 0.20605968
3.0625908 1.3147017 0.20019463
1.3850132 1.4903846 2.2167635
0.55767828 0.09693253 1.1129721
2.5368998 0.53820109 1.8204823
1.3857225 0.12918808 1.9622251
2.1904161 3.4481711 1.8073599
3.9113421 3.6200249 0.19525491
2.1720576 1.6438206 0.19772711
6.2520647 3.9316273 0.20349157
2.1150966 3.4340706 1.4576769
0.91109383 1.1759529 2.2066648
3.9318502 2.6005945 2.1867332
4.3940449 1.5635074 0.18791398
5.4366097 1.7397567 0.70837909
5.8724289 3.7889814 0.20657055
4.1027865 0.89753431 0.19764355
4.7223296 1.7407789 1.6471916
4.3023443 0.43922302 2.1925473
0.50778538 0.33397779 0.53043425
4.2110782 0.92626798 1.6299474
2.5824668 0.55545539 0.69724381
3.9600911 0.21228381 2.2084932
2.6486847 3.5514088 2.1123512
2.1055722 0.46445829 0.92300075
5.1579175 1.9829552 0.20628026
3.2680998 0.71275842 0.78839374
4.4873843 0.42941961 1.4077097
5.9764748 3.7235103 2.1980057
3.2905593 1.7325218 2.2179575
5.601737 2.1708755 1.3295058
4.8418407 2.4481058 2.1946356
0.48001608 0.97279638 1.461511
2.4751449 2.1907301 0.22356245
2.6443458 1.7141979 0.2027597
0.48610175 3.1030693 0.47730416
3.0304065 3.6254938 1.2545571
0.83706105 2.0612981 0.19530129
5.8113971 3.7562478 0.176341
3.5836256 0.78872341 0.46390927
1.5215669 0.25031942 2.1778123
1.6984881 3.3614521 0.38120002
5.532402 1.9888899 1.1662322
1.6320877 2.2061837 0.18878764
2.7056069 2.7209537 0.1949252
0.45496166 1.7318487 1.4863513
2.6386955 0.55773532 0.80395871
1.5819705 1.1866921 2.2046807
3.5017149 0.74987727 0.79540163
0.88870859 1.7250755 0.18491605
1.0493016 3.2143862 1.833198
4.4630475 1.5599338 2.1925166
2.7260988 0.58778059 1.5689688
4.4630513 1.3701953 0.49282289
6.0415878 3.3656275 0.31707591
4.4296274 3.3432817 2.1961567
4.4538107 1.4507 0.25811118
3.6158535 1.6571617 2.1945946
0.61443907 0.11680092 0.21953256
0.45270783 2.1642759 1.4464606
2.2848129 0.1544151 0.56510746
4.4812875 0.89629841 1.7655114
3.2965722 2.5892744 2.1915474
2.647702 0.87175357 2.2080307
2.5492992 2.2229397 2.2113531
3.287127 0.70892316 1.3506782
0.92913872 2.0206351 2.207648
1.5979398 2.1478031 2.2203004
5.4727974 2.2336473 2.2053139
5.5222101 1.95518 1.7233566
0.76909399 0.97191042 2.2175627
1.6376562 3.3225906 2.2011225
3.0089002 2.8615835 2.1982751
6.1024895 3.6549938 2.2170167
4.1135268 2.8225958 2.2061865
1.08004 0.114629 0.19769435
5.2633481 1.7572951 0.63962138
4.4802508 0.22817433 0.81260371
3.114805 0.69328207 2.0481577
4.6043811 3.884115 0.22056225
3.2371964 1.9691699 2.187125
4.3500004 1.8007213 2.203912
3.4240401 1.8039616 0.2144403
1.8886431 2.7773581 0.18808688
1.5145462 0.33159664 0.32618412
3.4941304 0.76632029 2.0980458
0.40701669 2.8787141 1.6590173
0.4973436 0.36847895 0.83486396
5.0043464 2.7930379 2.1993001
6.0548549 3.4515083 2.0196536
2.0957766 3.4371805 0.80478692
5.8783717 2.9174056 0.28665289
1.6226904 0.13723771 2.0326643
5.3920875 2.6604362 0.20231937
5.6578407 4.1397038 0.65721887
6.1505952 4.2387314 1.9787526
0.42992181 2.5321524 1.7580355
0.49463302 0.6117245 1.4072862
0.84816986 0.11351054 1.559998
3.2598863 3.6595743 1.8874803
3.8044419 3.7742138 1.3669649
5.65663 2.3284721 0.37400955
1.5639745 1.6454102 2.1977658
1.5908847 3.3220019 1.1214198
0.67675412 2.8731472 0.21885471
1.279474 1.112919 2.1943035
2.1139295 0.936297 2.1898255
0.52370733 3.1375227 1.3218335
5.3843913 1.7401434 1.9907316
2.2034767 2.2590678 2.192754
3.8570781 0.54878896 2.2080107
3.8456049 0.20570004 2.2089748
5.0497513 4.0269904 1.4247482
1.7341653 0.14334758 0.20570011
1.3390161 1.3456132 0.19536351
4.4804802 1.9906952 2.2012248
3.5957992 3.7442071 0.64239931
2.2464147 2.3263686 0.19205165
5.8973017 2.9890883 0.34395713
1.7028271 3.3565874 0.51401848
5.6962686 2.4204772 1.5415176
4.4551077 3.8992636 1.2862455
2.8420999 1.8003106 2.1948841
4.6453514 3.9503872 1.431779
6.0602212 3.439327 1.7543089
0.83261251 2.7655985 2.1922615
5.5058184 4.1093707 1.9300246
1.4455944 0.31457281 1.0542911
5.7784486 2.7238028 0.81960696
4.6071863 2.2054024 2.2030261
4.3625832 1.771633 0.19285142
1.5692217 0.20273452 0.19972809
0.77273774 0.26833341 0.20652741
3.6149604 1.0461454 0.19807133
4.2679424 0.23288104 1.3910757
5.4734592 3.2837024 0.208719
3.909744 0.49581239 0.198155
3.5675404 0.19434571 0.33409199
1.1232153 3.2484384 0.74678445
4.0118237 3.8066707 1.6148139
0.87957853 0.10682712 1.9957892
3.4947622 1.7994779 2.2038352
1.5359037 3.3243809 0.89761972
1.8478785 3.3819156 1.8776008
4.3412294 0.21190131 1.4760712
0.42127323 2.950721 2.0118322
0.48729765 0.44351745 0.3500402
4.0010753 3.0750141 0.20247753
0.46392995 1.2095252 1.4466798
6.0109382 3.2836516 2.1817372
3.3890049 0.83717531 0.20924157
3.872556 2.8764074 0.2056095
4.8253899 3.9912348 0.43240997
2.1235702 0.46498141 1.4157642
5.7509437 2.6399691 1.3282959
2.4232512 3.4948437 1.3821696
5.2305098 1.9468136 0.18292604
2.1479435 1.0538673 2.2046881
3.2236199 0.70467889 2.0443194
4.4812937 1.082373 0.40458137
0.41582334 2.6011114 0.49441636
3.354542 1.6725196 0.20657238
1.2102199 0.12628628 1.0328898
1.206849 0.24183169 0.46548569
0.76571071 0.15726787 1.4631941
0.40797779 2.9128349 1.7490681
0.93127489 0.11553944 1.9263222
3.102334 1.8105681 0.19478807
1.2680774 0.13488942 1.5413095
1.8767688 1.312685 0.20745844
0.50722891 0.11075644 0.45967638
3.796376 3.7703893 1.1672772
3.3006675 3.6612208 1.8072568
0.51406538 2.2993054 0.20100471
6.109828 3.6094086 1.8703115
2.6403561 0.57974392 1.0176648
3.3812416 3.6871006 1.141919
2.3702388 0.16602483 0.24455026
1.3621929 2.3965812 2.2028439
2.8204367 0.1802789 0.83451343
5.6020775 4.0385966 2.1975002
6.0696335 4.1305289 2.1976905
5.2598495 1.7409828 0.90361142
3.1233621 0.59438503 2.1709599
0.47876793 0.74983597 0.34566125
4.8570089 1.7409784 2.1164076
1.2196722 2.1283016 0.20328653
3.5210252 0.79005641 1.1399261
4.3276443 3.8813632 1.2363873
1.3201092 3.300514 0.77841002
5.4096761 1.7470614 1.6561995
1.6886727 0.13732345 1.171366
2.9312 1.9526128 0.19297484
5.794858 4.169384 1.5099921
5.0987086 4.0320134 0.24983531
3.2085147 3.6673641 2.003284
4.4593334 1.0515599 1.9207431
2.0327187 0.4482232 0.54204601
6.0379739 4.2095928 0.70570922
5.9597039 3.1495969 1.8166205
4.0441837 0.2149896 0.4861027
5.8805981 2.9181409 0.55252743
1.0310581 0.12096636 2.0417061
4.9899163 4.0198641 1.9023569
1.4907657 0.33446753 1.4256039
1.5146893 2.5815976 2.1928308
1.592382 3.3364077 1.1449832
1.4897773 0.61010295 0.20522125
0.45890445 1.5815848 1.6960196
5.4651346 1.8398131 1.9640052
4.708786 3.9368322 1.1321319
1.6422378 0.11881063 2.1153378
5.5875897 4.120955 2.1800854
0.99020821 0.18546601 1.8537176
1.1384838 0.35969797 0.20623612
5.9953775 3.243068 0.85489887
2.5124309 2.6852095 2.2130401
2.3516631 0.49571422 1.608346
0.58005905 0.10286177 0.58233881
3.5050437 0.19823071 1.8509392
3.0518188 2.3851368 0.20106758
5.1266952 4.0357618 1.791338
0.97129881 2.4314024 0.19231372
0.73778349 0.15328524 1.4557217
1.7669456 0.3795076 1.9424816
2.6193225 2.9995863 0.19159523
0.4533658 2.1750567 1.2820247
2.1505933 2.3185172 0.20315461
4.3583784 0.97084564 0.79554635
1.6658151 0.9397437 0.18966416
0.5126856 0.085385635 2.101639
1.9254166 0.39552224 0.74779153
1.96209 2.5771575 0.18546017
0.42906857 2.3930242 0.42925084
5.0489473 3.4438117 0.18967184
0.87045276 0.12022264 0.45827538
2.2547991 2.1655359 0.1876379
1.4860137 2.2968447 2.1831603
5.5709348 3.2116401 0.21164474
2.5409303 0.54628652 0.61715138
4.5841265 3.58249 2.1926932
1.9611799 0.7253772 2.2186878
2.0616913 0.44166359 0.65802872
1.8239515 2.6989002 2.2024415
0.4795447 1.03387 1.0035254
3.579093 0.78698123 1.9113305
3.4700758 2.2481215 2.1915259
2.1530766 2.3729446 2.216095
6.184433 4.2552595 0.38199353
2.0691779 0.14511018 1.9461355
6.3002539 4.1047802 0.19099912
5.3351622 3.5832956 2.1944425
4.3191833 1.4920413 0.20996372
0.4378134 3.0973711 2.2050617
4.1081524 3.6968625 0.20552868
4.5185709 2.3004193 2.1907222
1.9732109 0.2531012 2.2047327
1.2062584 3.2528818 0.37381417
1.3191277 1.1630806 0.17205505
0.45388466 1.0911133 1.7624443
2.8909941 0.61298835 0.86693394
5.1967325 2.7786 2.2109632
2.5680552 0.17341617 1.6823133
0.81388927 1.4090067 0.19657229
0.45012891 1.3053157 0.53644675
3.5178783 0.76580417 0.90241671
0.46947604 1.1109743 0.21000247
1.9689475 1.8254687 2.2076986
1.8711491 3.3828495 0.52787822
0.69583577 0.11645964 1.441954
2.2174563 2.4402578 0.19691345
3.0875418 0.19573724 1.7466363
5.2368441 2.0362425 0.1965538
3.9839747 3.2832468 2.1943018
1.4224827 0.13682808 1.6050909
4.0509815 3.8329523 0.85548246
2.8755844 0.18227524 0.84704518
4.4770789 1.5984359 1.1327869
0.46582508 1.6770186 1.4361646
2.979418 0.73980135 0.19764526
2.5542753 3.5205836 1.444854
0.4866935 0.50212598 1.0098155
5.146903 3.7664044 0.21105745
3.3419304 0.19648288 1.2429162
6.2497358 3.9145246 1.5951519
0.46238354 1.219304 0.85627669
5.0949922 4.0321407 1.1702375
2.4957528 2.6338427 0.19852775
2.9990625 2.8030701 0.21134154
0.54007322 2.6374557 0.21059957
3.4796517 2.1938055 0.18709269
5.7104058 2.4464297 2.1723101
4.3644409 0.22083938 1.0751338
2.8841445 3.5946035 0.46861011
6.2361712 3.9300213 0.87501377
3.1030648 3.4662528 0.19795957
2.606308 3.4896312 0.19232807
5.9353099 4.2277198 1.5031413
1.5294147 2.3170316 0.21113825
0.49967262 1.6744829 0.21387325
4.7972317 1.7382917 0.84725457
3.9943047 3.8184192 0.36966389
5.8866186 2.9714663 0.34174174
4.484971 0.98165113 1.4348093
3.2188993 3.6701939 1.2504579
1.7264029 1.8456976 2.2003579
2.5169704 3.4702814 0.19110239
0.43256092 2.2587092 1.2794781
5.7680664 2.6142645 0.67070055
6.226913 3.8720422 1.9322156
5.6657405 3.0442557 2.2006655
4.4727259 0.37465146 0.67660856
3.4444649 0.94816893 2.2043245
4.4039631 3.8884246 0.44777203
3.4576259 0.36546031 2.1916094
2.9403329 3.6180382 1.575035
5.4481864 4.1157165 1.347038
1.2435066 0.26526859 0.72746509
4.8176188 3.2279959 2.1980989
2.3614416 3.4832876 0.48950016
2.3844156 3.4944248 0.68489641
0.58959144 2.5191715 0.19822191
1.5156755 0.32792836 0.54204351
5.6155658 3.9261642 0.18592323
3.4908125 0.73532528 0.27089193
0.94349658 1.4010322 2.1878583
1.2179973 0.25294039 2.0468438
3.7189188 3.7764111 1.9816251
3.963824 0.19678189 1.5727321
6.1351075 3.623466 0.47908509
1.8415322 3.3702435 1.0570471
3.2618546 0.20070729 0.38317889
5.8630838 4.1714568 2.0378814
4.7342753 2.5908797 0.19703317
3.7120843 3.7556725 1.8337322
4.8031735 2.063787 0.21042909
2.3517542 0.15185213 1.096813
4.1634026 0.51537281 0.18443772
4.0301714 0.60790509 0.20498267
3.520102 0.56116384 2.2014143
0.48605287 0.4174431 1.2521805
0.50078815 3.1083608 2.1359394
4.3557 3.894336 1.3853809
1.6300503 3.3358552 1.1158642
5.1541877 1.7293663 1.8293176
4.4510098 0.36076996 0.19572079
0.48218372 1.072436 0.54658079
1.8100495 0.14943522 2.1358063
6.2548246 3.9381521 1.6130482
5.6084218 3.507308 0.18940136
0.69961864 0.13791624 2.0582302
4.4977217 0.30334219 1.2657337
4.4968071 0.58306032 2.0571301
1.7038203 3.3595603 0.86735523
4.5593314 3.1790748 2.1977932
2.3055987 0.15404332 1.0292889
3.5600665 0.7758292 1.2422146
0.55470526 2.5273185 2.196655
3.608696 2.4190245 2.1822512
5.517148 4.120132 1.3478986
4.320188 0.94020128 0.3385323
5.9072199 3.3943501 2.182925
5.2309914 2.8880842 0.20927481
5.9487138 4.2046933 2.1220422
0.68309915 3.1375394 0.89965701
4.3768778 3.8770847 0.20193325
4.891767 1.7456002 1.8229711
0.74561596 0.1608156 1.2412757
5.2430201 1.7428257 1.0030878
2.3312955 3.4714108 2.1920581
5.8993754 3.2336466 0.19021411
2.3861146 0.46834317 2.2205412
1.5363824 0.3388395 1.8463572
3.6559584 2.4609699 0.21501213
1.4780939 2.3321757 0.18541543
4.2636175 0.21505325 1.2166247
5.3139229 2.719954 0.21887212
2.0905457 0.46009284 1.8990213
3.699151 0.70895457 2.2120113
2.3963165 0.15086253 0.47838521
5.8818245 2.9273033 0.86435562
4.0667906 0.88159037 0.50172162
0.43710387 2.4344618 1.9790392
5.8120022 2.763119 0.29453033
0.43973625 1.688699 1.322486
2.4957008 0.27739865 0.20789982
2.9697881 0.79585326 0.19962046
3.8635223 0.67246443 2.2043126
0.76065207 2.3957882 0.18652219
3.180371 0.45971996 2.1965857
4.6682687 2.8899267 2.2019861
3.8542848 1.9970131 2.1952732
4.9100456 3.9869251 2.0157607
0.43577316 2.5675509 0.25699788
3.3416979 1.1272653 0.20306385
0.41626862 3.0430758 1.1461104
5.3318191 3.4334581 0.17494503
4.5145488 0.51040798 1.7356579
0.4865272 3.1107531 2.1911883
4.4856796 0.553985 0.90713185
5.7662721 2.7460077 0.20349948
0.42843407 2.6236389 2.0279224
0.48540902 0.22097948 0.49549264
1.4353526 0.13081792 0.88461632
4.705791 3.5662084 2.2056122
3.8428659 3.7846153 0.92189962
1.0049825 2.011641 2.1989641
1.8908309 3.1340814 0.19323274
1.3443587 0.12151163 0.50978112
3.9327841 1.2856476 0.19301747
4.797627 2.2883816 2.2083328
2.1246793 1.4613303 0.20096342
0.73542988 3.1604397 1.9628386
3.6260755 0.21347672 2.1240442
1.4775565 0.47481966 2.2011969
3.0636277 2.2020442 2.2098722
0.93811709 1.1452346 2.19999
0.43021712 2.3374212 0.99044752
2.704812 3.5698259 0.86053556
2.0717649 1.4619399 0.20016234
5.8424025 2.8063366 1.7884692
0.62859017 2.9634671 2.1974983
5.5523095 2.9699922 2.1978776
2.7516024 2.9455028 0.20042267
1.7334154 0.15922286 1.9850515
5.0774446 3.6570368 0.19457258
5.4712029 3.1563191 2.2109373
0.72287714 0.14771464 0.29470339
1.3913181 0.12752461 1.1497576
0.47488517 3.1244841 0.27738023
1.5408171 0.12208731 1.3509871
1.5303428 0.32385042 0.85907906
3.8253622 0.82095104 0.74588966
4.0444756 1.6372331 0.20028782
2.5638387 0.16082233 1.6689996
4.938642 1.731482 1.1715156
0.4805218 3.1051183 1.2424291
5.0956869 1.747323 0.6220113
4.4556794 0.79352915 1.6496431
4.2591925 0.92680144 0.72693968
4.4937544 0.47194877 1.6540736
5.3993545 2.9989173 0.19223127
3.0419004 0.64463866 1.4276407
2.8123434 0.60590786 1.5174209
3.6397178 3.167794 2.2088807
5.3288093 4.0912623 1.7676564
4.5185943 3.9380217 1.7776212
4.640501 2.44379 0.20157367
2.8133202 0.94933134 0.20201908
0.96834582 0.84264457 0.19995196
3.0057473 0.65573442 0.93729204
3.4801528 0.19381675 1.2145593
2.242311 0.55430496 2.2055118
4.9044194 3.0223899 0.19039652
5.661912 2.3428149 0.58722442
4.157053 2.6396763 2.2063363
1.7864033 1.4002888 2.2025702
0.75397623 0.16145012 1.9237372
2.2031176 3.4711442 1.9045526
1.6837159 2.6535871 0.20433088
3.3421042 0.1910321 1.2444326
5.4885297 4.1041756 1.7193241
0.49613872 0.22527337 0.77328563
4.485301 0.92014194 1.7297461
2.8031445 3.207916 2.201236
3.9800675 1.3874133 2.2002096
1.0218507 0.1084427 1.0821592
0.45394164 1.7703536 1.0977093
1.2855046 1.7570355 2.1923409
5.6692586 2.3137114 2.1190417
2.1965299 3.4560254 1.8815333
6.1029916 4.2409763 2.1664481
3.7371576 0.87856615 2.2150793
0.47753912 0.69757718 1.5170832
3.5032735 0.75907558 2.0727866
2.658772 3.5705013 0.39218056
4.1958036 0.90803301 2.163692
6.3231983 4.2748866 0.53986132
4.4972935 0.70970911 1.3491751
3.1333051 0.54159677 2.2043164
5.791328 3.5210106 0.20548509
0.61089611 3.1363642 0.85512531
4.7721901 3.9581461 1.4159609
5.7354426 2.5139596 1.223713
0.4212693 2.1364682 1.0200599
4.4913669 0.71094215 1.2001551
2.8745134 0.84175909 2.1978748
3.1283946 3.2257788 2.1932232
0.83199883 1.9268491 2.204813
5.2994366 2.0331893 0.1905067
1.5924548 0.32557294 0.33693081
5.1246104 3.286864 0.18895917
4.4022174 2.6492298 0.19398595
1.7538468 0.3686775 1.6369426
5.9153423 3.827116 0.19448926
3.7852714 1.2032732 0.20708035
1.0957832 3.220686 1.091629
1.3685131 0.83318812 2.1940048
4.9484596 2.5924053 0.2192506
1.744626 3.3714676 1.1179234
1.7955945 0.39497614 0.55954129
2.2485461 3.4509008 0.318555
1.4622657 3.310782 1.0434877
1.9901891 2.182375 2.2007327
0.46221793 1.391677 0.44108963
1.2677253 2.7301326 2.2032368
4.5475693 2.3333356 0.18847582
2.2823467 1.2547289 2.2200346
2.4188561 0.53354287 1.5147477
5.9176502 3.0168729 0.33549494
5.5687585 2.0929885 1.0834824
4.2226391 1.285 0.19584656
5.7237835 2.5160217 0.65560776
0.90157378 0.17347074 0.87632209
3.5074706 2.1832347 2.1975911
2.2061901 0.49113062 1.4598888
2.7383583 0.42586762 0.20136613
0.99227458 0.19101816 0.26621324
3.3445725 0.77718174 0.19425982
3.5680931 3.2664566 0.20152871
5.1409521 4.023037 0.23455791
4.5109921 3.5099125 0.19833583
5.0313625 4.0239754 0.67082989
5.5589695 2.0485251 1.229838
4.5541763 2.7290397 2.2071426
4.7264194 1.7087247 2.0198944
3.1265776 1.4777082 0.19032218
4.0954766 0.90475607 2.1494739
4.5937252 3.1301541 0.19400521
6.1513405 3.6295137 1.3139782
0.45489997 1.819906 0.46847373
5.9190607 4.2066994 0.81829882
1.2136457 0.24513635 1.370519
3.8807578 3.7837193 1.40245
5.5674505 3.4755764 2.178472
1.8101164 3.3903005 0.30179021
1.074617 3.2094867 1.2460963
4.8091106 1.7365363 0.94458592
5.9363494 3.2579863 2.199192
3.7858031 0.19198459 0.34970635
0.65393651 3.1521318 2.0295486
5.8585992 3.3399434 0.21563996
1.6470585 0.32440323 0.52607661
1.4234961 1.519015 0.20300947
1.3003099 0.30229855 1.4048043
5.1526361 1.8527659 2.1969578
3.8232269 0.71991932 0.20562786
2.6969512 0.98064488 2.1860549
3.4502368 0.73861933 0.98150522
1.4766874 0.30589649 1.051672
1.6977484 2.5796318 0.19617742
4.473114 1.4100338 1.3538799
6.3182669 4.2763085 0.97596359
3.8964367 3.7856395 1.673725
1.8413523 2.6602128 2.1860938
0.40921512 2.3183365 2.0697105
5.2247567 4.0490384 0.26430458
2.1529274 0.4593969 0.57790774
4.6865611 2.7014141 0.2101274
5.0629206 2.5777397 0.19410853
4.5719562 1.7377764 1.4680384
1.5511415 0.14711604 0.9773767
5.4942665 3.9962084 0.20786564
0.47028458 1.5020981 1.9657938
1.7271894 1.5166107 2.2022939
5.7007027 2.466125 2.0735431
2.4874821 1.1021774 0.20019689
4.0541382 1.201372 2.1890001
0.60418254 2.958003 0.20112973
1.8435138 1.5142529 0.20711552
4.2815218 0.93163079 1.4849888
0.78100103 0.50676674 0.2025556
3.1820543 0.67065126 0.98044509
2.1670122 3.4298143 0.89774787
4.4029846 1.6622696 2.2109241
0.495334 0.35552737 0.44862694
0.79255539 1.1836368 0.20598985
2.4559331 1.6998748 0.20052141
4.2246175 3.8497875 1.9604309
6.2262955 3.9098942 0.41435185
0.42976487 2.2976646 1.6041189
1.5966742 0.15311204 1.0039434
4.1956129 2.5228672 2.2038987
4.6035872 1.7413598 0.60064703
1.4377224 1.7100064 0.21479446
5.0413551 1.7420237 0.63917667
0.53210819 3.1322844 1.5312064
2.5846 1.7676475 0.19455004
0.45364779 1.2970546 1.9971513
6.0542502 3.3937154 0.76924217
4.2944698 1.4598012 0.19234307
3.4120386 1.7617939 0.20355111
2.416918 2.7076073 0.20041233
4.1184835 2.1756139 2.1977119
1.5442835 0.71081632 0.21768364
2.1995735 2.8653672 2.1953549
4.2473154 0.2282896 1.0246106
4.7735009 3.9724085 1.927408
0.6645534 0.10169137 1.514985
3.1883366 1.5949057 2.2057171
3.9053066 1.0051199 0.19664373
2.3984895 0.58816355 2.2063406
1.616973 2.9913421 2.2113836
1.6020281 0.32050011 0.65498823
3.0182567 3.4226346 0.2020641
5.7111945 4.166369 1.0684488
3.8322747 0.81669551 2.1034346
5.5731792 2.089643 1.076339
4.8547235 1.7386185 0.37636089
5.6256223 3.7963865 0.19534707
5.1342411 2.7009194 2.1932821
1.5697733 2.914912 0.21782511
5.5764718 2.7622194 0.19679695
5.4672341 1.8300118 0.25143212
3.1495342 0.71288264 0.1914209
1.7371062 0.37292412 0.62949258
4.0399885 1.0814989 2.2092304
0.98358798 0.26546696 0.19249928
3.6329181 0.19564898 2.1413624
0.96309197 0.11184341 1.6547288
4.736589 3.8542566 0.20723154
2.8717017 1.521183 0.20125085
1.4843888 0.31399849 0.25855431
2.4095974 1.8828449 0.1651849
3.598798 1.0673181 2.2080121
0.49466518 0.11631823 0.99375719
2.3634593 0.50088948 0.49848437
2.5093286 3.5232737 1.5770298
5.8670669 2.8769312 1.6784453
1.0927169 3.2371452 0.72099829
3.7566226 3.7772586 0.46150762
1.9474549 2.658776 0.21395257
5.6838303 4.1536207 0.33466768
2.5606132 1.1066734 0.20047826
5.8130221 2.6914792 0.69664633
0.66792619 0.13268462 1.9494451
0.90716851 0.10748056 1.7223809
2.1331606 0.45515165 0.31297481
3.1581421 3.478009 2.2039137
3.1433721 2.0718386 2.2221518
0.72543621 1.8980647 0.20907253
2.3456802 0.49696657 2.1652467
2.1866395 3.4651904 2.1428938
0.47629675 0.89371938 0.68986791
1.4189506 0.33878243 2.2140493
2.3762879 1.6180263 0.19868939
2.1038804 0.54228169 2.2020602
4.4681597 1.6819253 0.54614234
1.5182306 0.13157356 0.42426109
1.5764681 0.35211077 1.3833994
1.9051569 1.3244295 2.1888168
0.48621896 1.0567933 0.43296811
3.9159973 0.30806735 2.1870544
3.5880373 0.78291684 1.3907416
3.4072452 0.20060875 2.0396571
0.40539375 3.0450895 0.51420552
3.9123542 3.2375937 0.17716892
1.4197702 0.30639187 1.2482555
4.9511671 4.0027699 1.507953
4.5090966 1.7189009 0.44595635
4.4790492 0.50408196 0.53966409
3.0980124 0.23055074 0.19620673
4.4873867 0.79406989 1.6438828
0.44913352 2.0138776 0.96124965
0.46412826 1.0507474 1.64306
2.6238403 3.5478613 1.0609736
0.46789098 1.6342999 0.91842628
3.2129352 0.18784858 1.0135107
0.47756898 0.77210075 1.9699643
2.7580078 1.7968123 2.1886656
0.87513769 0.51861024 2.2094326
3.877636 1.1734915 0.20607603
4.2691374 0.65230256 0.22406892
1.3456397 0.29104567 0.86269623
0.48269379 0.64019883 0.18382059
1.0684083 3.2557399 1.5579391
2.0687773 0.8333419 0.20817369
2.9251037 0.93805951 2.2020102
1.1856042 0.26143718 0.21506779
6.1073575 4.227489 1.2825583
2.5607822 0.26214734 2.1991723
3.4565139 3.32323 0.19147895
1.0622993 2.8671618 0.17958485
0.86850137 1.9876833 0.19187149
0.41929632 2.7617073 0.85265434
6.1941719 3.8397548 0.19569308
4.6753221 3.953377 0.94212085
5.5367022 4.1266074 1.6380538
0.47482422 1.0863314 1.8521862
2.5549266 2.3520539 2.1866858
0.72107089 0.16791224 1.1766576
0.44967201 1.7828139 0.67626423
2.4955029 1.5060304 0.18817917
0.43930227 2.7911291 1.3706304
3.0344224 3.6352649 1.2823446
3.4954722 0.78441489 0.50374174
2.7994814 0.79914445 2.2118084
0.84715158 0.90266562 0.18915004
4.0060344 3.5395496 0.19974957
0.81520259 0.18827428 1.9427015
0.39792287 2.7892466 1.7260909
0.46159357 1.4923366 1.3044571
0.46312603 0.82095468 0.19175
4.4780169 0.66824889 0.32200664
3.0268955 3.5893605 2.0718715
6.3595533 4.2122221 1.2038867
5.2592254 1.7934248 0.19010314
3.0640218 0.16992515 1.4042896
3.8219628 0.81067795 0.34910551
2.3662033 3.4353447 0.1885701
0.41637051 3.0151451 0.40513745
2.6687958 3.5531631 0.82317775
6.0425262 3.3728073 1.7304282
2.2835741 1.1120785 0.19076446
2.2933121 3.4172587 2.2103004
4.4659338 0.97273451 0.52308226
0.90460795 0.11310954 2.1908948
0.49043447 0.56135958 1.25535
2.2645421 0.15180853 1.3652918
3.0699027 0.98300701 0.19739276
5.4197378 4.0980916 0.50908726
2.1866384 3.4482653 1.4719789
3.7657788 2.762537 2.2037239
3.876585 0.33140436 0.19851694
3.9466166 0.85634315 1.5981718
2.3552966 0.16127802 1.5416414
1.5051396 1.6451403 0.1839501
1.2228914 2.1894338 2.2041576
4.4684372 0.97484136 1.3277597
0.47099954 0.73542923 0.33921865
3.5114312 0.19525826 1.1825638
2.2421122 3.4708979 1.4506657
5.5136805 3.9442058 2.192179
1.4722486 1.2699468 2.1797197
3.650667 2.3208547 0.19586456
4.4647288 1.0349894 0.46691638
0.42733184 2.2873433 0.75730902
3.3948781 0.65004474 0.20229362
1.8206058 2.66787 0.21631505
3.2461426 2.055362 2.1853538
0.40761819 2.8185108 0.94287121
4.938952 2.3499322 2.1890464
5.781199 3.9938033 0.19017728
1.8131149 2.0388083 0.20748784
0.93752348 0.11330944 1.4822329
1.6205373 0.34817886 1.4297336
4.5069304 0.30711797 1.7285879
5.5849824 4.1500139 1.9615124
3.7923777 2.9118237 0.19745767
4.5655394 3.9446321 1.2981797
5.283483 4.088522 1.3364418
2.0396531 0.87072128 2.1926692
2.3611517 0.49168071 1.2610072
4.4583426 1.6589189 1.3738943
2.7043927 0.82457566 0.18708208
3.1053851 2.0683067 2.1962478
4.431066 0.45019329 0.20819154
3.3004708 1.3892037 2.1882763
5.6469822 2.3361042 1.9624829
1.5124506 1.3574009 0.1949652
5.6249914 4.124918 0.36171985
2.5591877 0.56609625 0.82205582
1.7064891 0.16183761 0.44256124
2.037282 2.68663 2.1912527
3.2413464 0.18031941 0.47455531
1.9072168 0.66552007 0.20501895
2.6181531 0.56283408 0.44121605
1.0496742 2.7057614 0.18932821
3.8270943 0.1939968 0.24249505
5.1871614 1.7527143 2.1896544
4.2801008 3.857131 0.44421139
3.1260693 3.0267775 0.1865329
0.60459322 0.12015321 0.37447664
5.0666928 4.0121579 1.8505888
3.1791151 0.68216217 1.4102319
0.49421862 0.50462794 1.9995428
4.4847584 0.72679061 1.1407601
3.2909961 2.4373481 2.197269
4.7193923 3.9684677 0.23939851
2.3663342 3.4751167 1.5449936
1.5890944 0.35104993 1.3105402
0.43871602 2.0688992 0.39793283
1.6701397 0.96218485 2.2005191
0.69968432 0.081196122 1.3870615
0.83395404 2.558856 0.19167957
2.1407337 0.44752297 1.9572117
3.633919 0.9080742 0.21192306
1.8209889 0.36262304 0.67574131
2.1631062 1.6907506 0.20079069
2.9528229 0.19796458 1.2569826
1.9023033 3.1461241 0.20242275
6.1708741 4.2553544 0.81895232
0.41868949 2.7524667 1.1569357
4.1226635 1.020891 2.1987352
1.9111195 3.4012842 1.8861295
0.47910175 0.84883326 0.69656891
4.3324537 0.22876677 1.6323639
2.0007029 3.4105415 1.2892112
4.4577737 2.9026608 2.2086139
3.7200184 2.4316576 2.1873748
4.4635582 1.2823485 0.47900766
4.4566803 3.4486217 0.1939882
3.2554402 1.3406374 0.19887272
4.1890306 1.5697687 0.20936698
4.4746828 0.62049228 0.35203916
2.0971408 3.4325905 0.51364368
5.8875647 2.9822407 1.3911667
5.8558307 4.2033172 1.8870471
2.0627685 0.45593899 1.8540545
5.8964019 4.2045541 0.89619094
5.7383895 4.1586275 0.56089824
1.8391678 0.16483691 0.20617726
2.5773573 0.54704612 1.2135856
6.3179646 4.1462536 1.7150866
1.1604295 0.24359199 0.63367659
3.0305572 0.16691869 1.5883677
4.0975232 0.76479816 2.1992974
0.44174773 1.6793566 0.36495078
1.873922 0.13743292 0.47196424
3.1023753 0.43546802 2.1845045
1.3052108 0.13596739 1.8647774
5.9661446 3.1417727 1.1815302
1.5112183 0.13713656 1.4408484
4.4923935 0.51925862 0.35779259
2.1673427 0.48036164 0.95900232
2.3422999 0.16501591 1.0987397
2.6924767 1.8796082 0.21147346
5.1977983 4.0422764 1.8035212
2.1210063 0.14763109 0.49642766
1.1135454 0.11887352 1.4209799
0.44209078 2.2389421 1.9286884
5.3095231 3.0588267 2.1936562
4.2293754 1.8085116 0.2044351
5.6394548 2.2437134 0.3982712
2.8965585 2.1176655 2.1953518
4.4687958 0.22729015 2.1779876
4.0522985 2.8528006 2.1962028
4.4490957 3.9173553 1.4152305
2.0168743 3.4185755 0.45773941
0.41698229 3.1027205 0.45195442
4.4911757 1.7202286 2.0805097
1.1939952 3.2613842 0.87673724
0.55151874 2.8219593 2.1979187
0.94753742 0.1824652 2.1975267
3.7722232 2.0516424 2.2004194
3.873497 3.007179 0.19300696
6.0812287 3.5061486 0.37818444
4.1825542 3.8495598 1.4458582
3.845747 0.84119582 0.2776219
2.9829485 3.6058931 0.2466785
3.0885398 0.17695832 1.6715339
3.8749564 0.84880114 0.55419248
2.8238957 1.6164036 0.2125611
0.4619998 1.6628299 0.92435151
0.48026645 0.61954135 0.43470836
1.6211742 2.3491647 2.1875198
0.74159634 3.1605091 1.4374863
2.0952997 2.1272597 2.2148902
4.1497812 3.8765054 0.21410419
5.7026815 2.4623926 0.76077092
4.3130913 0.40241748 2.1997681
1.0789435 0.22803962 0.93235379
5.6664462 2.3227582 0.38963437
2.2629194 0.48770589 1.038184
3.5916116 0.1980833 0.40612867
0.45081413 1.7236149 2.1881063
0.78481376 2.0918808 0.18439201
5.5315361 2.256464 2.2001715
0.73923725 1.3514131 0.19814844
5.8677573 4.1973839 1.5699044
4.4119339 3.7339933 2.1896968
6.1754494 4.2475557 1.8381845
5.3626032 2.0026932 0.21950349
0.426844 2.5780096 1.3484464
4.3873601 3.9062715 0.25454471
0.43844542 2.6568899 1.0963793
4.3877468 3.8919883 0.86706257
2.9414723 1.8980156 2.2013159
1.7507519 1.5980078 0.21145624
3.5659373 3.6109927 2.2001553
2.8129809 0.60311794 1.4443156
4.3019023 0.22962397 2.1817265
3.9692445 3.601263 0.1887162
3.2054026 1.0460824 2.1872892
5.960187 3.1452579 0.74785286
6.1305566 4.2308187 0.93320119
2.9852269 0.66966426 0.52629673
4.1526318 1.6489118 2.2141113
4.4312754 1.4735107 0.25441226
2.5949132 0.28825757 2.1821344
0.96971071 0.13336231 1.4414493
4.0695949 0.2008166 1.9881576
3.9616184 3.8036816 1.6441176
2.6937535 0.1716617 1.7707622
4.8033614 1.7339751 1.3404788
5.8188753 2.7532589 0.35179645
4.4606924 1.4195132 1.5572823
2.1637473 3.4402056 0.8431288
4.4623737 1.2025554 1.5094697
5.043777 1.7701566 2.195138
2.2026176 3.12391 0.20217332
4.311861 1.3054558 0.19411255
2.9817348 1.0657804 2.1963737
1.7293507 0.36950529 1.688073
4.4861779 0.71557403 1.7743096
5.8180232 3.112365 2.1937785
6.1323285 3.7051613 0.83734328
0.45374265 1.6559218 1.0791401
5.1405754 1.7426196 1.7223524
5.513557 2.0484333 2.207093
1.5497386 0.14874646 0.39992645
2.267909 0.48501211 1.4494214
2.0796158 0.13845852 1.0117311
2.7344756 0.58222651 0.65032744
1.1017599 2.7917118 0.20545939
4.1922388 1.2312073 2.1901312
4.2733631 1.338766 2.2087409
2.8831804 0.17953342 0.76646632
4.2408323 0.21548906 1.5430627
1.9733522 0.15159728 1.3492111
3.7241309 1.8945048 2.2023637
4.5118761 0.28853658 0.31215456
1.0435758 0.22647205 0.61154622
1.8290188 3.3833883 2.0154424
1.9130588 0.42705852 0.9152739
6.3351803 4.1578636 0.33136535
1.2230591 0.26427862 0.49980992
2.1255488 0.13733001 2.0492065
4.3934302 3.4890106 2.1990519
3.5728574 3.7386897 0.48306501
4.9321117 2.9824398 0.1874771
2.8483975 3.5916848 1.4660549
6.0506673 3.3817527 1.0594313
2.4600658 0.26577163 0.18333763
5.4130368 3.8392084 2.2015903
2.9280596 3.5946662 1.6622598
1.7611616 1.2643714 2.202605
4.3743105 0.22840646 1.957276
1.9842414 2.899893 0.19559413
0.67692924 3.142365 1.3738493
0.51865906 2.5476146 0.20245203
4.5287218 0.3586342 1.1022574
4.4508257 1.5693136 1.0683827
3.1739635 0.878115 0.20681542
3.8539178 0.37107018 2.1881647
3.717382 1.6057706 2.1963866
4.8814244 2.5008156 0.18963772
5.4927835 2.6337087 2.202647
3.984935 0.87224215 2.1562984
2.1184268 3.4263644 1.4452537
2.6286552 0.55228698 2.0864275
5.7072253 2.926985 2.2051232
0.70575416 2.6249189 0.21018898
3.8158503 0.84698927 0.85706538
3.2573807 3.3176839 2.1901832
0.40874609 3.0955148 1.8812068
1.6906416 3.3637931 2.1239347
4.5045662 2.9926534 0.21269079
5.107758 3.6851597 0.1911848
3.5203769 0.76831722 1.0033903
4.3142877 0.63207442 2.2232862
4.4615884 3.9037309 0.55380183
2.9442492 1.8089852 2.1894846
5.2383909 4.0575533 0.65160704
4.4127936 0.81289995 0.20310232
1.5010275 3.3103073 0.8136813
5.5176396 1.9481823 2.1808012
1.2800932 0.27427697 1.2075856
1.2765075 3.0746226 2.2132308
4.3515215 0.94548047 0.54995501
3.5244894 3.7255228 2.1794305
1.5109755 0.12139672 0.6732865
1.6997902 3.3568726 1.6917951
0.43408871 2.0565231 2.16734
2.7885966 2.749476 0.18231544
5.6394205 2.2361667 1.517303
0.43232763 2.2806675 0.47006732
4.4977307 3.9062452 1.6339707
1.2826203 0.12854274 0.71466392
0.63308644 0.12323458 2.0920057
4.4935646 0.34867465 0.6915949
1.9053233 1.4317976 0.20676665
1.8491265 0.13894613 1.1335597
3.8776047 1.2625415 2.2101214
3.1257267 3.6511316 0.67282474
2.2327695 3.4628134 2.2006538
0.4796561 0.91936862 1.3652201
4.8623362 1.9202063 0.20670094
3.8062844 0.2184644 1.7903093
1.1938452 2.8514254 0.21715111
0.48346275 3.1105025 1.0854447
4.4014845 2.4436469 0.20016362
0.66710323 0.11268988 1.3109721
4.7739863 1.7990344 2.1958356
5.1337628 3.8608387 2.1947219
3.5336993 0.18673393 2.143043
2.5455773 0.17212352 0.66495407
6.0564442 4.2180519 1.0765849
2.0944877 3.2716796 2.2009211
0.41621822 2.7163301 0.75897765
4.4733257 3.0428379 2.2004666
3.5525143 3.3614998 2.1928606
5.567111 2.0509245 2.1055319
1.9012917 0.4025836 1.1604352
2.3882813 3.5011497 1.2419016
6.2014856 3.8519931 0.40637112
5.6134348 2.2106159 0.33558047
2.8362465 1.7303693 0.20592342
3.0484576 3.6301687 1.8835785
1.9887192 0.12706091 0.32487416
3.1560545 0.66250569 0.35958964
1.1711965 0.24624741 1.811579
1.0519826 0.10397501 1.9607087
4.4388013 2.7297137 2.2062423
3.1709619 2.1040111 2.2163055
4.9982028 2.1285951 2.1852875
1.164493 2.0894289 0.21420282
3.8595548 2.2677517 2.2041006
2.1031179 0.91030031 2.2070014
5.5900564 3.4138329 2.2026641
1.0851567 0.86064893 2.2104375
0.4719874 0.98560333 1.6722414
1.6044739 0.13534737 0.20182236
1.9492204 0.19444546 2.2142026
3.8223565 0.20488149 1.5579714
5.110621 3.6395659 2.1880577
4.6163239 1.7272851 1.2443883
2.5491271 2.7328444 0.20043597
4.3555536 0.95996892 2.1766257
0.42845249 2.6909008 1.6530741
4.102149 0.39046741 2.1880653
3.3191266 0.70949554 0.5992825
4.4840817 0.56309038 1.4549736
0.44289523 1.6117473 2.0308449
4.4596081 1.1556234 1.0120304
4.8068008 3.1486363 0.20305845
3.9739547 3.0186145 2.205653
1.7905086 3.3718956 2.1120183
6.1968117 3.8070524 1.7284027
1.2104027 0.96650589 2.2036719
1.4107382 3.3149157 0.33744645
5.2428751 1.755234 1.1530281
6.2907505 4.1114335 0.19510557
3.0071785 0.65456277 1.8236786
4.7336516 3.9653335 1.1600947
3.9007852 1.5640305 2.2176187
1.1010764 0.10429771 0.70184833
0.9078207 2.9261303 0.21296857
1.0359328 2.5740004 2.1946895
0.84997529 0.16874065 0.35001197
2.9749029 1.1298275 0.20535225
5.4767776 1.787195 1.7372707
4.1792355 3.1273043 0.20712966
1.2486236 0.25768256 2.199455
5.4558454 1.8851136 0.19874667
4.2429399 3.8061864 2.2218518
3.7825191 0.99688709 2.2103388
0.82457483 0.12201776 0.60099733
0.70043153 0.76645952 2.2079604
2.73807 3.5713594 0.66251296
2.3288386 2.1183667 0.20323224
4.4571762 3.150461 2.2030759
3.8116002 0.80916637 0.18969052
2.720875 1.3754439 2.1955156
1.6151104 3.3330312 1.1984894
3.0572581 2.7750909 2.2048342
5.0754976 2.4444809 0.17579292
3.8310468 2.4210463 2.2015476
5.9890261 3.2215462 0.249244
3.9279764 0.84636897 0.51014751
0.80804551 2.8712149 0.19743022
0.45411465 1.1886616 0.81657487
1.5908977 1.1497532 0.18924624
0.6383208 0.11879356 1.4653691
3.7611947 3.7814229 0.96819609
5.542562 2.0312088 2.097852
1.5775434 3.3349574 1.6005965
1.9714679 0.67398 0.19673336
1.6143514 3.3437982 0.41663259
0.51358932 0.093399413 0.45446581
2.162333 0.14543863 2.0043638
4.1290998 0.89092839 0.92325515
1.1789601 0.26251274 2.0810156
3.136353 0.19439316 2.1354632
1.7675498 2.4379652 2.1877108
3.611659 1.4477568 0.20191909
4.4655247 1.1759712 2.1076834
5.1228952 2.9441764 0.18922316
0.60762948 1.6700567 0.21282327
3.858937 3.7918749 1.5220504
2.6381674 0.57959527 1.4026974
1.9778521 3.3953192 1.6602862
1.1702645 1.7795808 2.2095308
0.47482851 0.63641399 1.3460864
2.4317873 0.53475791 1.1222953
2.8495483 0.61324 0.68651277
3.8993564 1.3157784 0.20471238
4.0740261 3.8321989 0.62403673
1.2326075 3.2492492 1.836447
2.9233596 0.64074248 1.1796972
1.409723 3.2756371 2.0163028
4.0245876 0.86670476 0.98813385
4.5550399 1.8168432 0.20010287
0.43185043 2.3938148 1.6570505
0.46303838 0.80804926 2.054574
1.5700737 1.7929388 2.1826775
6.0564051 3.4429507 0.76216435
4.0179176 0.21400955 2.0002427
0.46682855 0.83160895 2.0877948
3.0348725 0.66532511 1.9552076
2.7340457 1.9855843 2.1998918
4.4729967 1.2005101 0.65893638
3.4043102 3.6603885 0.18859513
3.6733589 3.7426434 1.1753782
2.2115185 0.14762484 0.88572216
0.41594744 3.0668538 1.913885
5.6648846 2.3054926 0.51211613
4.3508501 2.1590533 2.2145047
4.4953871 2.6726136 2.1989026
3.506916 0.59358591 2.1991892
4.5168939 3.8960881 2.2068126
3.7341356 0.19712548 0.98966968
3.0774717 0.66141081 1.8110768
3.920011 0.20159453 1.457168
3.1195798 3.6465371 0.35802466
3.5042906 2.1458156 2.2024145
1.097077 0.13954277 0.78714919
0.48477852 0.19613189 1.779362
2.0275178 3.4160748 0.7052393
3.5756314 0.2831586 2.1978693
3.3669229 3.6703498 1.1996464
2.8754153 3.3179164 0.22339426
6.2796431 4.281827 0.77351749
1.4087882 1.6390415 0.19018418
4.4330053 3.9043703 0.54066277
3.5282991 2.9829333 2.2058871
3.0159314 3.6110921 2.0744703
1.73321 2.4324512 0.21346878
2.8694301 3.5889533 1.6313816
5.6616368 2.3240476 2.1231444
1.1829885 1.9045725 2.2067444
0.75570947 0.58618259 2.2034628
3.8051279 2.5108354 0.20077986
3.0832486 0.1857886 1.0401957
4.9616413 1.730074 1.2489247
1.5748717 0.35913077 0.45425326
4.7998862 3.1092482 0.21009648
4.9577703 3.9080045 0.19447818
1.8534224 0.87064636 0.20599234
5.1609592 1.7386104 0.57193655
2.3525753 2.8715706 2.2017474
0.50622261 0.10553925 0.33019161
4.2551785 0.92536491 0.47298372
4.4340706 1.6665367 0.17407863
0.85637176 0.11019111 1.7535554
1.9466883 2.6683543 0.18733594
3.1337655 2.9765158 0.19959645
0.44572896 1.7376773 2.0986042
5.3843074 1.7496918 1.7041401
3.1337328 1.6981162 0.19872987
0.64870209 0.12830091 1.9688131
0.42261514 2.7816215 1.8970971
6.2955627 4.0512133 1.86558
0.42751312 2.7034569 1.2321775
5.4005213 1.7622675 1.5972922
0.99507338 1.4053739 2.2077556
3.4190264 0.19056237 0.53796452
2.4807134 3.507585 0.56801105
0.6338011 3.1479158 2.110554
3.0728052 2.4772434 0.20959902
0.48176122 0.61004454 0.46182275
3.3381891 0.73506558 1.9981053
1.3728238 3.2851822 0.27574295
1.3277123 0.28412983 1.4463894
5.9905596 3.2553656 0.54402876
2.7274091 2.1119976 2.1930022
2.541594 1.1497629 2.1972272
3.3632307 0.53821015 2.1925631
4.2606678 3.717124 0.21772213
4.0480318 0.39074135 0.19827463
3.3310955 0.70841151 1.0144671
4.3748851 3.3540142 0.17943498
1.379324 2.9755797 2.1893232
5.1810737 3.7027781 0.19582185
6.1412778 3.6564126 0.9931069
4.5876489 2.3817453 0.20131208
0.75243068 0.11226082 1.127489
4.5822458 2.8063984 2.1997557
4.3178339 3.1864581 2.2043679
6.1458673 3.643888 1.3914756
3.4934142 1.7532521 0.2046476
1.2085035 0.12918639 0.84541368
4.0234499 0.8755399 0.77502972
2.1591926 3.4502861 1.83886
4.367342 3.8823905 0.98828125
0.70665056 0.1104891 1.6089857
1.3183148 2.0320458 0.19112338
4.3138094 3.7504039 2.1975601
4.785769 1.7546015 2.195909
0.43741849 2.2592614 0.99996781
3.2240722 0.70575064 0.77348459
5.4675717 4.1189137 1.4134145
3.6196418 3.2401154 0.21059841
6.1757765 3.7236009 0.51216125
4.2550793 1.7297179 0.20536876
4.494308 3.9063804 1.1554657
5.101891 2.7386806 2.2033591
0.45733646 1.4723577 1.2833189
1.9618891 0.4202832 1.9399096
3.4215102 1.0251604 2.2002864
4.9714451 4.0063448 1.9804854
3.4962599 0.18501665 0.39439315
2.9147749 1.0422146 0.20555463
1.6671699 3.304251 2.1991856
2.8088374 2.304914 2.2066023
2.3801508 3.491715 0.91709936
0.4724853 1.265394 0.93968534
5.4891424 4.114872 1.0201244
1.6694872 1.8680438 0.19608556
1.0334707 1.7628808 2.2023313
0.83084059 3.1878934 1.3830049
3.1141837 3.624778 1.9691944
4.9959164 4.0013008 2.0761881
0.47549325 0.59356183 0.20358214
4.9477863 1.7597157 0.51399052
0.96882832 3.2047055 2.1491246
3.5325835 0.75310355 2.1295919
1.936114 3.3976851 1.8827211
2.9774425 2.3987799 0.19884355
3.6144373 3.7321653 2.1376171
1.596892 0.85037988 2.1923275
4.2566929 0.77898896 0.20752712
4.9420319 3.1387746 0.20345658
3.3437312 3.3561258 0.17592245
2.371464 3.4749124 1.6017973
2.7577393 0.9295941 0.21625747
5.1054902 4.0383377 0.295715
2.2253871 1.2246951 2.2004211
4.4651394 1.730451 1.9242147
5.5624375 2.0698223 0.96364701
0.48387945 3.0198026 2.1873436
3.166961 1.8945922 0.19540936
4.5284281 2.8772724 0.21570709
1.537117 1.6172107 2.1888409
4.4350119 1.54212 0.58797294
4.4463615 3.1272936 0.19766469
0.50667202 2.7546017 2.1923547
2.6695783 3.5115371 0.19649631
3.9832156 3.8134837 1.338357
0.54434752 0.10264373 0.3181296
2.0289683 0.13903198 1.8968434
4.5556498 1.728586 1.553653
5.2951784 3.1951292 2.2053986
3.5783441 3.7357411 2.0286717
3.8885119 0.83443171 1.3587743
5.130434 1.8290763 0.20409624
3.8559568 3.7773335 2.0561724
1.1465226 2.6567824 2.1929133
3.6627049 3.7466953 0.60331005
2.8059719 0.60131907 0.45754004
3.2895246 0.19771698 2.1831677
3.0942717 3.3673985 0.20217897
4.7460837 3.4792538 2.2081246
2.4918268 3.036588 2.1863065
2.823348 0.17594375 0.80864495
2.5358815 0.15745279 0.47553247
2.2248125 2.9962761 2.1938243
6.2141614 4.2468529 1.3004535
0.43062788 2.4693365 2.206187
0.41946071 2.5546112 0.89593768
2.6539397 0.57587272 1.1238273
1.5686567 0.3367621 1.6273599
0.9182564 2.0621231 0.19300039
3.6190805 0.79216111 1.3719093
5.6416621 2.2848639 0.28785536
1.6600147 2.4395256 2.1970508
1.0511694 3.2067783 0.73696768
0.74556649 0.14867032 0.43129095
3.9555914 0.86432368 1.8057518
3.61689 0.2036324 2.0376449
0.71793234 3.0273604 2.1873252
5.7385468 2.5752792 2.0490367
4.0553513 0.23030013 0.56192327
3.200851 2.634177 2.1964724
5.5706244 2.0521958 1.8198341
5.0537663 4.0157909 1.9250461
1.5292325 0.13724878 1.3705264
2.850153 2.5146205 2.2088406
5.0686727 2.8395073 0.19372924
0.40720773 3.0389793 1.318082
4.8941693 2.7767313 0.18429334
1.6817784 3.3440914 0.76580566
3.6051869 3.7284315 1.9972013
2.6738214 1.4351578 2.2062733
5.3854117 1.9171643 2.2071443
5.82967 2.7509732 1.6386909
4.0890527 2.6800466 0.19103637
3.7158418 3.6928115 0.18766634
4.4804468 2.8150506 0.20953205
3.7546687 2.8410184 2.1991057
6.2334909 4.2397599 1.9907234
4.8487639 3.9801517 1.4423298
3.6955466 1.1039226 2.1983011
2.2404547 3.4828744 0.3635568
4.4424906 1.6520795 1.1689423
1.0604334 1.8891745 2.2137704
3.3531587 0.91914451 2.185837
2.2703137 0.49512187 0.20837724
2.90994 3.1776178 2.1954319
5.4433184 3.8057754 0.203163
4.1271958 0.95940894 0.2060826
1.9903774 0.2805343 0.20670265
2.0533261 1.485703 2.2050145
2.1872091 0.84644932 0.19623235
0.76306266 3.1666362 2.0174329
0.41541725 2.614538 1.6103756
6.0959144 3.5266218 0.49731129
2.3367887 0.14873579 0.49979061
1.531884 1.335048 2.1885509
4.4687467 1.157602 0.7632761
5.8164749 2.7988958 1.8839424
0.75315511 0.13873065 0.39651042
0.49921441 0.18957636 0.67078203
3.0365331 1.8183007 0.20046891
1.9006643 2.3386199 2.2161369
0.50140584 0.73710102 1.5484254
0.41958004 3.0385039 0.6048373
6.1490049 3.6708262 1.5162729
3.3522732 0.19393486 1.9880672
1.8068103 2.530581 2.1912656
4.3467183 2.111805 0.19907326
5.6656451 2.317059 0.23534806
4.4887218 0.80309546 1.5168102
1.5343435 0.12548411 1.4272856
4.4794097 0.4059068 1.1487569
4.3434772 3.0771804 2.194325
4.4837923 0.5604226 1.346701
3.462558 1.6608465 0.2006446
4.0881567 0.89510447 0.57660288
1.3615506 0.29510373 1.9791605
0.72266495 2.3353059 2.1854413
5.9165735 3.0273216 0.33940321
1.5469141 0.31257921 1.9885892
1.3145587 2.9712408 2.2017169
2.1522791 0.93560725 0.22015278
5.2560091 1.7627908 2.0011146
0.43371671 1.958153 2.1431744
3.3326426 2.5810606 2.1901302
0.65671897 2.3325236 0.19845964
6.2942882 4.2606201 1.7251285
1.8196822 3.3908167 1.9272403
0.48402733 1.0391444 2.0925775
3.6925735 2.5395615 0.18932232
3.258276 1.6034248 2.2042847
4.4741864 1.7429397 2.0992284
4.0945611 3.4130144 0.21568981
0.46582496 2.283242 2.212249
5.5485129 2.0207791 1.9999633
0.71974856 2.3200064 0.19435278
1.699244 0.35239965 1.2420589
2.1159227 2.0585804 0.18726756
2.4349494 3.5033593 1.8085601
5.1164327 1.9326031 2.2026565
5.4398422 2.5550444 0.20652117
2.6025946 0.15847126 0.54346621
2.1125569 3.423074 1.2587411
4.2712193 3.8601623 0.72040838
0.68892562 0.15393527 1.1908687
3.4185297 1.0747256 2.2119052
0.43115133 2.1041658 2.1428425
2.6077628 2.2087469 2.1922555
3.1481616 3.5339863 0.19007537
5.8573174 2.9196835 0.7197597
1.7820117 0.98761165 2.2020888
4.6771312 2.4045541 0.20752892
2.4514561 0.51465684 0.48500985
1.277818 2.8433349 2.2037756
3.2699924 3.0781999 2.1988547
2.7814629 0.58947182 2.187403
2.250695 3.4751508 0.84340829
1.1218219 0.25710177 1.666996
5.7019191 3.7406533 2.1849074
4.0895948 3.5401826 0.19123416
4.0689383 1.9145321 0.19107845
0.45238572 1.6818347 0.76469523
1.6375632 0.35816136 1.1941079
4.3468866 3.8863518 1.489359
1.1701747 1.9860903 2.1986353
1.4547274 3.3052204 2.1039014
2.1229534 0.45073575 0.45112818
2.9243634 0.87160337 0.22029118
4.1619935 3.8459482 1.9330713
3.5402732 1.5770435 0.20420218
4.0415268 1.7272562 2.1956172
1.3700087 3.2787097 1.4373602
5.5190749 1.9546692 0.99048007
4.7465043 3.9575481 1.0894493
3.2341788 0.7107901 1.6876284
1.6600543 1.1976608 2.201787
1.0816786 0.23048589 1.7657417
5.291791 1.8409564 2.2165406
5.7571177 2.7230654 2.2097082
4.2369976 3.8748403 0.64045548
4.8186178 3.9759269 0.9685716
0.53593951 0.90057486 2.1973934
5.9908276 3.7281091 2.1952653
1.844112 0.14577422 2.0863054
2.9785509 0.33526805 2.1783826
5.2734098 1.7437004 0.55077523
5.7234321 4.1453099 1.9596391
4.9974422 1.7493317 0.96879661
5.3399806 3.4724979 0.18258426
3.924089 2.5156224 0.22904551
3.8218801 3.2206233 0.19500108
2.7875607 0.17021012 1.299545
2.1988878 3.2901423 0.19003235
6.1463938 3.6602795 1.5434512
3.1100516 3.6198246 1.8550965
0.76995766 3.1676126 0.2310753
5.720324 2.4931061 0.3865298
1.1989771 0.23882851 0.25448415
3.9792681 3.2999594 0.2067546
0.78113908 0.17291895 1.7557123
2.4472265 3.0631227 2.1893041
4.4423304 1.3068703 1.0093566
2.1388423 0.14953688 0.36671025
5.862052 3.0167439 0.18372522
3.0012975 0.9721629 2.2211542
0.73745406 0.59328777 0.19056922
2.7249811 2.6870928 2.2037358
4.1297526 0.21285285 0.45084268
4.4760723 0.42267439 1.7927181
5.6871843 4.1413178 1.2364662
0.48961106 0.40537611 1.4712138
1.3650491 0.29613972 1.5229844
0.91508985 3.1949494 1.753055
2.3617551 0.51373434 1.6409631
4.3655062 0.94776529 0.38300264
3.1705098 2.4077954 0.21018109
0.53034019 0.10560545 0.65570146
4.441699 1.6451979 2.0315356
0.66493833 2.7274659 0.19969203
2.2807338 2.6229877 2.1956792
0.4659777 1.0133308 1.8066742
2.0084839 0.60558999 2.1857722
3.1901596 1.3165886 2.1940825
2.7360339 3.5569911 0.65731311
5.0740485 1.7438084 1.2059652
0.47637659 1.2401372 0.77653456
2.803493 3.0557055 2.1952171
0.76711345 0.10329142 0.74912262
2.5298369 3.1069083 0.20366411
0.46842027 0.85646302 2.0594583
4.7771316 1.7458086 0.1972914
3.9465816 0.87300098 1.3527889
3.3664234 2.0070078 0.20823124
1.6834913 3.3434632 1.6362343
6.3136911 4.1260338 1.8740165
3.2304988 0.42838877 2.1769049
5.4041319 1.7591981 1.6660018
1.5716763 2.7929113 2.2077577
4.5978928 2.1536908 2.196471
2.4366326 1.5365334 2.2112324
2.2316422 0.16008055 1.0974566
6.1322622 4.2460012 1.9780331
3.6207902 3.7234585 2.0955064
3.6546996 0.61909825 0.18756835
5.9114137 3.3660858 0.20413548
0.87214375 0.12052816 1.1566719
5.0411272 3.4098327 0.18309698
5.5287042 2.1721773 2.1897116
5.2058902 4.0703292 1.390964
6.3068128 4.2769337 1.3739535
5.6415863 2.3000052 0.64616573
1.5531477 3.2099891 2.2026296
2.9516733 0.65708208 2.0775356
4.3312364 0.21772933 1.4998093
3.1016073 0.67724979 2.1099625
0.46960956 0.68277961 0.97516763
2.4726787 0.98623961 0.19577201
0.48764876 0.59850323 1.3927989
2.0166385 3.4038503 2.1352119
0.45528525 1.0915611 1.6600516
4.8290477 3.8226213 2.1955123
6.0371728 3.3358817 1.6703686
6.0041323 3.3036315 0.60200387
4.3843842 0.22709548 1.880309
5.2484941 2.1250088 0.2058741
0.449725 1.6570615 0.67611325
6.0490842 3.4373353 1.7929256
0.45132253 1.4822147 0.82632256
0.47055748 1.1577644 0.64325553
0.50847685 0.088052668 0.29434878
1.0508931 3.2179863 1.8267909
0.95528507 0.10927288 0.47808009
5.7523379 2.579632 2.1596713
2.1822896 1.9874905 0.21484791
3.7554498 2.8821671 2.1912286
0.4252207 1.9823484 0.6580798
