# .PCD v0.7 - Point Cloud Data file format
VERSION 0.7
FIELDS x y z
SIZE 4 4 4
TYPE F F F
COUNT 1 1 1
WIDTH 2119
HEIGHT 1
VIEWPOINT 0 0 0 1 0 0 0
POINTS 2119
DATA ascii
0.70066369 1.1566381 0
2.7919476 1.5314842 0
0 2.3071306 1.5434198
3.9703863 1.0876132 2
0.60241467 0 0.91667694
1.2525132 0 1.1592566
1.0137308 2.9550045 2
3.8512406 0.17065898 2
1.7739338 1.6955209 0
2.0899842 1.059096 0
4 0.7605682 0.30608687
4 0.14460313 0.66938734
1.0000516 1.2870349 2
1.9112279 1.2078952 2
2.8205791 2.7301962 0
3.5237672 0 0.037053626
4.6932783 2.6654372 2
4 0.56221086 1.0936968
1.9821166 2.8912418 2
0 1.4479557 1.3221729
5 2.8998535 1.3718187
1.2485896 3 1.0783522
0 0.3578431 1.9026126
1.0681567 1.1589959 2
0.14231171 3 1.4775728
2.8334794 0.35829639 0
0.10738789 0 1.3721869
0.90325874 1.908108 2
4.6875448 1.5 1.639078
1.9101676 3 0.14274323
1.0867748 0 1.7792172
4.8084917 3 0.97324169
3.7245607 0.83470815 0
4.6827426 2.0764263 0
0.50666392 2.0481999 0
3.4866357 2.8971405 0
2.8074837 3 0.65237653
3.5405371 2.7247455 2
4.8717399 2.3906407 2
0 0.46721804 0.59524477
0.35849512 3 1.8782927
4.7792039 2.3843102 0
2.7821331 0 1.6601269
2.7161341 0 1.863149
3.4825413 2.4053023 0
5 2.0301824 1.3966858
1.96217 0 0.024463376
4.0259862 1.5 0.17488936
0 2.9919853 1.1699448
2.8557875 1.1379972 0
0 0.46790382 0.95983678
0.36467224 0.006528927 0
2.6537824 1.7000281 2
1.5263429 1.8544039 2
0.40929604 0.041959438 0
1.2074564 2.9908223 0
4.9394436 2.7099419 2
1.0374001 0 1.2793181
3.6830788 1.9460561 0
4.4523268 1.5 1.5695649
0.011983795 0 1.3762821
2.8447502 2.7429235 2
3.5943408 1.6540834 2
5 2.3297896 1.765812
3.1136312 1.5486655 2
0.34940001 0 0.082919002
4.2199106 1.7784175 2
0.075310379 0.32389536 2
3.4683316 3 1.8709821
2.6749496 0.72277236 0
3.7672784 2.0288136 0
2.506916 3 0.54465073
0.69292325 2.6903269 2
0 2.8575346 0.56562388
3.8854723 0.19210529 0
3.2663145 3 1.7503953
0 1.7041328 0.87826931
4.5796714 1.5 0.76119715
2.7333751 2.6992192 0
4.4959083 3 1.0604333
4.0668979 1.5407984 0
0 0.67257726 0.71993703
0.51168489 0.51844078 0
4.6665349 1.7490325 2
4.3227434 1.6826407 2
0.09960898 0.49748528 0
3.7791233 2.5078986 0
3.7674139 1.9496801 2
5 1.8884221 1.6003592
2.9782159 2.7688899 2
2.1038136 0 0.59969145
4.1129174 3 1.9364187
0.044422645 1.6151848 0
3.347213 0.41892964 0
2.486212 2.7330134 0
2.4815879 3 1.6440976
2.2169151 0.61329395 0
0.37925914 3 1.4588416
1.9553045 2.1488628 0
0.31975052 2.590668 0
1.9034057 2.2409728 0
1.4431013 0 0.4550913
4.952467 2.4560363 0
3.6959627 1.7849383 2
5 2.6676865 0.6941908
4.1279516 2.2325013 0
1.8993109 3 0.04177244
3.7137792 0.70871353 0
0.2134937 3 1.6471212
0.59661549 3 0.03060656
1.3940794 0.75897527 0
0 2.7143445 1.6695809
1.1161497 3 1.1042737
0 2.5682099 1.4897536
3.7278788 2.0322313 0
1.8610696 1.6926647 2
0.75947165 0 1.9859558
5 2.9225183 0.39215347
1.2052877 0 1.1642643
0.79226339 1.674516 2
3.8630323 1.3247511 0
2.6818988 1.3835441 2
0.75434536 0 0.41648972
5 1.7986443 0.56524724
1.6520284 1.4471372 0
4.6661777 3 0.94484812
1.8476747 0.3513464 2
0.43128523 0 0.48604518
0.76983202 0.059565779 0
0.7885111 3 1.2906572
3.6706741 1.2693486 0
1.4191432 3 1.0195282
4 1.4354098 0.32956782
0.71387625 2.694231 2
3.4164412 3 0.42545554
1.1675802 0.43273923 2
0.60543185 2.5009499 0
2.9042168 0 0.73224288
0.50592273 2.7672727 0
3.8017313 3 1.1670057
4 0.51821226 0.77538294
4.3764844 3 1.887833
0.6364423 0.53529733 2
4 0.194839 1.5811585
1.5460181 0.90598565 2
0 1.6390896 0.19364241
1.1297065 0.15680256 2
0.23098646 1.8981824 2
1.6235871 0.65022701 0
2.315268 0 0.85768151
0 1.9006827 0.78741628
0 2.4269464 1.6518184
1.5217339 3 0.52698195
4.0196409 3 1.3750329
2.2564828 1.3308784 2
0.82101619 0 1.7919191
2.7598906 2.0515654 0
0 0.59619105 0.47916695
1.7235498 2.4289842 0
2.0615544 3 0.61759377
0 1.0710521 1.1273692
5 2.7883363 1.2502929
4.9872637 1.5 1.0867652
2.1927872 3 1.7447898
0.64922237 2.1257336 0
2.4203107 0.04703173 0
3.3486974 2.574512 0
2.8636973 2.5464106 2
1.295913 1.427749 2
0.92964637 0 1.1323357
3.0682251 2.1498239 0
3.7237544 0.12517865 0
0.25648898 0 1.4726759
1.3149618 0 0.67369789
1.5449077 1.2895161 2
2.0737355 0.7187658 0
1.9900099 0 0.6740396
0.41792715 0.84158415 0
0.74410129 0 1.0159659
4 1.4479508 0.97539181
2.7173851 0.44979909 0
5 2.803004 0.37604105
4.5488038 1.5 1.6607237
3.4459665 2.2134733 0
2.5617085 0.77173936 0
0.65579396 3 0.86149198
3.0722709 2.9477193 0
0.38672906 2.5321193 0
4.024375 2.7431388 2
0.43929017 1.7493056 2
4 1.1152059 1.9868033
1.2137601 2.6664977 2
4 0.98001856 0.09136951
4.9336338 1.5 0.4534471
0.30547386 0 0.99064404
4.0996847 1.7905948 2
0.55775201 1.695688 0
0.44086373 0 1.1398439
5 2.5093534 0.69422889
4 0.6379236 1.7255765
4.8699255 3 1.5993643
2.6863303 3 0.80393821
3.2507615 1.5604926 0
1.8700488 1.4466666 2
2.8464162 0.58268791 0
0.93206596 0 0.17204052
3.284822 1.7602434 0
2.6268444 3 0.20712611
4.2148533 1.5 0.84678715
3.1931312 0.048557654 2
0.50693065 0.83078289 0
5 1.5433702 0.36869526
4 0.54499334 0.68102741
0.9699986 2.5060635 2
4.5930519 1.6206888 2
1.9121202 3 0.482337
2.5660744 1.6099533 0
4 0.59026617 1.7647326
0.82336849 2.9050596 2
2.5134265 0.32085481 0
5 2.8351998 1.0290824
4.6436839 3 0.85020286
1.9306241 3 0.2407531
1.7521324 2.6066582 0
2.1406929 3 1.9103885
5 2.1432753 0.22988999
2.9326522 0 1.9005159
2.4188411 1.4459727 2
0.13259454 1.2483592 2
1.3639498 3 1.3420395
3.4771578 1.3645744 2
2.7767184 3 0.53329223
0 0.79868394 0.53180623
0 1.7458116 1.373565
4.5132227 2.4290073 0
0.27704316 1.7520317 2
4.9011106 1.6072094 0
0.92257458 1.511556 2
4.0057507 3 0.83521706
2.8143926 3 1.4736571
3.5813091 2.7626684 2
4 0.98042023 1.1186504
0.71568233 3 0.43730798
5 2.3182192 1.7897035
1.3349137 1.7183859 0
0 1.6881226 1.0574058
1.3144449 0 0.79097831
4.6512375 3 0.46725872
3.9305811 1.3361301 2
1.8293667 2.1029291 2
1.7878021 3 0.54449433
4.5563164 3 1.7265236
2.8844516 0.5146932 0
3.2183502 2.7834432 0
0 2.029952 0.99603891
1.5108465 2.1680336 0
4.9108977 3 0.62922621
5 2.7037203 0.63089925
2.3219798 2.8610265 0
5 2.8030593 1.6506582
2.1556973 1.6691735 2
0 1.2296395 1.8196478
5 1.7318811 0.32936075
3.0357392 1.6419803 0
3.3965065 3 1.4999408
4 0.18320949 0.034304161
3.0039093 1.323125 0
3.5590506 2.2948625 2
0.55761015 3 0.012782694
2.3245056 3 0.63989782
0.90914923 3 1.0779402
1.2748879 0.49762109 2
0.93176162 0 1.7222277
4.8433022 1.5 1.6899887
4 0.067394324 0.31066066
2.6248703 2.0550115 2
3.0300527 0 1.9505347
4 0.1354553 0.90919173
5 1.6180115 1.5647757
3.4559894 1.4351494 0
4 0.92216796 1.4552929
1.6620872 0.94298953 0
2.0268457 3 0.84583396
0 1.2521241 1.7254494
0.85365033 1.6249855 2
0.45378929 0 0.54418671
1.6005189 1.5067545 2
0.50263584 1.0454901 2
5 2.3107562 1.3285844
4.1684399 1.5 1.0394286
0.092664264 2.2038062 2
1.2921903 1.1065847 2
0.56197995 2.8981473 0
0 2.1389799 1.7664386
5 2.6188583 1.8286999
4.2090468 3 1.8022931
1.2675246 2.1851399 0
2.5839031 2.4122019 2
0.9619503 3 1.9980083
2.4649253 0 1.7765821
0.29803944 2.7653661 2
1.0125285 0.75228924 0
0 2.1031401 1.2454783
0.75978255 1.2100518 0
4.2574658 1.5 1.9905132
1.5586936 2.2482824 2
1.0309491 1.460063 2
3.3182321 0.055084042 0
3.3458397 0 0.78611082
5 1.5809381 1.6075083
0 2.9498343 0.88243186
0.33280098 1.486007 2
0 2.2063787 0.12510778
3.5691724 1.1319097 0
3.1363151 1.4668655 0
1.7747644 3 1.6483433
1.0862885 0 0.72502738
4 0.47426009 1.8229165
4.2396584 1.5 0.0013367739
0.80352002 0.73047382 0
1.3734854 2.5065773 0
4 0.46418691 0.27246368
4.2240787 1.5 0.78539354
4.1254158 2.4099145 0
3.3708529 0.74448729 0
1.3108691 2.1464686 0
0 1.2792414 1.5261238
2.1142159 0 0.27939424
0.76899868 0 0.16042699
0.54655486 2.3842416 0
3.2546654 0.98766816 2
4.1195388 2.6670671 2
2.5699348 0.69164336 0
4 0.45414424 0.11198786
0.87489802 3 0.51007867
2.8523033 0 1.7332206
2.9886408 0 1.9274027
0.062847376 0 0.78210974
3.1110444 0.08545585 2
3.4492955 0 1.6441706
1.861167 0 0.54856181
4 1.4329852 0.46665159
4 0.55341208 1.5453719
3.4693131 2.2125101 2
2.9439678 2.9890995 2
4 0.63222611 1.9780256
0 1.4910018 0.40650806
0 1.6113588 0.82979876
4 0.53090388 0.45450842
1.8520601 0 0.58245248
2.1233807 0.65841311 0
0.17256442 0 0.019369751
4.1804724 2.2129564 2
5 1.8226174 1.6057222
3.4634075 2.3113766 2
1.2015085 3 1.8590988
3.7922616 0 0.24120328
1.8038664 2.8050108 2
3.7716813 0 0.19774266
0.1319336 2.0921938 2
0.49488586 0.50088906 0
1.4798262 0 1.9847168
0.066724584 1.5594431 2
3.6381884 1.5613253 2
3.3712423 3 1.4217408
0.014644485 1.4652646 2
0 1.889853 0.13840894
0 0.96794254 0.063859046
2.1721649 1.8150334 2
2.8751447 0 0.5693295
3.8129001 0.69269902 0
3.4130287 0 1.7742634
0 2.9308085 0.76192248
3.8178813 2.6543887 0
0.9984557 3 1.5956824
1.1690589 2.9488757 0
4.2555466 1.9063958 2
2.186311 3 0.65816349
4 0.63720924 1.1462041
4 0.49296725 1.6424185
2.203316 1.5913165 0
1.6138904 0.16887836 2
0 0.50391865 0.93853879
0 1.7684529 1.4889469
2.914747 2.01862 2
4 0.29441887 0.709602
1.6817071 0.31316751 0
3.4132485 0 0.49831295
1.057076 2.4904759 0
3.5447557 0 0.70234048
3.3749106 0 0.69867676
0.58826196 2.5563264 0
3.2720912 2.8994341 0
0.82717955 0 1.4991136
5 1.8733926 1.3987072
1.9137183 2.8161542 2
0.32143641 0.11144872 0
0.31257525 1.0754478 2
4.4457479 2.3429513 2
4 0.76203126 1.8057947
2.0631678 0.47179437 0
4.9251575 3 0.8650471
4.6837773 2.6338372 0
5 2.1035795 0.94548607
1.4955164 0.32619682 2
2.8886511 3 0.99978918
4 1.2316662 1.4877814
3.9052806 0.53341705 2
2.9568367 3 1.2698387
2.7703488 0.68237382 0
0.17551018 1.6097455 0
0 0.86282587 0.50018018
3.5136633 0.18494628 2
0.12304297 3 0.46308765
3.983077 0.71444589 0
3.5948751 3 0.21923037
2.0480034 1.8519508 0
0.78031355 0.50187999 2
0.54922545 0.49981523 2
4 0.11815682 1.9656336
0 2.6125591 0.55272055
3.5748956 0 1.5649955
4 1.0479333 1.0769449
2.5712781 3 1.2706666
4.1953278 3 1.2400191
3.2561307 0.51940483 0
3.6504467 2.3768229 2
0 0.38890707 0.55218709
2.1147482 2.3235676 0
2.4541011 1.8247603 2
2.8402503 0.74766344 0
2.7698951 2.9658117 2
0 1.4512944 0.57668781
3.7203419 1.8487638 0
4.9944153 3 1.8112022
5 2.9847479 0.76502538
2.8394587 1.9579391 2
1.730101 0 0.078941517
0.094653197 1.9118372 0
3.4288845 1.367995 2
2.9543476 2.6065292 0
0.75659382 0.53086066 0
1.8787289 3 1.3900541
2.0843999 1.6530216 0
3.6406047 0 1.0860496
4.2342982 1.5 0.64591271
0 1.0059316 0.23903374
0.51627183 3 0.92351162
4 0.74166965 0.37646866
1.6456068 0 1.0561779
2.0500064 1.795638 2
0.0005746372 1.558218 2
0.94179183 1.4256678 0
3.0077858 2.206224 2
4.1712885 3 1.3198944
1.9416229 3 0.44470495
1.3517435 1.9912672 0
5 2.453805 0.94534004
0.92891455 3 1.2462832
0 0.69018668 1.3744256
3.8339822 0 0.42243809
0.72960544 2.0315323 2
1.5048126 2.9257793 0
2.4737213 3 0.37846401
3.659899 3 1.190797
2.5004492 0.75725865 0
1.8239206 2.8872485 0
1.3428329 0 1.4287353
1.646019 3 1.802362
1.0827148 0.36912924 0
4 1.2095354 0.075555362
0.94612581 1.0275471 2
0 1.1091396 0.3567014
0 0.59795535 1.6929588
5 2.1321709 1.4201374
0.18384641 0.012616304 0
4.6936302 1.5 1.2464805
4.052619 1.5 1.2621031
0 1.3084983 1.0855223
3.7686126 0.16713543 2
0.30246612 3 1.4718758
4 0.21340816 0.038187899
0.81182456 0.46278608 0
5 2.912483 1.5997356
0.11991782 1.6133375 0
1.3214352 0 1.3341013
0 0.4610627 0.29373878
5 1.7790961 0.21187842
3.2625847 3 1.6981623
3.0889726 1.6509465 2
3.4072564 2.9627593 0
0.10218856 2.1000211 0
0.59501046 0.46250001 2
2.4182246 0.59292877 0
0.99129504 2.5105338 0
0.99840796 3 1.2305502
2.2581263 2.1673508 0
0 1.2200981 0.1822848
2.1834033 1.806325 0
0 1.2159773 1.8876932
1.0315614 2.6424348 0
4 1.0370369 1.755702
0.38220635 3 1.6562085
0.019625369 0 0.59660333
4.7075257 1.8571694 2
3.6916749 2.6388965 2
4 0.89310282 1.5327979
5 1.8247017 1.0731547
0.2650511 0.87665987 0
1.4446006 0.5521881 0
0 1.2982992 1.7330614
2.4772639 0.70822567 0
2.8906891 0 1.2057964
1.5870895 2.975636 0
0.040368617 0.68977869 2
5 2.4582582 0.39364907
0 2.9774907 1.6943293
0.2309871 3 0.75888252
4.459383 3 1.6568601
0 0.11840073 1.5069859
2.349704 2.2950754 2
4.0395236 1.5 1.8067564
4.7989097 2.2015126 0
2.3571236 0.42931545 0
0.34987393 0 1.1424568
0 0.44963956 1.044078
0 0.095967785 1.739484
3.8752692 2.0582068 0
0.10811033 3 1.5112379
3.8255279 3 0.094740227
4 0.33321491 0.76250207
4.7914958 1.5 1.0045991
4 0.75153744 0.42362657
0.35963628 0.1726412 2
2.746484 3 0.095991433
0 2.950146 1.1783979
0.75972611 0.48748249 2
4 1.4992561 0.030586526
0.14544405 3 0.4161683
5 2.0912707 1.0414619
2.015907 1.1454922 2
2.8932886 2.3802001 2
4.3340464 1.5 0.87843865
2.9856682 0.83301902 0
2.8426287 1.3854258 2
3.6661665 0 0.11926807
2.1285708 1.3315628 2
2.5680692 0 1.8109272
1.6288226 2.8993931 0
5 1.5750027 1.3192482
4 0.91601473 1.4064096
0 0.839221 0.59216297
1.3082988 0 0.26465625
1.4932519 3 1.7298654
3.6177225 3 1.0812962
3.5946248 0 0.953107
3.2327943 0 1.2307957
3.7382057 2.3074348 0
4.1040645 2.7092888 0
0 2.8164458 0.082524396
1.6486682 0 0.2591711
2.6154361 3 0.2350975
3.0796385 1.8943059 2
2.724535 0.88913065 0
4 0.90337306 0.98542458
3.6906061 2.1687047 2
3.1681747 3 0.38327342
2.7361634 1.7190902 0
1.6040486 3 1.649573
0.92530948 2.2051828 0
1.0543293 0 1.2892232
1.15277 0.84499109 0
4.2226324 3 0.62691265
4.4929667 1.5 1.0301024
0.80269015 1.9340926 0
4.1473455 2.6056314 2
0 1.8584348 1.7912248
0 2.8149705 0.74745065
3.9093361 1.8451167 0
4.5937967 3 0.31580186
4 0.6433419 1.2209606
1.2092319 3 1.9622977
1.3582125 3 0.70731759
3.4998839 3 0.4363378
3.6013017 1.8424854 2
4.8115616 1.9889781 0
0 2.9018953 0.33293161
5 2.344043 0.87689352
0.88875365 1.9670942 0
4.1128206 1.5 0.29965582
2.9894309 0 0.067355432
0.36098725 0 1.1079376
2.8784709 2.6304512 2
0.82518649 0 1.9741694
3.0016057 0 0.20620185
0.57153428 0.23273474 2
3.774606 0 1.9347641
3.5478625 3 1.0151942
0.97492254 1.4523337 2
3.5867841 3 0.49557444
5 1.7638193 1.6661204
1.5716858 0 0.64640772
0 1.8820935 1.2343318
0.57846946 2.4334328 0
0.8860147 2.6108882 2
0 1.8247483 1.8364444
5 2.3042541 1.959963
0.60901576 2.4678521 2
0 0.4988403 1.6241163
2.7929835 3 0.89217883
3.7904401 3 1.8510885
3.6055224 2.1425018 2
1.637313 2.3088841 2
1.6260426 0.60622185 0
4.7130523 3 0.042699385
0.38123733 1.7217216 2
1.4956952 0 1.8862019
0.26548263 0.61693066 2
4 1.3541329 0.84703708
5 2.6783047 0.001586156
0.86591023 0 0.74855
3.8896205 0.40819845 2
0.58060056 2.6188927 0
3.0769117 2.9737968 2
2.8382802 0.38428727 2
2.8990672 1.0039274 0
3.7396128 0.97339374 0
4 1.1904193 0.10024445
2.9278014 0 0.55862248
0.61108428 0.45847392 2
4 1.4038873 1.7045273
0 1.4920683 1.9212521
4.9229012 1.5 0.84300947
4 0.61704916 0.42334795
3.1729674 0 0.74088669
4.5161982 2.4655831 0
2.9791887 1.9941674 2
3.2657363 2.1944332 2
0.21146734 2.4311559 2
4.971736 2.2414727 2
1.9926888 3 0.033494342
3.6721759 1.9373721 2
3.0282714 3 0.22976857
5 2.9365203 1.323595
1.5668362 1.6611737 0
3.2078431 2.3743281 0
1.7051522 2.2328298 2
4.5635753 1.5 0.49783364
1.0030179 0.16244924 2
3.5743883 2.9738443 2
2.2507021 0.015717849 0
3.3322375 1.746169 0
0.5591619 1.637224 0
1.8169893 0.35963845 0
0.8519125 3 0.83855802
0.42455342 0.058119491 2
2.3237493 2.6846228 2
5 2.4081435 0.35214195
4.1575651 2.3112824 2
1.6532235 3 1.0064043
0.10652756 1.139516 2
3.5793507 3 0.96195775
2.9382672 1.2135015 2
0.73988485 0 0.82450724
4.8351378 2.111258 2
0.89079344 1.6021495 0
0.35126543 0.21457808 2
3.7262766 0 0.76902199
2.6916528 0.21249925 0
0.4063051 3 1.5777055
4 0.88967574 1.6052648
2.7984757 1.7114741 2
4 1.334103 1.4325556
0.68929899 2.9192362 2
1.2065258 0 1.5071138
2.5659385 0.45949721 2
5 1.7219394 0.53114355
0.78644657 3 0.77046335
4 1.2650183 1.3365315
5 1.5092335 1.9388312
0 2.7028174 0.52057225
2.7520242 0.79167843 2
3.215636 0 0.40024817
3.6217897 2.6000929 0
1.9059299 1.0629815 0
0.8199259 2.2174535 2
2.7590389 0.56912142 0
2.5837281 0.81272411 0
2.9580803 1.6989762 0
0.71637768 1.5547597 2
1.2419343 1.4304358 0
0 0.11493226 0.47373623
2.4592757 0.18382666 0
2.6264102 2.6847844 2
4.1482568 2.7452438 0
1.5929292 1.8350614 2
3.0760372 0.52302134 2
2.763972 0 0.7436679
3.5886559 1.9656839 2
3.1592445 0 1.1915292
1.007834 3 0.17462999
0 0.18043888 0.67732817
2.8368957 0.67607617 2
5 2.200978 0.58267337
1.9012626 3 1.8971449
5 2.838738 0.6200754
2.8939013 0 1.8105513
0.51827759 0.49104711 2
2.2918661 2.5743699 0
0.6426211 0.41801625 0
3.4460974 0 0.41572049
2.4751384 0.14610831 0
2.7956212 3 0.15807843
4 0.57130456 1.4103295
3.4477649 3 1.4652956
3.3886559 0 0.50480044
0 0.66449904 1.3360835
4.7701502 1.5 0.021261647
2.7623241 2.4058173 2
4.7529135 2.5513096 2
0 0.2703563 0.63409603
4.0086164 3 1.6677675
4 0.40818515 0.52988678
4.0058398 2.150877 2
4 1.4024084 0.69640565
3.057296 1.0258472 0
4.1321826 2.2583356 2
3.5133159 0.74536818 0
0.36138809 3 1.4072827
2.4378262 0.47311828 0
1.225603 3 0.37135556
3.1937101 0.047065035 0
0.43965524 3 1.306538
3.241616 1.196638 2
0 0.92249459 1.6661021
3.0945227 0 1.6781306
0.86350209 0 1.9584951
2.6920362 0 0.49148166
2.3606446 0 1.9484811
0 2.5871968 0.31347716
1.2468266 0 1.8542449
4.0502758 3 0.66706759
0 0.93114865 0.19334577
2.8268006 0.65047026 2
2.2218919 2.9586236 0
1.7403971 0 0.65441805
0.69372571 0.42343116 0
3.0486324 1.0152844 2
2.7290392 2.0047791 0
2.9902174 2.8793161 2
4.5667276 3 0.62826997
2.4497645 1.3464748 0
2.5291352 0 1.365304
2.3530724 1.214929 2
3.7541466 0 1.5953548
3.7117774 2.6466482 2
4.5611219 1.999565 0
4.5612841 3 0.94233108
4.7650795 2.0786068 0
0 0.42118445 1.8266156
2.1981239 1.8040794 0
0.68790632 1.5918133 2
1.0061032 0 0.49777925
4.3444109 3 1.126398
2.528795 0 0.51819968
2.9297712 0 0.9743467
4.2284799 1.5 1.2072217
2.0301752 3 0.62111181
4.6423073 1.5733651 2
3.9575424 0 1.6332083
1.3477826 1.3542715 0
0.15292878 1.2040584 0
4 0.43646717 0.11626689
4 0.85743833 1.1526065
4.4418883 1.7319676 0
1.0399083 1.0456448 0
4.4551268 2.5954111 0
1.6803294 1.6512498 0
2.0486155 1.393754 0
1.3957131 3 1.1807408
0.59401757 1.5352426 0
3.1875112 1.5654405 0
0 1.1426259 0.32258132
1.0178841 2.816329 0
5 2.3723528 1.2739413
0.028374558 0.98857868 0
2.2875834 0 0.36323783
0 0.19981393 0.53125304
4.670105 3 0.13088349
4.0735359 1.5 1.4376453
3.1903167 2.3732815 0
1.0260152 3 1.2616103
4 0.85665423 1.4779884
2.1293073 2.1352446 2
0 2.866998 0.9806354
0 0.18589269 1.20882
1.844964 3 1.7170652
4 1.126165 0.17447077
4.19137 3 1.7554297
4.9829049 2.0705342 0
2.2998414 2.1980934 2
3.9124429 0.58449441 2
1.7425438 0.025076441 0
1.2939427 2.5831504 2
2.6711261 0.18327418 2
3.5189717 3 1.7248122
0.71991938 1.9031553 0
0.60659903 1.5453286 2
0 2.6694586 1.0353808
1.2810713 1.4297018 0
1.1917632 1.3646687 2
2.7265379 0.77140415 0
4 1.315698 0.44526529
2.3970466 0 0.84368038
2.4684923 3 1.3186151
2.1291714 0 1.2547365
2.9906268 2.1670706 2
0.12365119 0.59361982 0
3.0469928 3 1.4589262
3.6285882 0 0.78495646
4.8444524 3 0.40527442
0.049661838 0.9473213 2
0 0.13342892 1.5655779
0 2.515022 1.1370887
3.4848266 1.740327 2
5 1.6445642 0.7839421
4.6685734 3 0.99040574
1.7023512 3 0.73095542
3.6290996 0 0.53212523
3.5496194 0 0.63991356
2.7049706 2.06076 0
0.067140944 3 1.8907158
3.2939939 2.5179553 0
0 0.35760331 1.8528759
2.5410852 0.15923357 2
1.9469674 2.8322051 0
0 2.9183204 1.6449755
2.2345195 1.722012 2
1.8192316 0 1.967918
2.5481098 0 0.23737547
2.0059721 0 1.9310485
3.9219596 1.9838413 0
3.8858933 3 1.9344913
4.3393831 2.5989685 0
0.95966822 0.96440947 2
5 2.0981746 0.94063729
4.4660168 1.6615164 2
3.1556101 2.1913333 2
0 1.1266187 0.24097283
3.2327387 0 1.501125
0 0.65784734 0.29057059
0 1.6533338 0.19697344
0.40903309 0 0.61597741
4.7657876 3 0.14060105
1.5760847 3 1.1857102
0.19604354 3 0.63309175
0.37602279 2.4916205 2
2.6588588 0.036584914 0
3.6732957 1.530493 2
3.4729009 1.144841 0
1.8334142 3 0.28475997
4.6079211 3 0.11106771
1.7051222 2.554944 2
0.44702286 0 0.26946184
1.6938176 1.841253 0
4 1.0160574 0.1007171
2.4938378 0 0.93724334
0.94395965 1.059027 0
2.3198748 3 1.860043
2.1530349 3 1.521673
3.5999634 0 0.12828599
2.0825548 0.44671091 2
3.9572423 0 0.58556873
3.9771788 2.3572881 0
1.1626134 0.39473599 0
2.1214693 3 0.080901742
1.262254 0.2145907 2
1.5625808 1.4894187 2
0 1.8416445 0.90070379
2.4910758 0 1.1907798
4 1.3695936 1.1877303
2.3179464 2.3844178 0
1.8928221 2.909445 2
1.5802596 0 0.78263676
1.0504557 0.83520794 0
0 2.5703361 0.060132049
0 0.25474843 0.20176117
3.9229143 1.5450412 0
2.5495808 0.8952567 2
2.0836475 0.38605902 2
0 1.4003133 0.4023062
3.6547518 1.3456197 0
4 1.3192394 1.2058048
1.1247739 1.1344393 2
2.3837941 3 0.34949499
2.7130563 0.7690351 2
3.8467958 2.2237501 2
3.0102487 3 0.12886749
4.5423675 3 1.7067149
4.8814492 1.5 1.3862076
1.7432351 3 0.43411443
2.9768686 3 1.2145771
4.9867525 1.7567362 2
3.1031675 0 1.7433947
4.4435315 1.6719844 2
3.0915406 3 1.8789892
0 0.74667627 1.1435995
2.9720325 1.984268 2
5 2.2451444 0.64328915
1.2561622 0.45071128 0
1.0775226 1.0614301 0
0 0.37387714 1.6420677
2.4192479 2.8966744 0
2.5278759 3 1.2366973
3.3457558 0.63864332 2
5 1.7377667 1.2599539
0 2.1207895 1.405586
4.8833156 3 1.5853361
3.1465533 3 1.5462686
3.445384 3 1.7135934
0.19637617 2.1941473 0
2.0754299 1.5900483 0
0.81817055 3 0.79526216
0 2.8935854 1.3276298
2.1387169 1.1813403 2
0.19881198 2.90132 0
2.3054018 0 1.4831125
1.951594 2.4824398 2
0 1.4468051 0.4130038
3.1050649 1.9000345 2
2.1181686 0.87411821 0
3.5865476 0.8808583 0
2.5325987 0 0.19000217
2.6467047 1.6378436 2
0.96247178 2.1717191 2
1.3364863 0.46593234 2
1.1902567 0 0.40626016
0 0.21946238 1.6244098
2.886848 2.3139806 2
4.8013449 2.9935608 2
0 2.9383132 0.53976452
0.61681199 3 1.1938099
4.1580338 1.5155218 0
0.58764642 0 0.28730348
2.4320059 1.3875467 0
1.2081078 3 1.6825715
1.4267182 3 0.41564286
4 1.258747 0.13339189
0.90673769 3 0.50626856
4 0.62875354 1.4004413
2.0644188 0 1.2375855
3.0553536 0 0.47733429
2.0105131 2.0974541 2
1.3878243 0.82123297 0
4.3803854 1.6163188 0
0.11702522 1.9272916 0
1.874694 0.19499958 2
4.2135425 1.8887101 0
3.6024888 0 1.0667048
4.6323404 2.2348108 0
4 1.495458 1.3889934
0.72831249 0 1.5342177
3.691818 0 1.2736989
2.685004 1.3088744 2
3.4055233 2.7641346 2
3.3149245 0.54911786 2
0.85441667 1.5917175 2
4.8770213 1.5 0.23490022
4 0.15766788 1.9355533
0.54874426 2.0944343 2
0.28189054 1.1378214 0
0 0.62457424 0.64710683
1.0336775 0.45282483 2
5 2.4112198 0.37363356
3.3891051 3 0.55397809
0.8535223 3 0.030063827
4 1.372028 1.6606071
3.0950584 0 0.96152091
4.2108698 2.9621031 2
4.8534555 3 1.8476571
0 2.3774252 0.62507343
4.5670605 1.5 1.9858129
2.9467742 1.6396797 0
3.8142848 2.0964561 0
4.5027189 2.8426399 0
1.4848504 1.776144 2
0.63815302 0.15860894 0
1.9608054 0 1.3799543
4 0.78393018 1.8379856
3.0837948 3 1.5626212
2.0878327 1.5492039 0
3.7223954 3 1.1738417
3.9533803 0.049190316 0
3.7910872 0 1.9279926
5 1.5771898 1.0243638
2.1147637 3 1.0410856
1.5384288 2.1445405 2
0.5531159 0 0.27952367
4.3081913 3 1.1469059
3.4196513 1.0059625 0
4.991231 3 1.874391
2.0641937 3 1.1452794
0 1.3412875 1.4367973
0 1.6806976 0.80182827
2.6763122 3 1.8049778
0 0.47329664 0.86989135
5 2.0446355 0.56885517
0.55474561 3 0.59705323
4.8089967 3 0.53554296
1.2168576 3 1.1790413
1.90564 3 0.72004431
1.6501935 3 1.3180301
3.0271199 1.6836233 2
0 2.1778498 1.115723
4.4012575 3 1.6645845
0.53231126 1.9830036 0
2.126884 1.0705786 0
0.86779541 2.5574644 0
1.7772305 0.54313403 0
2.6917233 1.9288656 2
4.9122272 1.5 1.1326004
2.8046126 3 0.62304401
3.4863043 2.0605226 0
3.4449503 0.094354756 2
1.0816001 1.0669616 2
1.1166326 0 1.4792899
3.992198 3 1.3216914
1.2222031 2.6332574 2
0.12908866 2.615622 2
0 1.2341514 1.744825
3.7861717 0 1.0134829
1.4782988 1.3905323 0
0 2.8480127 1.5887896
0 2.6747115 1.8760995
2.8397291 0.44729656 0
0.3408601 0 0.36968347
0 2.9368331 0.82129937
0 1.4226322 1.9735485
2.0655954 0.066547506 0
1.4275763 3 0.79090327
0 1.2420143 0.11526132
3.0462954 2.4930768 0
3.3200202 3 0.97031146
3.7149322 1.7593383 0
3.6172438 0.37323615 0
3.5236702 0 1.0116292
0.61339074 0.41063875 0
4 1.38062 1.3856184
3.4561872 3 1.3900609
2.8936586 0 1.1157553
0 2.7531734 1.2146885
3.0096543 2.1421199 2
3.5495331 1.9247873 2
1.2420939 2.7942846 0
0.39982 1.6472878 0
4 0.082305253 1.1189299
0 0.81386518 0.82449365
2.7193334 1.914183 0
0.94094324 2.8597414 0
4 0.84061295 1.5401855
3.0563412 2.2063112 0
2.3951261 2.7844186 0
2.054513 1.1363363 2
3.0593514 2.3976052 0
2.6511528 0 0.54672819
3.3289235 0.041949771 2
0.82567543 1.2263147 0
0 1.4014602 1.2852654
3.1329975 3 0.19244312
0 2.897244 1.0451615
0 0.020830248 0.3256909
2.3053501 0 1.8247447
5 1.9656495 1.0916022
0.94150698 0 0.27201247
2.6843636 2.0561152 0
4.8381076 2.5429742 0
1.3686869 0 0.9619779
0 2.6480284 1.1438625
4.2144914 3 0.69108456
4 1.2359717 1.0440718
0.60430235 0.10652479 2
2.305243 3 1.7503699
5 1.6826814 0.19117479
3.9039803 0 1.5233152
2.8117836 2.4405982 2
3.8602746 3 0.38570929
1.2332138 1.310102 2
0.61153626 0 1.0842246
2.7634792 0.95581299 0
1.4874268 1.0779431 2
2.4297862 0 0.10523593
4 0.65154827 0.99403906
0.098752365 0 0.21824926
2.3439746 2.2756448 0
0.045980237 1.2000592 2
2.46175 0 0.76394647
1.2313379 1.6939074 0
2.6185036 2.0974534 2
2.3142426 0.60277212 2
0.69706732 2.5008128 0
4 0.42650107 0.34683502
4.4589896 3 1.3266309
1.4352922 0.98401755 2
0 2.7338524 1.9777859
4.2076626 3 1.2956682
3.3124592 1.4442344 0
4.3284607 2.6866808 2
4.2946105 2.4543865 2
2.1616399 2.4520385 2
1.873539 3 0.17464615
3.3740492 1.7995044 0
3.2049708 2.7637451 2
0 2.6983843 0.40686491
0.66144222 3 1.5730674
1.5017664 1.7505516 0
2.8097541 0 1.0990797
0 1.751687 0.71708202
0 1.2680807 0.97048002
0.15210977 2.0513363 2
3.8852916 0.17730074 0
4.1614265 1.5 1.9518334
2.7660067 0 1.8477916
1.4307654 1.6908321 2
2.5190701 1.2452887 0
1.0720633 2.744355 0
0.87756985 0 0.57091969
5 2.4820485 0.79313797
4.8440113 2.6739919 0
4 0.86691552 0.77669728
2.1867914 0 1.208666
3.8635585 0.73200822 0
0.65555006 1.7642428 2
4 0.57027179 1.3460407
5 1.7293761 1.1161335
4 0.82211387 1.998601
0.0090477224 2.5242615 2
0 0.86083931 0.69144553
3.4760215 1.4956734 0
1.6674906 2.3273122 2
3.622299 3 1.5021349
3.80743 1.071661 0
0.87289393 2.002898 0
0.1809191 2.9756491 0
0.54057813 2.4609289 0
0 0.42293862 1.7422278
2.2896528 1.544126 0
2.3011818 0 0.048275914
4.5552526 2.3199334 0
2.2191434 0 1.1688554
1.2656536 2.4437687 2
0 0.49496293 1.7414584
0.0049913321 1.6288593 0
1.4845021 0 1.012377
3.2141085 2.1441445 2
3.6668413 1.0725346 0
4.7036138 1.5 1.0491239
3.1000142 1.7904592 2
4.2297406 2.1352739 0
4 0.17303127 1.5221884
3.3298144 3 1.7215773
3.2962317 0.49457562 2
0.70726383 0 0.95586157
4.2709918 1.5 0.35940391
5 2.0723929 1.7626382
4.5622869 1.5 1.6898257
0.45531157 0 1.7138379
0 2.9510293 1.9646006
3.6984622 3 0.029973984
4.5058985 1.9184078 2
2.4967237 0 0.34356344
3.0951271 3 1.2558513
0 1.9119884 1.9779315
0 1.5147818 0.18983305
1.2182691 1.9840925 0
0.62283736 3 1.4089723
0 0.85168171 0.96185011
4.6149459 2.5116458 0
1.2368513 2.5053203 2
3.4536104 0.70941198 2
2.3766725 1.2162056 2
2.7410243 0 1.3574476
2.7794204 1.1703711 2
3.4518199 1.0352936 0
2.7320447 1.7527683 0
0.77990377 3 1.8809334
0.73747778 2.5993369 0
3.0762854 0.10020094 2
4.6727285 2.6128619 2
3.2753577 1.9470443 2
2.0138595 1.55367 2
0.11739211 2.6675787 2
5 2.2047749 0.24071178
2.4906211 0 0.68502587
0 1.3454212 0.63140011
3.4266679 1.2820214 0
0.034254506 0 1.1713936
3.1355782 1.3793646 2
0.15917619 0 1.532486
2.8567576 3 0.15146369
0.081662044 3 1.7337588
1.8462571 2.7604554 2
3.0012801e-05 0 0.90684527
5 1.7861454 0.93467933
1.476011 2.9149163 2
3.0342593 0 1.2225499
1.0040045 0 1.8452824
2.7252576 0 0.56539935
3.3132038 1.8844028 2
4.410121 3 1.215456
4.1139026 1.8770602 2
3.1293566 2.1453514 0
2.4674244 1.1981424 2
3.0746994 3 1.3666652
2.6809592 2.2765529 0
5 2.0626292 0.24946851
3.1317308 1.0387876 0
1.8708832 3 1.9484591
0 1.2616178 1.482605
1.0256033 0.37218168 0
4.3538203 3 0.61740607
3.2528703 2.7674918 2
5 2.8514631 0.737773
4 0.35967332 0.68222493
5 1.9074305 0.16548458
0 2.4921491 0.038468357
3.8276613 3 0.94084013
1.6581743 0.78176153 0
4 1.3799284 1.4173181
3.0345848 3 1.5361754
4.9190569 2.3249452 0
4.278441 3 1.571557
0.76645231 3 1.4849888
4.9988475 2.6335332 0
1.8221921 0.58955663 0
3.8167248 1.5684459 0
4 0.10748051 0.63914287
5 1.9561739 0.29570216
5 1.7299 0.19677153
2.0048521 0.29442883 0
2.8598537 3 1.5219928
3.6298163 0.2081774 2
1.5985223 1.5520074 0
4.4926395 3 0.096502505
2.0229259 0 1.7385031
3.7463956 0.21201949 2
0.36743924 3 1.54659
1.30396 0.45295402 2
4.3887787 1.5 0.37507236
4.6463404 3 0.69330561
1.161333 0 0.5214709
4 0.10859253 0.9053511
2.8048291 1.5751572 2
1.4370453 1.3698295 0
0.85682845 0 0.22908181
0.16201034 3 0.35885602
2.4941282 0 1.326537
3.0989666 0.5661633 2
0.2392109 3 0.077467591
4.8193631 3 0.10487867
4.6763673 1.7826216 0
0 0.74591446 1.4472631
2.8857446 2.406024 2
0.76340348 3 1.2921824
1.5320055 1.3976017 0
1.2243682 2.7203693 2
3.1079209 2.3064027 2
0.12840995 2.5709612 0
4.6586194 2.7699473 2
3.0726171 0.64508426 2
2.037569 0 1.2705854
4.8172145 1.5 0.36493683
3.7585528 3 0.33608469
1.7061836 3 0.91763479
0.81666702 0.95585859 0
5 2.6202652 1.6716801
3.0340123 0.046041418 0
3.0790613 0 0.71922892
0.03895577 1.5351247 0
0.85727507 1.2189651 0
0 2.906821 0.82131904
0.96371013 3 0.30275705
4.5663571 2.8976064 0
4 1.1477109 1.3798785
2.6811938 2.1389034 2
3.186631 1.8839353 0
3.8069105 2.3673172 0
2.6929443 0 0.60572422
5 1.9798372 0.34506455
4.8440475 2.4714699 2
4 0.92820805 1.0535778
3.8034534 3 0.32972482
3.9051011 0 0.24492633
1.6486154 0.26637536 2
4 0.26973569 1.4989344
2.4890487 1.4552815 2
5 1.9883863 0.73330796
4 0.81693453 0.77359527
1.6359507 1.3667885 2
3.3397591 0 1.2515315
0 1.6668551 1.1081389
1.9757876 2.8933694 0
0.7379452 1.0853949 0
4 1.2863363 1.3906249
1.9156482 1.8308706 0
4.3276715 2.3581147 0
2.7869174 2.3765826 0
0 0.21802489 0.83856022
1.9649742 3 1.5168614
0.39895451 0 0.35932824
3.8758299 2.5684259 0
5 2.2500684 1.9870808
0.76419485 1.9359261 2
0.40704712 0.4859682 0
3.0259414 0.7704587 0
0 1.8462869 1.3422171
2.6900244 0 1.6373975
4 0.26315781 0.43419543
0 0.061867561 0.87522697
1.6080794 1.1063627 0
2.4951925 0.90566504 2
1.6207598 3 1.6301183
2.6011369 0 1.6433966
0.021425979 2.3328257 2
2.0110226 0 1.9093117
1.7915365 2.0387564 0
2.5418985 0 0.529217
1.9906411 3 1.7479892
0.49825174 0 1.8741885
1.7445192 0 1.6307489
5 1.95284 0.61697733
3.248553 2.2007911 0
4.4183846 1.5 1.0877825
4.959877 2.4404812 0
0.46490043 2.5844743 2
0.4913795 0 1.8377758
0 2.4915624 0.1486948
2.1575797 0.90658408 2
0.86674249 1.6409807 0
3.4902594 0.56404668 2
4.9962826 1.5 1.3643744
1.4485962 0.88768601 2
3.3604755 0 1.7432141
4.1650591 2.2918057 2
1.8188339 1.256815 2
1.7528924 2.8614275 2
1.6530663 0.32581213 2
0.91536891 2.7543037 0
2.9930573 0 0.29269606
3.8713558 3 1.5558448
0 0.30391657 0.9616158
0 2.2421789 0.76720953
4 1.1166738 0.5941214
0 2.8830652 0.0075759795
0.31074357 0.46905941 0
0.63982701 2.9645526 2
3.9498119 0 0.92609757
3.0997057 0.71059573 0
1.2369503 0.73374873 0
3.6701128 3 1.6352162
3.6370103 3 1.3659723
2.0206881 2.1595504 0
2.7465241 0 0.6526581
4.3102145 1.5 0.37220085
1.2340558 3 1.4701216
4.8461242 1.9643942 0
1.2474461 1.9959016 0
3.3608952 0 1.0396907
0 2.6844649 0.17275402
2.3033652 1.9477684 2
1.9970626 0.29843068 2
1.5361719 2.1624093 2
2.4811378 0 1.116365
2.3932011 2.7438667 0
2.4381287 0 0.86751068
1.2321115 3 1.8521527
1.7020829 3 1.5333815
0.88458937 2.713589 0
3.3375299 1.3820356 0
0 1.3087071 0.2865105
1.2168657 3 1.9639828
5 2.1258206 1.2252209
0 1.4351339 0.34503177
3.5547299 1.9583886 0
5 2.6796465 1.625302
4.040823 2.6994767 2
4.0407701 1.5 1.0524575
1.7759535 3 0.19636829
4.909183 1.5837535 0
3.9356947 0 1.7615482
3.3920295 1.8877966 0
3.2482357 0 1.5622237
5 1.6722519 1.578238
1.4849868 2.886683 0
2.130065 2.5553887 0
0.060654335 0.17761678 2
3.9063907 3 1.4486258
4.3736911 3 1.5628086
4.1480165 2.8908868 0
2.9674683 3 0.44547963
0.0028950665 1.7533848 2
3.815814 0.99851245 0
2.2120419 0.33667934 2
4.5655794 3 1.9979967
3.2998366 1.3996954 2
2.5914381 1.4595215 0
2.6816313 0.92906618 0
0.34989581 2.4555147 0
4.1927481 2.8865173 2
0 2.2780035 1.8253058
5 1.8827016 0.70700473
3.4114437 0.76240897 2
0 0.78311157 1.1295077
1.5286776 0 0.60744172
2.7193263 1.3173349 0
2.4152179 1.5591536 2
4.1709986 1.5 0.77444369
0.16840652 0 1.6513171
5 2.2221935 1.2272301
5 2.1540303 0.20069496
4 1.0999882 0.26149708
0.21488869 2.7753594 0
1.1781802 2.3844628 2
3.2216971 0 1.2511637
2.8566234 3 0.78991902
5 1.8256464 1.4108251
2.6825819 0 1.3427975
1.849438 2.4703729 2
4.7467251 1.5 1.1813661
0.41246 1.9356465 2
4.3238521 1.5 1.1932747
4.6488953 2.9255533 2
1.5221764 3 1.8505211
4.17413 2.5482972 2
0 0.028343916 0.97226906
0 1.1797429 0.081559673
0 2.8836792 1.1062685
4.1397405 3 1.5632403
3.4987345 3 0.53293437
3.7894702 0.55251706 2
0.81486028 0 1.8645568
2.4645391 1.0647219 0
4 0.86190474 0.73048478
4.1486778 3 0.14330989
0.93353295 0 0.97141063
5 2.3716679 0.49638402
2.2068136 1.5285121 0
3.4320083 3 0.37999484
1.9041728 0.59061259 2
4.2280169 1.9540148 0
3.8466458 0 1.2656521
4.5977044 3 1.1496357
0 2.6879776 0.042698104
0.46628258 0.82173592 0
1.8513108 0.22826248 0
2.3164406 2.476105 2
0.7454434 3 0.16589205
2.1950176 3 1.596926
4.0080128 3 0.16650388
0 2.8612235 0.74594706
4 1.2160752 0.97875774
4.3732052 1.6202711 0
3.812238 0 0.29422766
4.9092398 1.5 1.3670226
4 0.77986598 1.3091887
1.7412148 3 0.40471414
0.16696349 2.4969261 2
0 0.62815976 0.63736582
1.0938822 0.35212258 0
1.8541392 1.5298519 2
4 0.18275164 1.2638139
1.8691065 1.1404703 0
0.3431226 1.908321 0
2.5360544 0.76490104 0
4.7220793 1.5 0.46803477
0.7098043 2.2874074 2
2.5359108 3 0.91580522
0.86279845 0.70601559 2
0 1.5927852 0.67393279
4.0133133 2.8463495 2
0.77660692 0 1.5530398
2.6434336 3 1.0286895
0 2.5618186 0.33162758
1.65789 2.9998035 2
3.018075 1.5959754 0
2.3940923 2.0223405 2
3.9277272 0 1.7418445
0.27882969 0 1.6458871
1.7008004 3 0.92066586
0.12525493 2.9934604 2
0.16280404 2.3478739 0
2.761436 2.1606297 2
1.4440494 1.8418798 0
2.6178401 0 0.61464286
0.89244115 0 0.93569833
1.6601714 1.9970026 0
3.8257842 0.29710555 0
0.54857403 0 1.0205991
0.64094478 1.3423147 0
0.22131969 0 0.37406671
0.0015818104 0 1.5467558
1.6456996 0.16961624 0
1.2973683 2.9985807 2
0 1.3114637 1.0416895
0.19401395 0.53084701 2
0.74870789 2.3419096 0
0 2.7131906 1.9732021
0 2.9336383 0.91493326
4.1703525 2.0540245 2
3.9484959 1.6126379 2
0.15006563 0.97729033 0
1.378592 0.16762035 2
1.9099052 3 0.31984523
1.931101 1.5117902 0
3.9004626 2.6792331 2
4 0.52622694 0.90219396
4.1959968 1.5 0.17063232
0.13578437 0 1.7110184
1.4267516 1.8426623 2
3.4405522 1.0781724 0
5 2.5230331 0.55496728
0.68287712 0 0.3017894
3.6163163 0 0.70665425
0.77626139 0 1.2640636
0.78362894 0 0.97610837
2.054415 3 1.4352367
4.6619883 1.5 1.1430393
4 0.72438043 0.43078598
4.1083403 2.8531718 2
1.7121798 2.7287655 0
2.2141631 3 0.28193077
5 2.9016392 1.3127171
0 1.5934496 0.82151872
1.5503575 1.0027666 0
0 1.6168491 1.537662
1.6456529 2.7820725 2
3.3104491 0 0.76864648
4.7181664 3 0.16489795
4.7319255 2.7843449 0
0.38194862 2.4613183 2
3.102767 0 1.0907803
4.0335588 2.022764 2
1.917123 1.2327657 2
2.2469561 2.6838865 0
1.3852268 3 0.12234747
4.833766 2.6447968 2
4.4985933 3 0.11903854
0.14144421 0 0.084492549
5 2.0805607 1.8281338
0 0.98364931 1.5833352
4.167264 1.5 1.4507775
1.463504 3 0.46368384
4.6097722 1.5 0.53680515
3.097101 2.3125846 2
3.2049093 3 0.048922695
0.24485143 0 1.1206704
2.9589193 2.4662259 2
3.7987072 0 1.4627771
2.4892855 3 1.7119688
3.6720614 1.6978313 2
4 0.92965245 1.3523358
4.9490614 3 1.9579934
0.9785555 0 0.1748849
3.4956465 0 0.041139305
3.9505343 0.42813855 2
2.5601926 1.6985735 0
0 0.30332384 1.2715455
0.15141867 0 0.7023257
1.861259 0.38107729 0
0.31606555 0.48796383 2
1.0723592 2.0527794 0
0.78241962 3 0.64426827
1.1149955 0.64235115 2
3.9968052 0 1.1415998
0 2.1376753 0.58838481
4.3305073 1.5 1.7616955
3.0733898 0.63629949 0
0.037611961 0.85277766 2
1.0374054 0.60034198 0
2.1084158 0.49345449 2
3.7683048 0 0.681629
3.4140003 1.5114883 0
4 1.4910812 1.3118627
0 2.2768283 1.1224875
5 1.90804 0.93655443
1.5880053 3 1.4988763
0.31922621 2.7458434 2
2.9680095 0 1.8619246
2.675446 0 1.2804234
3.7709386 0 1.6387957
2.6298938 1.5411625 0
3.4986451 0 1.6379844
4.3691301 2.4020479 2
4.6380978 1.6490617 0
1.9793992 2.873862 2
3.0196519 0 0.18477879
1.9675362 2.4216039 0
2.3889036 2.4177327 0
1.2841748 3 1.9453239
3.1285231 1.9479058 2
1.852024 2.8864393 0
2.8938539 3 1.6370867
4.86064 3 0.73154825
4.5670409 1.5 1.4031359
4.770884 3 0.74671853
2.1416936 2.7440763 0
3.0198591 3 0.96428019
1.880002 0 1.7161762
4.8838253 2.2619557 2
4 0.49147442 0.95805007
0.10552506 3 1.3714416
0 1.7346766 0.14111675
2.3003888 0 0.20537345
4.6251864 1.7083681 0
1.5402584 1.8703041 0
4 1.3860021 0.087143354
2.4843965 0 0.54907572
4 0.66810685 1.0733039
1.2470142 0.047574509 2
2.7506535 1.8723873 2
3.0790715 1.0678406 0
0.79161566 3 1.0761404
5 2.446907 0.82088238
3.1802268 0 1.5496747
5 1.9042633 0.014706851
2.9178121 0.049008574 2
1.6209543 3 1.6507636
4.8587217 2.0627246 0
1.7856553 0.075926341 0
0.62099195 1.1177236 2
0 0.33176604 1.1436609
0.25270665 0.79974174 0
3.9339888 0.65811509 0
4.5702691 3 1.9658103
0.10488375 3 0.86681485
5 2.5134354 1.1442044
4 0.79424715 1.6420929
0.72204167 2.3643231 2
2.8277745 0 1.7843437
4.5037928 1.5 1.5856081
3.235991 2.2163274 2
2.5307052 1.4422973 0
0.038441695 0.67343795 0
0.11670004 2.4696612 0
1.2132311 0 0.037064008
0.12330794 2.5301411 2
1.9262187 0.28927034 0
2.5500052 3 1.0822616
0.79395717 0.1193561 2
4.234282 1.5 1.9020933
4.1994042 2.960809 0
1.2322763 0.49161205 0
2.9440327 0 1.427456
2.4574182 0 0.17284578
1.9776934 1.06648 0
4.0393329 1.5 0.93278897
4.9109507 3 1.0979056
0.71294457 0.12889081 2
0.24120022 2.5702438 2
1.0719517 1.2181171 0
1.8295157 1.9433671 0
0 2.7995486 0.4515278
0 1.7634008 0.12369449
2.5462728 0 0.44976231
3.3763964 1.5497351 0
0 1.8111296 0.15775712
0.20179929 2.0061958 0
4.3982582 2.983207 0
0.79505992 3 0.29290089
0 1.3632152 0.30337062
2.8456419 2.8908103 2
4.7104478 3 1.3814235
2.5533631 0 0.3795183
1.2892574 2.0834813 2
0 2.7519503 0.049051881
0.75550276 2.0882463 0
4 0.73016155 0.76417977
1.3283621 0 1.5785753
4.3890667 2.6045954 2
3.5162964 0 1.285989
4 0.98545498 1.5596308
4.4160271 1.5 1.2033484
1.7223353 0 0.67170882
1.7295676 0 1.5049229
3.8672836 1.7130948 0
0.63305932 2.2055664 2
0 2.6984556 1.07385
1.2597216 0 0.62113857
2.1493461 3 0.79058641
4.5133696 3 1.9833452
1.3539922 2.0311396 2
4.9148812 2.5926507 0
1.5007514 0 0.31582609
5 2.4077678 1.7778368
1.8059449 0 1.5682012
2.2322483 2.4142437 0
2.263947 0 1.2043288
0 1.9619107 0.55926108
2.8302522 0 1.3991627
2.7885749 2.5465171 0
4 1.3343545 1.7326754
3.4764805 0 0.35390571
3.3294644 1.6032401 0
2.9874017 0 0.28887075
4.8511624 2.5297234 0
3.6224842 3 0.55439723
1.9890478 3 0.58265764
2.3656981 2.5178235 2
4 0.84505415 1.0776948
0.75995946 0 1.6960644
4 1.1257371 1.500825
1.1952889 0 0.44164228
4.390831 1.5 1.8043249
0 0.67086726 1.7009046
0 1.8483903 0.75596476
1.4056988 0.5721907 2
1.6844122 2.2298338 0
5 1.9135863 0.8098672
0.7008124 0 1.3955849
1.0443841 2.3872168 2
3.6430092 1.268039 0
2.3196445 2.7029772 2
2.4836762 1.5485471 0
0 0.47691759 1.8739452
2.8022726 2.4006848 0
1.8019805 2.9451883 0
0.58201277 1.709965 2
3.5909314 0.096099615 0
5 2.0445662 0.081480645
0.95042485 1.1617327 2
4.8463616 2.685235 0
0.054393306 3 0.69703317
2.1053898 0 0.94674259
5 2.8340731 0.3029927
2.7688494 0.85717618 2
3.5302522 2.1729395 0
4.9830623 1.5 0.69135481
1.8281285 3 0.28565463
0 1.6671977 1.2325155
0.81627715 3 1.8410494
3.6331193 2.231097 2
0 0.40228185 0.80028361
0.22966473 3 1.6442413
1.048057 0 0.42745343
4 0.82723916 1.6422436
2.0649097 3 0.93673396
1.2290285 1.4714704 2
4.8515882 1.5 1.3754246
0.97574472 2.0990126 0
4.8349104 1.9907486 2
0.91588765 3 0.97728264
3.6603024 1.7368426 2
0.41792119 1.9502895 0
2.0452459 1.0857377 2
0.30423635 0.73031831 2
1.1383817 3 1.5068066
1.360763 0 0.43509054
3.5859396 0.56958711 0
5 1.9591732 0.86241472
0.72647196 0.29522914 0
4.8800087 3 0.74462575
0.2447392 0 0.54377043
0 1.0082134 1.1664077
2.3701525 1.9254925 0
0.49427569 2.6786239 2
1.6639848 2.0013635 2
4.585897 2.5473173 2
1.4490935 1.2464364 0
0.097470246 2.4156437 0
1.1743424 0.8449955 0
1.378468 2.884901 0
1.8204852 0 1.9937272
4.5539498 1.5 0.31896287
0 2.7567735 0.66952622
3.0953147 1.9589223 2
1.9209074 0.98612589 0
4.656291 1.5 1.5040623
4 0.63453746 1.012913
0 1.1431425 0.21391086
1.6105741 0 1.2299821
3.9707546 3 1.2585192
2.0501118 1.6052678 0
2.8788633 0 0.088052139
4.3922963 2.2451651 0
1.3538373 0 1.4609897
1.3986894 0 0.41344628
1.9141183 3 0.86017829
4.3554201 3 0.53505152
3.1917503 2.9940469 2
1.8227397 3 0.7386812
0.010377867 3 0.51134098
2.0264733 0 0.083661973
3.7279594 0.33241662 0
4 0.66436523 0.45918518
4.1561012 3 0.9623341
0.45792481 2.2958183 2
5 1.5329518 0.31098861
4 0.40469563 0.78070587
2.0006435 3 1.6778899
3.1012399 0 0.49981025
4 1.0573483 1.9014876
0.21251012 2.9397352 2
2.710252 3 1.3422419
3.7220492 3 0.26217145
3.031431 3 1.7926931
4.8168349 1.5 1.8604578
3.156873 0.13180932 0
4.5925865 2.0840659 2
0 1.1082966 1.0230882
4.0620275 3 0.05192519
3.3064184 0.85472006 2
2.2295518 0.3731766 2
2.445286 3 1.5642692
3.2199087 0 1.1641036
1.6038795 0.67280275 0
4 0.53947258 1.3084382
4.5889988 3 0.6244486
1.2613466 0.58477598 2
4 0.31963921 1.4909102
2.8065813 2.2633505 2
2.3891711 2.4425406 0
0 1.2272333 1.8569956
4.3396497 3 1.9675618
1.2512556 2.8065917 0
3.7254653 3 1.3824403
2.1637754 0.41492024 2
3.8304584 2.4899859 0
3.9524968 1.7112839 2
0.13232383 1.0571229 2
2.9606819 0.56140804 0
0 1.4187131 1.1913924
0.67505294 0.075335592 0
3.4706197 2.1342316 2
2.7034698 2.1284339 0
5 2.2066886 1.3313518
5 2.6663165 1.9456843
3.7712715 1.7369605 2
3.5237215 3 1.3225307
0 0.75163519 0.83958066
0.80306536 3 1.7547765
0.4170028 3 1.7681676
1.4434571 1.8988494 0
0 2.8931735 0.12465867
4.7964859 1.5 0.77318424
4.9088049 1.5 0.045928173
3.3189576 0.71317798 2
4 0.63271981 0.94301283
2.6303189 1.6165667 0
0.80094182 0.17139989 0
0.84852093 0.87181187 2
2.9418683 1.9199054 2
0.53024322 3 0.87078065
4.3479619 1.5 0.65987933
1.7437155 0.42027706 0
4.5047169 1.5 0.36690035
2.2567298 1.4033825 2
1.6598293 0 1.3617982
2.5740831 0.64915949 2
0.33717212 0 0.30960351
0 2.8811784 0.62721711
2.8462837 2.0668299 0
2.5073302 1.415886 2
0 1.9671904 0.32351109
1.8879981 0.19457121 2
2.4887574 0 0.031715076
1.904144 2.5309358 0
0 0.72967285 0.34688112
1.5491433 0.88516998 2
1.8806243 3 1.5257699
0.52555066 2.8441489 2
3.6855946 2.0379155 0
3.0319512 3 1.6269329
0 0.84189981 0.079156294
1.0173534 3 1.8107878
4.7581968 2.7361093 2
0.49853224 3 1.3238003
0 2.6378472 0.79069805
0.2294676 2.5901837 0
0.13315326 3 0.5727849
3.0885847 2.6277041 0
2.5450943 2.9819558 0
5 2.3608508 0.99940991
0.010663353 1.8658797 0
0 1.6742126 0.16065352
1.6289657 3 1.7823268
1.3906765 0 0.96917033
0.058207732 0.75574738 0
4 0.4795756 0.16099381
0.75558877 2.1632566 0
3.4809208 3 1.6760721
0 1.3371783 1.8689278
3.8102603 0.47356772 0
2.6757646 1.9431572 0
3.3412232 1.6308007 0
0.23934622 1.5558376 0
4 0.81699049 1.1143644
1.2880498 2.4376841 2
3.5604196 1.8206538 2
2.5999916 0.50649714 2
3.6525073 1.1220132 0
5 1.8515583 1.6854299
3.9255741 0 1.4059602
2.8915045 0.1801343 0
0 1.6431754 1.5048939
0 1.8335829 1.1029712
0.70731127 2.6216631 2
3.8679123 2.5352802 0
5 2.5187435 0.79670966
3.5846267 1.6754016 0
0.21806563 2.5062075 2
2.0636487 3 0.60117638
4.0226622 1.5 0.97547364
4.3345437 2.4167078 0
4.5666451 1.5 0.67433065
4 0.3724381 1.5060409
2.8737316 1.0449823 2
0 2.5187333 0.74769771
4.1243992 1.5 1.9830489
1.5940984 0.37758559 2
4.5437846 1.5 1.549161
3.2421288 0 0.52524984
2.1122708 2.1286116 2
2.7446973 1.0231 2
5 1.5965546 0.36779824
4 0.26653701 1.1061851
0 0.3874329 0.98454875
0 1.6639924 1.2534276
4.8683209 3 1.5842512
2.4896309 3 0.90770608
0.23504239 0 1.7372516
2.7805543 0.15973836 2
2.5812476 2.1869345 0
4.4146085 1.5 1.8476635
4.0846725 1.7007575 2
3.4245026 0 1.9778328
3.9619393 3 0.069860682
0.68116575 0 1.8630358
4.7539754 1.7027823 2
1.1438669 0 1.426401
5 2.0557981 1.2792432
0.3108294 3 1.3037826
1.2795721 2.3168528 2
2.6372201 1.8336467 2
1.9949898 2.4050007 2
3.1354716 0 0.18037006
3.3998685 3 1.2250633
1.2048525 3 1.7913493
4.2309937 2.6013594 0
0 0.25916371 0.080538467
1.4670027 3 0.30193162
0.67442256 3 0.70603406
4 1.0667782 1.369766
0 1.4947838 0.88439387
3.7688642 0.29035681 0
4.2213454 3 1.4562099
1.9556985 1.176384 2
1.5985413 0 0.85890031
4.7531753 3 0.618729
1.2306982 0.62692142 0
2.7271206 3 1.9314531
0.042047106 3 0.001580677
4.0210114 1.5464823 0
1.6033828 3 1.3948455
4.8725991 3 1.2896639
1.9034448 0.61686945 0
1.0566382 2.5672455 2
4.7668128 1.5 0.080821119
4.8970532 2.9613054 2
0.46292126 0 0.64732611
3.144311 0.11842413 0
0.83992255 2.2150297 2
0.27211499 1.7330487 0
2.4534285 0.73996973 2
2.6764598 2.0997319 0
0 2.9983244 1.0616646
2.1854954 0.75928503 0
4.5457883 3 1.0800602
2.5797255 2.240947 0
1.2284504 0 0.95452988
0.86951047 1.0623072 0
1.591888 3 0.68889695
2.773113 1.4737964 2
0 1.6766177 0.50445741
2.1074564 0.46153224 2
3.3743429 0 1.8327503
5 1.9796919 0.036255486
0.50733978 3 1.0532129
0.5976944 3 0.98641467
5 2.8418856 0.8858999
1.9191477 3 1.8035407
3.9194088 3 1.5789465
4 0.26855928 0.27656952
1.8431561 0 1.2270401
0.52601433 0.84769875 2
0 0.83665228 1.9184209
4.7050018 3 1.0037104
0 0.46872512 1.7433586
1.5657715 3 1.0583456
5 2.7274258 0.44982287
4.7420468 1.5 0.0374594
0.72830832 2.9556806 2
4.9780278 1.6904359 2
2.3849044 2.729064 2
1.4686896 1.1103469 2
5 1.9649242 1.9288785
2.225065 3 0.89032632
1.7781092 3 0.049142953
0.18829763 0 0.049010847
3.8016682 0 1.4836224
0.86809164 0.47964635 2
1.2695334 0.69369477 0
1.687564 0.58572036 2
3.6939785 1.2690167 2
2.1559107 1.1046973 2
0.57344216 1.9605502 2
0.44563872 2.6606741 2
3.53845 2.3120513 2
3.1033244 0.40792626 2
4.6089063 1.8447089 0
1.5443342 2.8267272 2
0.2287897 1.8303177 2
2.5265779 0 0.28824148
0 2.1445119 0.43852991
0.092403904 3 0.92560881
2.6818981 1.1945368 0
4 1.1974313 0.16876155
1.7565973 1.7477596 0
2.2601321 0 1.4136406
0.56542242 0.94925773 2
3.2948606 3 0.91283292
2.9987319 0.0050425404 2
0.51180565 0.82951272 0
4 0.25457865 1.6468097
4.452229 3 0.86811322
0 2.6541164 0.90727293
1.4018329 3 1.2204584
3.3291974 2.3402128 0
0.34434101 3 0.57260746
3.641155 2.1779628 0
1.0100722 0 0.089411087
2.3812716 2.1025975 0
0.59076911 0 1.5893813
2.3504968 0.74985039 0
0.14878914 3 0.53748107
4.411922 1.8056821 2
2.4640312 0 1.2760361
1.8910689 1.5674722 0
0.5050624 0.65796864 2
2.021723 1.9183477 2
0 0.57437742 0.085948445
2.9149995 2.0877612 2
4.5280056 3 0.24532485
3.4273319 0.60843062 2
5 1.5663208 1.9843235
4 1.3171595 1.871326
2.1643867 3 0.16418764
2.373754 2.3669143 0
4.9767876 3 0.43785766
5 2.2025797 0.30640322
2.12867 0 1.6404301
1.4318843 0 0.20452446
1.7476037 3 1.3870697
0 2.1505306 0.0079302341
0 0.77662653 1.9590024
0 1.7050031 0.015609822
0.7702961 0.3262392 2
4.8405795 1.6297953 0
4.9094057 2.4630952 2
3.1858938 2.6433187 2
0 0.90298468 0.85985583
0 1.4968586 0.69006294
1.8586189 0.12710357 0
4 1.3894703 1.9579538
2.1512229 0 0.77301258
3.0809984 3 1.5619359
1.4883828 3 1.6376624
2.0784442 0.97692412 2
0.79447502 2.7015705 2
3.1490099 0.51107025 0
1.1903406 2.8471818 2
0 2.9198749 0.033015572
4.4148088 2.9936962 0
0 1.3581239 0.86234266
1.54935 1.5040227 2
0.73167914 0 1.5251892
4.7228565 2.2980819 0
4.1503868 1.5 0.95931637
3.6804297 1.7179981 2
2.2133839 3 0.77681971
4 1.3837299 1.3070853
0.44384974 2.4911458 0
0.38751438 0.22487196 2
5 2.9961505 0.68517888
0.64892668 0.95400923 0
4.2388978 2.5549808 0
3.7692685 3 1.5027684
0.14934233 2.0022032 2
3.2436678 3 0.51722872
2.1830187 2.5114682 2
2.0704381 2.6046462 2
4.3073001 3 0.79575837
0.91584814 3 0.5812093
3.35589 3 0.66419268
2.9739425 0 0.32762596
4.188066 3 1.192307
4.5651741 3 1.0482893
3.7811174 0 1.4318341
4.9129014 3 0.51430917
1.5654875 0 1.9080052
5 2.3305216 0.40112713
0.12852862 0.83034235 2
4 1.361344 0.67804325
5 2.7385747 0.44232431
5 2.6230049 1.7865337
3.388315 1.5085555 0
2.6591697 2.5922937 2
2.0396791 0.66860163 0
5 2.1477745 0.053140778
2.3844004 0.59910572 0
0.46926367 0.30862367 2
