# .PCD v0.7 - Point Cloud Data file format
VERSION 0.7
FIELDS x y z
SIZE 4 4 4
TYPE F F F
COUNT 1 1 1
WIDTH 2117
HEIGHT 1
VIEWPOINT 0 0 0 1 0 0 0
POINTS 2117
DATA ascii
1.0878185 0 0.19950697
2.3631287 3 0.80276084
0 2.6028585 1.8506503
2.3609862 1.65611 0
1.7300868 0 0.52929699
0.48570448 3 1.3831774
3.4526644 1.0154215 2
4.9595838 2.5371723 2
4.5633798 3 1.4953429
2.3614984 2.2604825 0
0.95403552 1.5825517 0
0.34851667 3 1.3262361
4 0.16776867 0.36146161
1.05185 1.5109507 2
0 1.2722195 0.46828756
4.1221495 2.3656425 0
0.20567851 0 1.1609045
3.3650908 0.74334478 0
0.42565933 0 1.035167
4.2193613 1.5 0.90937114
0.48018855 3 0.18916754
4.4240079 1.5 1.9525869
5 2.791651 1.2407055
2.6657586 3 0.79350495
0 2.6663513 1.3735325
2.4333577 2.011107 2
5 1.5132887 1.3642056
2.3167133 0 0.73910558
0.59855431 1.7347895 0
4 0.89128274 1.9365939
0 1.1113255 0.48280743
0.86638612 2.8820574 2
4.4581914 3 1.8014336
4.9030871 1.5 1.6754192
0.10021216 0.2966392 2
2.1428268 0 0.66606557
3.1276793 2.7648833 0
3.6967115 0.23608895 2
1.5236932 3 0.32198754
0.58589214 1.410061 2
0.41168666 3 0.38804713
0 1.1660185 1.3064744
3.9304895 2.4719317 2
3.7189515 0 1.5751483
1.3659935 2.53778 0
2.593869 2.5818484 0
4 0.36757252 0.5858894
0.46453959 3 1.5186627
2.9024749 0 1.9621381
0.85322005 0 1.9186145
4 0.86717635 1.4200957
2.3907018 0 0.91521263
0.24049585 3 0.074077584
1.8238069 1.0145032 0
2.3212471 0 0.020825414
4.3544273 1.6361985 2
0 1.0213573 0.82289809
0.070008829 2.7161782 0
3.4279342 3 1.4255035
3.7296014 0.65254247 2
0.73568398 2.2777092 0
0.70681679 1.2960175 0
1.432128 2.3069615 0
3.4466395 0.95240372 0
3.0026004 1.6149653 0
1.4280034 1.8623374 0
2.3527946 3 0.34609422
0 1.7232763 1.8109831
1.2382139 1.1480333 2
3.9215269 0.65169966 2
0.090352535 2.2790573 2
4 1.3721187 0.68906289
3.255353 0 0.55020404
3.1631296 0.80404437 2
3.8554151 1.0027742 0
3.1138699 3 1.7731081
0 1.008945 1.9982886
0 0.65830052 0.66952085
1.4105766 3 0.721452
1.1009829 2.6050448 2
0 2.5858932 1.844047
4 0.99130374 0.52270681
1.065223 1.3683034 2
3.5991294 1.2289579 2
1.0819687 0.554061 0
3.6800814 2.7415414 0
4.1061811 1.5 1.6816347
4.1009645 2.4142523 0
4.4460845 2.3124464 0
2.1149986 0 1.7568209
0.089107871 2.9189003 2
5 2.1766169 0.34419417
0.17515126 0 0.50017798
4.0667534 1.5 0.11868951
1.3656389 1.8296124 0
0.78179091 3 1.3664502
3.1015174 2.3768458 2
2.609844 0.24546628 0
2.6414447 0.82710791 2
0 2.8216095 1.2666641
1.0529757 2.9343934 2
2.5835466 2.6540763 0
5 1.9649826 0.092128046
0.99495792 0 1.457963
3.1790521 3 0.95308191
1.8364841 2.9818344 0
2.7180779 0.029015036 2
0.73556161 0 0.42464924
4.7868414 1.669106 0
2.5112753 2.3528571 2
1.3909296 0 0.24906951
4.0938292 2.1352875 0
3.4019604 0 0.14882563
2.2296536 0 0.097771928
4.4547458 1.5 1.5108564
1.9382116 0 0.21250105
0.1525699 0 0.80174834
0.22298396 1.9052801 2
3.2373612 1.3934582 2
0 1.6509486 1.709993
3.4804292 2.6445055 2
4.0421858 1.5 0.57322711
5 1.5087124 0.68716341
5 1.630125 0.78304297
4.7338376 3 1.4521418
3.7268586 2.8592832 0
0.42166972 0 0.87792552
0 0.9344191 1.3587632
0.70978862 3 1.325215
1.1112703 0 0.69939888
0.4606443 3 0.69192654
0.26557276 3 1.2439666
3.342454 0.86287606 0
1.3264694 2.1477273 0
4.9242325 1.5 0.64882725
0.38615856 2.0639186 0
3.012773 0 0.32688752
1.0381435 1.2279214 2
2.2040396 1.3694305 0
2.5879776 2.9191599 2
3.4611669 0 0.14977834
1.9914669 0 0.03238859
1.9997424 2.3429103 2
2.8872471 0 0.41517881
3.5357375 2.3070734 0
5 2.1018903 1.3959301
3.2808552 0.38820952 0
0 0.2699731 1.9804568
0.39437917 2.3885496 2
3.5290544 3 1.5514873
4 0.86252141 1.6232538
2.0685279 3 1.3027478
3.3947916 0.14451924 2
2.522409 0 1.6290898
3.389215 2.0547585 0
5 2.2689199 0.090849385
4.6167226 1.6492828 2
0.62006724 3 0.51595974
5 2.6263022 1.5140948
1.1512043 3 1.6373299
2.3246319 3 1.9977595
1.5621607 0.9026559 0
0.0040890649 2.142978 0
1.8260885 0.46599999 2
3.1470027 1.0564981 0
1.4315813 3 0.43530756
2.529685 1.8795189 0
1.1290684 0.52014035 0
0.13348418 2.5936339 2
3.4204981 0.31624222 0
1.6794719 2.3190546 0
1.4146222 3 1.775949
4.0331922 1.5 0.37365425
0 1.0626322 0.026033932
1.3744029 0.76106519 2
1.3256807 3 1.7150055
2.4973388 1.3826287 2
3.4282932 1.0313861 2
4.8256736 2.9654427 0
2.2738271 2.3394849 0
3.9288828 0 1.052403
0.31408584 1.2632015 2
0 1.388378 1.574212
3.8407364 0 1.921523
0.4180482 0.79081434 2
3.5883224 1.5190501 0
1.3114437 3 1.0613064
1.9728842 0 0.21059045
0.077748261 2.7052276 0
4.7377348 1.5 0.3292667
4.9270186 3 0.55734098
0 2.9014564 1.5356998
1.6612353 0.45151705 0
0.0055341478 1.3111979 0
4.7384071 1.831977 0
0.89361691 3 0.53910983
4 0.70028579 1.8131142
3.7988565 1.4640268 0
4.2351851 1.5821916 2
0.39471123 2.558444 2
4.3901219 1.5 1.3850062
1.0179188 0.75962085 2
2.6028819 2.6309285 2
0.76073354 2.2959464 2
1.5901387 0 1.1381019
2.8476286 2.8774772 2
0 2.5104957 1.8792343
1.6597542 1.9035546 2
2.0639467 0 1.5435514
1.9129056 3 1.2481915
0.28378966 0 0.55247587
4 1.2603548 0.2603521
5 2.6775634 0.039774224
1.2392808 3 0.76248163
1.3276972 0 0.30721077
3.8972898 2.6830926 0
2.6671588 1.0569773 0
1.9030492 0 1.7544827
0 0.37002531 0.36217332
3.9552257 2.4969742 0
0 1.5183365 0.81140238
0.45798326 1.4306316 2
0 2.7625108 0.19942436
3.8257356 1.0731184 0
0.71476084 2.1567063 0
0.59183687 0 0.43703127
0.86346394 0.47101405 2
4.8589492 1.6272808 0
1.9630817 3 1.6804986
0 1.4593838 1.9894774
5 1.9822372 0.34736723
5 2.7842786 1.6332175
1.4893157 0.36901724 2
0.060678415 0.29702777 2
0 0.95699316 0.72094929
3.8881381 0.097739667 2
0 0.22624876 0.25895056
3.1776137 2.3220553 2
0.91506749 0 0.92911106
2.7553132 0.83752137 0
4 1.3793442 0.94463289
4.3789568 1.5 1.5658762
0.079251111 2.3366251 2
4.9552698 2.746968 0
0.28478488 0.99709386 0
3.3606358 0.84817308 0
4.6943755 1.5 1.9212531
0.27681452 1.7529416 0
2.4744766 0.32633188 2
3.9016643 2.3738763 0
0.69147873 0.58172399 2
0.8182888 3 1.062398
0 2.5646901 1.6913878
2.6368072 2.8509481 0
0.33599409 0.85124844 0
0 0.94865251 0.74317884
5 2.8864403 1.3900907
0 2.0967512 0.99528664
0.30661988 1.8479276 0
0 0.75514561 0.47772893
1.4406317 0 0.44362068
0.11342449 1.6985694 0
2.0640135 0 0.87535781
2.4450455 3 1.6610739
1.5854242 0 0.66225469
1.3116007 2.2522404 0
0 2.2219179 1.2024351
2.5783932 1.6197437 2
2.6613622 2.5698974 2
0.78909826 0 1.2399588
3.8991859 3 1.7544107
0.6084832 1.4312853 2
1.9597846 0.0087637212 2
2.5046554 1.064406 0
4.038044 2.4584448 2
3.0861754 1.9139303 0
0.58606291 3 0.48288915
0.70213729 2.7659249 2
3.3780344 0 0.45050237
2.4871581 0 0.40347585
2.0521667 0.27694386 2
2.4624014 0.78375965 0
2.2593317 3 1.2166042
2.0060339 0 0.35935199
2.374846 3 1.6378112
3.8841369 2.1804278 2
0 1.1121525 1.9299684
5 2.3753779 0.037374638
0.2496184 0 0.67282951
4.9343705 2.5855281 0
0.13095886 2.7340066 0
4.5747056 1.9868466 0
4.0905128 3 0.43455619
4.5052061 1.5 0.57663608
5 2.5155094 1.4687179
0.5358969 2.4413347 0
0.62335598 1.1771265 0
0 1.3687661 0.68004817
0 2.5598338 0.13680346
4 0.37252325 1.3081099
2.3107352 1.451633 2
0.943636 3 1.8971419
0 1.9350208 0.065328106
4.6469584 3 0.98782694
3.4830475 0 1.3875262
1.8038788 0 0.52409482
0.46746966 0 1.2529489
0 0.14560258 0.86913669
4.6828547 1.5 0.054127295
2.4206243 3 1.0280607
0 2.9691865 0.51822096
2.9644375 0 0.47557545
1.4548522 2.0547526 2
0.22384882 0 0.82340229
5 2.6296339 0.0029068189
1.0500388 2.2065361 0
4.8898921 1.684252 0
3.4427884 1.9688013 2
3.4885137 0.87486875 2
4 0.75251496 0.066079915
3.9526515 2.6217659 0
3.1532357 1.493259 2
4.622838 1.5 1.5117623
5 2.9908757 0.72684854
1.3079779 3 0.44914001
2.19593 0 0.21275845
5 2.7632573 1.9855057
2.4731717 3 0.41798031
2.9789693 3 0.8142643
4.6493549 3 0.47117087
2.9010692 0.49728978 2
3.5549059 1.2730548 0
2.2005699 0 1.5834417
0.062674433 0.79613751 2
0.41169381 3 0.78843331
0.18820038 0.75052994 2
1.7882191 2.3183787 0
3.9085321 1.8175901 0
3.5056553 2.0732656 2
0 1.6282083 1.3778054
3.1299632 0 0.14001282
3.8556979 0 1.639138
1.8151708 2.1093833 2
3.1308386 3 1.4785461
0.9352566 2.3580639 2
2.0305068 0 1.6893862
2.3858247 1.2415642 0
4 1.2319238 0.88418549
0.052688301 2.6065776 0
5 2.611289 1.3475789
2.9089544 2.1730182 2
2.8272872 2.6156356 2
1.6387705 1.3821367 0
3.6155539 0.40368056 0
3.6971993 0.89103651 0
3.4884527 3 0.9815805
3.6537862 0.9218927 2
0.97682875 0 0.67336738
0 2.243114 0.53764933
5 1.5528289 0.90481246
0.85251153 2.7654362 2
0 2.2984688 1.9996023
4.3231263 3 1.7985027
3.3515565 2.8351359 0
1.7517071 2.1233134 0
3.8090274 2.2008302 2
4.2110114 1.5 0.46279988
2.0986681 0.23284777 2
0.63802415 1.9451978 0
0.43444577 1.7434816 0
1.6944231 3 0.31959695
3.9737413 0.93056273 0
2.541954 0 0.67638451
4 0.6567229 0.22901851
0.16483286 1.8037336 0
3.2684808 1.859481 0
1.3215803 1.6555942 0
4.7745657 2.8097813 2
3.4318943 0 0.31392062
0.97720438 0 0.33231062
0 2.8088183 1.1082294
1.8616436 0 1.6632657
2.0299182 3 0.68999261
0.94941539 3 0.87343359
0.80625886 0.93939817 2
0.73914558 3 1.3516858
2.6769559 1.9931389 0
0 2.2822254 1.2347126
1.2435113 2.733398 0
0.50505072 0 1.3737891
0 1.2672036 1.9907253
0.18759343 1.7020755 2
0 0.8923313 1.2385921
1.4801899 0.37161353 0
1.774586 0 1.433767
3.8487513 3 1.4569829
0.69135702 1.5588549 0
0.8267774 1.5265119 0
4.0384035 3 1.4768682
0 1.0224223 1.9194361
4 1.3007416 0.79921311
1.21829 0.45182323 0
0 2.5477157 0.31195065
0.95163059 0.43503916 2
0.86760765 0.76289976 2
4.7320313 1.8549571 0
1.7742274 1.2741065 2
0.018215198 0 0.8566764
3.6170101 0.8401252 2
0 0.06594006 1.2138125
2.3047547 0 0.13967453
0.38369605 3 0.21451512
3.0623055 1.9432337 2
2.2791989 3 1.0722396
2.6768148 2.3907175 0
5 2.80059 1.9933558
4.2348595 1.5 1.0834534
3.0606883 0 0.75761485
2.6319413 0 1.1558495
0 0.98389298 0.11682615
0.73980421 0 0.51436919
0.70075536 0.11048108 2
1.2398536 3 0.28181759
4.8566346 3 0.34461713
0.41763386 2.1648047 2
3.384129 0.010718818 0
1.343469 0 1.2072215
0.27696735 3 1.9710609
2.4122434 0.019644208 0
3.9247701 0 1.9889991
1.2300295 2.8657196 0
3.6114151 0 1.2451111
3.9798486 0 1.3746195
0.96315598 1.2268293 0
3.8299901 2.1174054 2
5 1.7449416 1.2136298
0.66345394 0.66427833 2
4.1526823 1.9993522 0
4.8921471 3 1.8462516
2.2490213 1.8874695 2
5 2.1979587 0.032182753
2.4507966 0 1.6582576
2.9154315 0.37574962 2
3.0002658 0.68540013 2
1.2204344 3 1.9892402
1.2248632 0 0.72027963
2.4491162 3 0.35214612
1.2146413 2.4659696 2
0 1.0504401 0.92057127
0.99785721 0.6084832 2
4.7252407 2.7317758 2
0.30804366 1.216212 0
4 0.94796485 0.50419837
0 1.9399612 0.30465525
3.353658 2.1237156 2
0.056469794 2.1792781 0
0 0.97338223 1.2839737
3.4003377 0 0.8580206
3.3893781 3 0.32815465
0.3895871 0 0.2849164
0.38428849 1.7331442 0
0 1.7470047 1.3416519
0 2.0384316 0.59264791
4.6620712 1.5 1.5604863
4 0.66100049 1.9407493
0.74526817 2.0557799 2
3.5178585 0.36098045 2
0 1.3266705 1.4162512
4.6693559 3 0.2047424
3.8789201 1.4484961 0
2.7138596 0 1.3007237
0 0.88144326 0.00056240335
0.70511752 2.1385002 0
3.9661615 1.4159727 0
4.1138229 3 0.74393243
4.8325982 2.6719413 2
0 2.7506943 1.8785918
2.1051197 0 0.24713898
5 1.9315302 0.78836691
3.9936678 2.4123752 2
2.7393203 2.2534482 0
0.30943581 2.9717274 0
4 0.20428078 1.8151704
0.55366492 2.9834123 0
3.7990863 3 0.1844411
0.394485 2.6602254 2
1.4954016 1.553776 0
0 0.25217396 1.8420442
0.39888647 2.2271223 2
0.87119162 0 0.69705522
2.7339909 0.28111154 0
4.4303823 1.5 1.7517831
4.5554953 2.5026522 0
3.8676934 2.6679215 2
0.47364959 0 1.1707711
1.2952732 0 0.56926465
2.1818559 1.9450191 2
0.87936872 0 1.2976694
2.5850704 1.6519567 2
1.0998408 0 1.4938936
0.24202752 1.0771513 0
5 2.2423203 0.3129963
0.85965693 2.3266864 2
3.4469941 3 0.45410702
0 1.7267535 0.86831564
0 2.8786135 1.802551
0 2.0013628 1.6874615
1.4691124 0 0.37018442
2.7961552 3 1.8043993
1.6353197 0.91872311 0
3.3533235 1.4663175 2
0 0.76574641 0.85915643
3.2559912 0.079114847 2
2.3275256 3 1.2585515
0 2.2829778 0.50552833
3.6990879 1.8244549 2
1.0130175 2.9477017 2
2.5208383 0.30112803 0
4.8382478 2.6423004 2
1.5988827 0.0030032275 2
2.6508217 0.3843717 2
1.0065368 0 1.6426626
4.3346601 3 1.7663839
2.4156122 0.63779646 0
1.2395897 3 0.35469648
1.311627 3 1.4995096
3.0635507 0.22520265 2
0.32177293 0.73560596 0
3.8269851 0 0.52531624
3.7126505 0.17490911 0
0 0.82121533 0.47318804
4.4326968 2.9524078 2
1.0482887 3 1.9167
0.65043026 3 0.93199915
1.2736589 1.0133232 2
4.4354153 1.5 1.8123029
2.6872971 1.6096342 0
3.6549225 0.28222534 0
4.7471676 1.9430537 2
1.7609407 1.9177055 2
1.110316 0 1.5777782
0 0.26190954 1.5526946
3.6563518 0.42543179 0
1.0759495 0 0.87550813
0.85741252 0.50749153 0
2.1441286 0 0.83412981
2.3168261 0 0.61813462
2.7134941 0.037074514 0
2.5955994 2.6384492 2
3.4107301 1.5193397 2
0 0.85966933 1.5188967
1.431285 1.3923116 2
2.08675 1.9394535 2
0.87164664 1.5666841 0
0 0.32955116 0.997612
2.3055158 0.25886068 2
3.656641 0 0.6738708
1.2869848 1.5509454 0
3.8899202 3 0.67873335
1.5981127 3 0.72919238
3.5090582 1.3347453 0
0 2.6380022 0.11510079
1.1882918 2.3332014 0
0 1.7102586 1.841098
2.4762874 1.7365376 0
1.7893139 2.2076352 0
0.38995078 2.1040194 2
3.424531 0 1.8927521
2.0861242 2.5138943 0
4.7517648 3 1.9239125
3.3684044 0 0.26819602
3.7706347 3 0.83180773
1.3892409 0 1.9117966
0.51265514 3 1.1693493
2.2916298 0 0.72798836
5 1.7257465 0.78208292
1.2879074 0.68218458 0
3.5323653 2.5056677 0
3.7899261 0.85604584 2
0.62340075 3 0.49681452
3.7597487 3 1.0691721
1.358478 3 0.80891174
2.615144 3 1.7128268
0 0.17653701 1.8580418
4.454607 1.9106922 2
3.7340364 3 0.37430191
0 0.073059514 1.4932944
0.0032483302 0 1.9354296
2.654165 3 1.4109156
5 2.5016444 1.4612343
0.34655705 0.36849764 2
3.7354045 0.73957223 0
1.992023 1.4206282 2
3.4369478 0.73211008 0
2.2902334 0.84465694 2
4.6648335 1.9152601 0
1.7528926 0.098581396 2
2.8418322 3 0.52592438
5 1.6441133 1.5442494
1.5525583 1.7875619 0
0 1.8831269 0.54840893
1.5513994 0 1.0828085
3.7703228 0 0.48210371
1.6276107 1.0201545 2
3.3733726 0 0.035305217
3.3750691 3 1.9985795
5 2.7845354 1.3545364
4 1.0431995 0.58391958
3.7803504 0.35664597 2
1.5875609 1.7545614 0
1.1190679 1.7204332 0
5 2.5058918 1.5363092
3.4073868 0 1.8380901
1.6436129 3 0.25697571
0.42618671 0 1.0922968
0 0.09492173 1.7999623
0 0.50555748 0.8998946
2.0179474 2.7878041 2
2.9823921 0.18562543 2
2.859369 3 1.3641727
3.6536009 3 0.70469165
4.0323462 1.5 1.9285958
2.9520102 2.5506873 2
5 2.2416124 0.28476158
0.42216393 1.4107732 2
2.4528403 3 1.2438693
1.3287694 2.6491117 0
4.3114862 3 1.5670589
4.8214936 1.5 0.09650109
1.6928775 0 1.9686507
5 2.5494442 1.717433
2.0448704 1.0954804 2
3.9544981 1.6274213 0
4.2347226 2.0027874 2
4 0.69027817 1.0012281
2.2817612 2.7208087 0
0 2.6623635 1.9394313
1.4533919 2.4249651 0
4 0.3312957 0.64140272
3.368263 2.1432037 2
1.9858358 0 0.94787872
3.6507478 0.052264597 0
0 2.9725175 0.85556632
2.5521505 2.3093424 2
0.19476794 0 0.65680408
0.20107247 0 0.17585163
1.5750719 0.10753928 0
2.4778376 0.21463639 2
4 0.5766747 1.7978604
4.7517848 2.3361678 2
0.70473933 0 1.7801267
0.5608356 0 0.35085109
0.50744849 0 0.39649165
3.1485326 0 0.76918232
0.30730164 1.5723976 0
0.46911925 0 0.48977527
2.4119008 2.6447165 0
0.83101332 0 0.66866511
1.5508438 0.193404 0
0.9581148 0.52631837 0
4.4376254 3 1.8747989
0 2.6620674 0.31980225
0.35959604 1.8885813 2
2.5518851 0.64402229 2
1.4185927 0.26991862 0
0 1.9769131 1.8110648
0.55240458 2.6235621 0
2.9995933 1.8675812 2
0 1.1842556 1.8637182
2.7772543 1.8911284 2
0.45699665 0 0.29396975
5 2.5936599 1.6705016
3.7123184 3 0.26277071
2.9306474 1.0413847 0
0.050610684 2.1711085 0
3.2590725 1.8020051 2
4.2590261 2.8298559 2
5 1.9986787 0.95611483
1.6043409 0.047969643 2
2.6109183 0.17985044 2
2.2210276 2.3780739 0
3.1641026 2.5722508 0
2.9591258 0 1.9066236
3.9925261 0 1.3802902
0.39884064 3 0.072537437
0 0.36102647 0.61886704
0 2.623543 0.67840737
0 2.8303552 0.079256169
3.6949627 0.40216002 2
0.32210708 2.6060569 0
0.41929027 0.52364534 2
0 2.3542275 0.25938955
4 0.27632529 1.776475
4.1559091 1.9196335 0
0 0.25501212 1.5485824
4 0.28724033 1.1340657
2.1640708 1.8443696 0
2.4981046 2.875483 2
2.6673849 0 0.34553584
4.9117603 1.6631 0
1.38975 2.5522034 2
1.3690846 0.82726288 0
3.0618598 3 0.035871867
2.157943 0 0.57486808
2.0931344 2.8335371 2
1.521618 0 1.4933542
0.029700216 0.77186543 2
1.0926983 3 0.64027387
0.049393348 2.5429332 0
0 1.4101762 0.34037164
3.220243 2.3597908 2
3.3947279 1.947879 2
3.1184237 3 0.27222416
2.1662071 0.5428201 2
0.13284124 3 1.1460599
4.9056306 1.5 1.9212461
4.8956447 1.5 0.99425834
4.1727424 3 0.55313814
2.9626553 1.6716256 2
0 0.21546873 0.1784133
0 1.3687544 1.2177908
2.5359664 3 0.076005407
2.0285897 0 0.45545623
3.8210027 1.5193505 0
0 0.43181157 0.61154443
4.9202957 3 0.00091225374
0 1.9275571 0.48596427
3.98526 1.6539046 0
1.5764724 0.62921959 2
3.7452161 0 0.97412813
0.79288065 3 1.1797346
1.6121902 1.8116583 2
0 2.075773 1.4402742
4.7929811 3 1.1021905
3.3480501 0 1.7844064
2.0708029 3 0.45180112
4.306324 3 0.27964336
2.6343567 1.2103379 0
2.4598455 0 0.37163964
2.9459295 0.045721497 0
3.0840085 1.0312957 0
1.4559481 3 1.6738092
4.9726191 2.4484179 0
5 2.4084494 0.40746054
0 2.518259 0.62671906
4.3789759 1.8577945 0
4.0184526 1.5895253 0
2.6207864 2.9242475 0
2.2086453 0 0.51368713
4 0.13787539 1.9039501
0 0.011982804 0.82347006
2.4310927 2.4951417 2
1.7928207 0 0.13433634
2.2075148 1.0408396 2
2.2872336 0 1.1051719
4.8396349 1.5 0.32986578
1.1477151 3 0.64454895
5 2.7927511 1.9817934
3.108093 0 1.3268113
0.29359776 0.089401953 2
4.2929788 3 1.9026073
4.2041683 3 0.21194334
2.7069905 1.4201435 0
0 0.013798472 0.47632274
2.9883883 1.282469 0
0 0.32926393 0.36335605
1.4927937 3 0.35440421
0.045754191 0.039789006 2
0 2.5245154 0.96718615
0.10312469 0 0.6560694
0 2.2512496 0.07231465
4.2368135 1.5 0.33433452
3.4088483 1.1353561 2
0 1.8193376 1.7572799
0 1.7327546 0.10799456
1.0247055 0.23457603 2
4 0.39842689 0.57838196
3.0502634 0 1.456551
1.4635496 0 0.45397353
0.14849332 0.68994516 0
0.74467099 0.10741538 2
3.5300398 0 1.0693799
2.1159713 3 1.7622404
0.59536701 2.7851198 2
3.0860987 1.6320356 2
2.0715129 0 1.7164714
3.2776747 2.327101 2
1.9269814 0 0.47990307
0.11958884 0 1.5726451
2.2366223 2.5935419 0
5 2.637114 0.82538146
4 0.71423858 0.79821068
4 1.1343126 0.97056574
1.1694949 3 0.36549291
3.1549325 0 1.7317631
0 0.26678994 0.34859335
3.9314618 3 1.3174987
3.2016957 0 1.7088814
3.5904708 2.3910127 2
4 1.3447289 0.10389601
3.7456903 0.0017599594 0
4 0.53047305 1.9667257
2.5313373 1.7749624 0
1.9373821 1.4051846 2
4.6576052 3 1.1476058
2.8413162 1.6935389 2
0 2.8511317 0.14387776
0.51567799 2.1766441 2
1.5198711 0.22164612 2
1.803926 0 1.1748968
1.1948624 0 0.24836415
0 0.80325085 1.8962165
4.5360045 3 0.73378623
2.587842 0.44626844 2
1.4188713 3 0.6729877
1.6506597 3 0.39383817
4.4968419 1.5 1.7073061
0.77272791 3 1.3762124
0.24982575 2.9436901 0
2.7866518 0 0.67817676
0.25979123 3 0.52712971
3.4156184 0.64318967 2
4 1.2529967 1.5317492
1.5270926 3 0.97914034
3.0564842 3 1.6108129
0.10194452 0.37243956 0
3.1869295 0.64598662 0
1.5842241 3 0.48213369
2.1929774 1.0007982 0
3.1263075 0 1.8132725
1.5971738 3 1.9052405
5 2.5794597 1.1113446
2.1781502 0.13568079 2
1.5187438 0.38698062 2
0 2.2468019 1.7186047
4.9036694 3 1.9908093
0 2.3020265 0.39320064
2.9022055 1.3941486 0
1.1944823 0 1.8560526
0 0.085162029 1.6184421
3.9099407 0.85774416 2
4 0.9346962 1.7165052
0 2.1366827 1.7062128
4.3245115 2.0138159 0
2.9927223 2.7313647 0
4.960269 2.3297982 0
1.0675402 1.3171175 2
2.0174549 1.5682535 0
0.23603812 3 1.3911538
1.7932749 0 0.22224325
2.4504654 2.8250206 0
0 1.9599005 1.6550162
2.2539895 3 0.17322227
2.5866117 0 1.4240566
1.0469435 0.92397666 0
0 0.22725976 0.66315067
0.95279324 1.2521486 2
4 0.89208174 0.04189048
3.0833273 0.90301913 0
0 0.8679378 1.7066556
3.9941628 0.89571738 0
4.4543295 2.6319323 2
2.7060537 0 1.4778485
0.097989246 0.46157995 2
1.9246455 0 0.92612922
0.29775092 1.8179662 0
1.2035718 0 1.6419821
0.74268389 1.8276949 0
1.0465181 0 1.366004
0.042365421 3 1.1765779
2.027637 3 1.5946804
3.2218981 2.6200049 2
5 2.1243677 0.53519034
0.14628252 0.50563335 0
1.9544644 1.2320051 2
3.2357607 1.1036144 0
3.3118172 2.4496772 0
3.2044148 3 1.2669002
1.643746 0.029198432 2
4 0.98730141 1.8346004
2.8914275 0 0.61347347
3.7586341 3 1.3056682
2.5850973 1.6182247 2
3.9188013 1.807585 0
4.5803919 2.0823071 0
2.3557613 2.3942723 2
0.77054411 3 0.077108331
4.0838637 1.8876369 2
0.68590301 0 1.5148277
3.9355233 0.635149 0
0 2.0443466 0.020013213
3.7281041 0 1.9130694
4.2228026 1.5 0.2931844
0 1.0598369 1.7144852
0.66083008 1.6731919 2
0.26856279 1.2581394 2
5 1.9007941 0.69959134
0 1.7195081 1.6551646
3.5919936 3 1.7387286
2.4292595 0 1.4727964
2.7265666 0 0.0025293306
0.85481149 1.827085 2
0.66527158 2.551475 2
1.2751242 3 0.74709982
0 2.564738 1.8200552
2.3622367 3 1.9914365
0.37740323 1.6396711 0
4.8930769 3 0.30304471
3.0398922 0.093814276 2
2.4752927 0 0.0081461491
0.05704629 0.36404848 2
0.83084422 0.80273974 2
2.9443474 3 1.5843449
0 0.53207588 0.80059737
3.5454278 1.911926 0
3.4806552 1.6429553 0
4.8105187 2.2032824 2
3.1757758 1.2345455 2
0 0.45852843 0.86372221
4 0.23240697 0.37735474
0.12646152 1.8684886 0
1.1243497 1.4607636 0
4.7164049 1.641377 0
1.1782758 0.27377799 2
1.6057326 3 0.59319377
5 1.5741286 0.38655096
1.4391978 3 1.2324274
3.2778189 3 0.41456768
1.9488734 1.021551 2
1.9461268 2.6742637 0
3.1465466 3 0.74953318
1.6583221 1.6800733 2
0.40036786 2.2790518 2
0.64820737 1.5935065 0
4 1.1359397 0.40476805
0.17367673 3 0.93702662
1.3700855 3 1.663007
0.02729746 0.09299019 2
1.6204717 0.26814029 0
3.1495063 2.9264026 0
2.7435582 2.9839773 2
2.0848598 0 0.081164226
1.7609994 3 0.10912904
0.025023066 0 1.3058362
1.5477492 2.6025693 0
3.8950086 1.8677208 2
2.7790089 0.084427506 0
1.8341311 1.7443979 2
0.49431998 3 1.4840201
5 2.2586718 0.39521664
4.2017889 1.5 1.1637866
4.5585475 2.7816052 2
0.75070202 1.6300683 2
0.032508656 0 1.2954578
2.5722048 1.5316868 0
1.919727 2.35868 0
4.4181356 3 1.2010663
3.0559084 3 0.56260568
2.4936349 0 1.5217869
4.8450441 3 0.95652473
0.9139092 0.44299069 2
0.3235276 3 1.822088
4.5319982 2.9332569 2
3.5773854 0 0.24981527
4.4314303 3 1.2896501
0 2.6665421 1.0171932
2.1100006 1.9812526 0
3.6148798 3 1.6763622
3.4790609 2.7971599 0
3.602695 0.94257724 2
2.4113266 0 0.62195718
4.1642928 1.5 1.9403712
0.71546012 0.18807708 0
3.3954442 0.307284 0
1.5396273 0 1.7529229
0 0.59161359 0.72434008
3.5430417 1.5723034 0
1.2657886 3 1.7376702
5 2.1106207 1.68402
4.3534398 2.3771963 2
1.1988153 0.74259174 0
3.9539852 0 0.56504774
2.8363566 2.6770318 0
2.8632925 0 1.7180715
1.9978591 3 0.93367743
1.7921094 2.3778958 2
4.1439867 1.5073235 2
0.28048357 0 1.8740959
0 2.3214929 1.3624908
4.4429989 3 0.084181704
2.4248743 0.86484045 0
1.9897233 0.22592105 2
2.008868 1.3399585 2
0 2.8377461 0.61726254
2.5540867 0.52645278 0
1.7352446 0 1.5174441
0 2.6578774 0.75713438
3.1874816 3 0.85848927
0 0.78691781 0.64121038
4.4368763 2.8439889 0
5 2.7188706 1.0409052
4 0.22379044 0.35195768
1.4419262 1.0527735 0
3.9098783 1.9246703 0
2.0652742 3 0.8355158
3.7536471 3 1.4505622
0.77633446 0.66528624 0
0 2.3234799 0.59560233
0.43725681 2.611726 2
2.3324029 1.10229 2
1.6534383 2.1866152 0
3.8627858 0.75873816 2
0 2.2273648 0.075209767
1.6208947 2.5112841 0
3.3003693 3 0.40196326
2.2885473 0 0.25672007
3.5065358 3 0.60693038
1.0534608 2.5966501 2
0 2.0984013 1.1482434
1.6032007 0.2740038 0
5 2.4597249 0.31702638
4 0.30488956 0.64420885
2.9186814 2.9177613 0
0.57668972 0.80563879 2
0 0.73336703 1.7646511
3.1820791 0 1.0876131
0.57748181 2.4981246 2
3.4160893 0 0.03083382
1.3573716 0.49403057 0
0.41551962 3 0.85731125
3.1213222 2.8135505 2
0.098683812 0.60919124 2
3.8110843 3 1.2836751
2.1573553 3 0.87225705
0.91679519 1.4050086 0
4.3802471 3 1.2831963
2.095227 2.9010625 0
1.2623473 0 0.67251605
4.8077564 1.5 0.1740655
3.2461755 0.18880783 0
0.14851609 1.7933559 0
3.6153929 0 1.9385681
0 1.4623688 0.669218
0 1.1349097 1.7238581
1.0142218 0.19948988 0
5 2.5070567 0.30994126
4 0.37073117 1.4342798
4.9269428 1.5 0.52175397
3.1424401 2.133276 2
2.124342 1.2457744 2
0 2.7251179 0.47222403
0.79457736 1.2119696 2
2.2685757 0 0.19123206
3.1715186 2.9140522 0
1.7367533 2.7372849 0
2.2074552 0.62630898 2
0.066078097 0 0.92681402
1.3235943 0 0.61341286
0 1.1630683 1.0634108
3.8066604 1.1741798 2
5 2.2688076 0.8947643
1.0295911 1.0342124 2
5 2.9045365 1.1066016
2.8748155 0.7918945 2
2.9858267 0 1.1122947
1.436076 2.0894535 2
0 0.64159751 1.7470336
5 1.9316765 0.26485348
1.5298094 2.2278781 2
0.51268148 2.8749468 0
1.8925583 3 0.26227775
3.5130849 3 1.5772189
2.8322017 0 0.16931352
1.3319012 0 1.9841318
0 0.12022662 1.7459042
4.7525182 3 0.078174919
4.7811613 1.5 0.16833498
1.7683333 1.9804407 2
2.3325272 0.53468144 2
5 2.0221114 0.35830733
4.5019045 2.853879 0
3.1215014 3 0.58655554
1.4505558 0 0.63398039
0 0.21973765 1.0310636
1.312165 1.4700243 2
4 0.70897222 0.28691405
1.4169958 2.5471833 0
2.8011446 0 1.5175837
1.616026 2.1697068 0
3.7144613 1.9736261 0
3.7856257 1.2937598 0
0.26414955 0 0.55263299
3.9908168 3 1.166571
1.7085471 0 1.95755
4.1064415 1.5 0.3597666
0 1.6706299 1.5861309
0 1.2129874 1.2087562
4.2257872 2.5510726 2
1.0240388 2.3324463 0
5 2.4350531 1.547034
2.2704203 1.2804401 0
3.6658721 3 0.090223104
3.2601914 1.5442338 2
0.028043518 3 0.84790289
0.6926378 2.863847 2
3.9810078 2.8147049 0
3.4873085 2.2617652 0
4.641304 3 1.6249512
0 2.4167626 0.21526018
4.8424768 2.1818442 2
0.97920746 0 1.6674774
4 1.4873379 0.56497526
0.7468223 3 0.030226264
1.8538934 2.4150457 0
2.0184181 3 0.15446028
4.1555586 1.8317149 2
0.18918405 3 0.94015616
2.473984 0 1.618155
4 0.69729531 0.89032489
0.69602084 0 1.0672159
4.3721051 2.3618109 0
0 2.409184 0.56418639
0.51656288 0 0.50727814
4.5072765 1.5 0.8161974
5 2.1778877 1.5070723
2.5719335 2.4128537 2
4.6484518 3 1.0767689
0 0.3135145 0.2064667
4.7876687 1.7133087 2
4 0.40206912 0.52248162
1.8857777 2.6802766 2
1.0339121 0 1.0562148
2.535475 3 1.6614294
3.8715167 1.0523679 2
4.7065315 3 0.88098174
1.4745538 0 0.069576189
3.685447 1.1213561 0
3.5281086 2.3029425 2
0 2.2694361 1.7592196
2.4537542 0 1.0417604
5 2.3055902 1.2529211
3.2512674 0.18878037 0
4.1503692 1.7595851 2
0 2.5526512 1.1691581
0.61328304 3 1.0094591
4 0.79384214 0.61786091
0.30380893 1.3873065 2
2.1830747 1.1296457 2
0 0.20765242 1.8765376
3.2939191 0 1.9100852
1.9544371 2.0541301 2
3.0726516 2.4062431 0
5 2.5005784 1.4277959
3.2935057 2.6441877 2
2.0435913 0.95659071 0
3.5505278 0 0.63697749
0.84654427 2.8784208 2
4 0.13629729 0.39456394
0 1.0601766 0.30178514
3.3634448 1.4585105 0
4 0.8392266 1.956305
4.3145027 3 0.099641114
3.2696118 0 0.68456918
3.1194792 2.2744141 0
0.63086891 3 0.99835765
4 0.080399141 1.3719957
3.1883736 2.4565561 2
0.025595684 3 0.70487362
2.6593986 0.94101554 2
2.8659489 1.5791863 2
3.4865038 3 1.0915225
0 1.4010509 1.9996625
2.6343706 1.2333226 2
0 1.7653571 0.14645703
4.6431022 2.7852259 0
2.6244266 2.3087332 0
1.4292052 1.6886861 0
4.1135869 1.9245396 0
1.4688073 1.6998982 2
5 2.9490933 0.7946533
1.8620365 0.11557072 2
0.094900995 3 0.92170238
2.9079123 3 1.3045256
1.8904843 0.64286911 2
3.3500259 0.15589412 2
3.1398103 0 0.67137265
5 1.5502992 0.98660809
5 2.4350255 1.2273868
2.3720975 1.5758219 2
2.5088165 3 1.0754858
2.9974954 0 0.24464926
4 0.095417492 1.7225182
0.82217801 1.7416412 2
2.8247154 1.3913518 0
1.2472457 1.0664431 2
4.417027 3 1.9365439
3.5141075 0.68033516 2
3.5857592 0.69317418 0
2.8786325 0 1.3532722
0 1.0007025 0.31280991
4.1836224 2.7034998 0
2.0566583 2.1882114 2
4.2752423 2.6534553 2
3.6479878 1.9646028 2
1.3357376 0.74236947 2
1.897554 0.51123536 2
1.5289057 0.42104903 0
4.8763247 1.5 1.5039562
5 1.751229 1.7864559
4.6764116 3 0.97464615
0.15119663 0.73567981 2
4 0.48121929 0.37744182
1.5748627 1.8463296 2
5 2.6176138 0.3500666
3.5161169 1.838688 0
2.8623214 0.24360049 0
1.3855244 0 1.1837684
2.4407578 1.0583843 2
5 2.554312 1.2916348
1.572638 0 0.73190212
4.2946544 1.8824809 2
1.2915636 0 0.23765489
2.0685859 1.256335 2
0.91883957 0 1.1321638
4.7671366 2.5876677 2
1.9266361 0.23363474 0
4.0629444 3 1.4686803
4.1439848 1.5 0.86038089
0.10919657 3 1.5333869
2.4851243 2.6322575 2
4.4096646 2.5643458 0
1.0405605 0 0.97040087
1.5423523 2.9166939 2
2.2541065 0.3835324 2
0.32803643 2.5963557 0
0.028954472 3 0.95233166
0.62117726 0.89042777 0
2.7964871 0 0.66315871
4 0.90632296 1.2027732
1.1068828 0.5442667 2
1.1151824 0 0.76912504
3.9372716 0 0.20422076
5 1.9203761 1.1669501
1.8293982 0.39880696 2
2.1922183 0 0.77360338
0.38161275 2.1674564 0
1.8720013 2.158303 2
2.5220244 0.82278746 2
0.10118809 2.201977 2
1.082667 0 0.04257369
4 0.69881546 0.0033492697
3.0731819 2.8700731 0
0.27668852 0 0.60909224
4 0.73252112 1.9584957
1.8994672 1.7926092 0
0.25308493 3 0.83855551
2.3826463 2.8988364 2
2.0700665 0.99823529 2
5 2.2997212 1.7133993
3.660043 1.4370495 0
1.3975427 3 0.84549975
0.44338474 3 0.048927482
1.7601347 3 0.076976962
5 1.6408755 1.1459085
4.368731 1.5 1.0300727
5 2.4522359 1.4747487
3.3462365 0.20303454 0
2.6984816 0.40533987 0
4 0.72934693 0.42190915
3.0182219 1.1324564 2
1.1545653 0.76266402 2
3.6626561 0.89590126 0
2.0391726 0.72418094 0
0.34525847 1.4698448 2
3.8010857 1.453284 2
1.5601187 2.2914321 2
3.4564922 3 0.30886632
3.9512095 0.5919022 2
2.2587037 2.2813895 2
5 1.9254699 0.86988455
2.0929236 3 0.63925958
1.5789086 3 0.81566739
2.0386953 1.7975433 2
1.8012516 3 0.52693939
0.79301792 0 0.17489961
5 2.8348889 0.6961475
2.6226578 0 0.74692339
1.2246636 0 1.0546999
2.8279178 0 1.7689333
0.66335285 0 1.5628898
4.6876922 3 0.69745892
0 1.4727407 0.90165824
4 1.0542009 0.60484105
4.2469301 1.6665403 2
1.1491519 3 1.6888261
4.1975131 3 1.0755476
2.580822 0.11800265 0
3.5123065 2.741699 2
0 0.056416232 0.799595
3.8372641 1.5466002 0
3.4396293 1.6261095 2
1.4151558 0.73132622 2
0.84301543 3 0.56941259
4.9685464 1.5 1.4654938
3.8096302 3 0.2304365
4.3662825 1.5 1.2207655
1.683953 1.2554575 0
1.8215704 2.4627891 2
4.4164376 1.5 0.20052519
2.4322836 0 0.1338072
0.50144434 2.9560997 0
2.3107681 0.65923089 0
1.1752746 0 1.6764556
0 1.9588729 0.5134027
0.27982682 1.4530832 0
1.5392442 2.0537579 2
3.3335803 1.5369465 2
3.3039145 3 0.73921233
0.20038567 1.1484761 0
2.1533244 0 0.66459233
4 1.2726544 0.59594196
0.69888949 0.73942578 2
2.4010816 0.22523376 2
4.2008767 1.5 0.33709046
0.83665538 0 0.39587885
3.5356712 0.02606016 2
0 2.4025958 0.40480399
1.6906683 1.8821217 0
2.1504054 1.3213584 2
2.5558619 0 0.40719655
2.3605781 0.66725194 0
2.6244593 2.8312213 0
0 1.912209 0.7237308
1.9960538 0.42338374 0
0 1.5068033 0.53182298
0.10710362 3 0.92116183
1.3186365 3 1.7011542
2.5583353 3 0.13979514
1.7682742 1.3056666 2
2.9030008 2.1408346 0
2.8895462 0.019903373 2
4 1.372154 1.0882388
2.7141237 1.2772838 2
2.2523706 0.093247645 0
0.92299205 2.0714476 2
0.0024610595 3 0.98294508
0 0.61756647 0.24331139
4.2046986 2.6790974 2
0.92154688 1.0416361 0
0.084762581 1.6664692 0
0.038940586 1.2803437 2
0.36336431 3 0.73724753
0.73616934 0 1.8651493
2.6546607 3 1.8140831
4.3096476 2.1327608 0
3.0766795 2.1778736 2
1.5216805 1.9327394 0
1.5717443 3 1.9681962
1.3039371 2.5524001 2
2.3409359 0 0.48139563
3.4702897 3 0.56665051
0.9779529 0 0.93147594
3.2102771 0.35613945 0
1.696364 0 1.7516342
4.4086428 1.5 0.2216357
0.67326945 0.28379726 0
4.8081121 3 1.1717089
4.6586704 1.5 1.0553989
5 2.4574223 0.023396961
4 0.31014428 1.6631267
0.92502922 0 1.4420447
2.0901492 2.7534688 0
0 1.4349109 1.3067987
3.6057479 0 1.0811975
0.35224265 3 1.8030376
0.38670382 2.2773683 0
4.932425 1.5 1.2237835
3.9720218 0 1.8333338
0 0.61562806 1.1103554
4 0.094788201 0.23068154
4.3761978 1.8952749 2
1.8471414 1.2965709 0
0.3247135 3 1.7638909
1.5870832 1.7560414 2
2.0453413 0 0.66765112
3.6156466 2.2647092 2
4.5852413 1.5 1.5806886
2.9497783 1.0030775 2
3.0274043 0 1.5714679
2.6477408 2.7469854 2
0 1.1299022 0.81633264
4.6541214 1.5 0.6970461
3.5416191 0 0.37237734
2.6895187 0.039483994 0
1.0451241 3 0.79554689
4.4900579 3 0.18574029
5 2.6501229 1.3588103
4.1075349 1.5 0.56917894
0.60601294 0 1.9186803
3.7528458 2.6280329 2
5 2.124372 1.343832
3.034122 0 0.60272056
4.2738047 1.5 0.16417034
3.8839223 3 1.0355072
1.0236771 0.047634199 0
0.21347368 2.8140895 2
1.0127969 1.4629813 2
3.5711129 3 0.58789968
1.434551 0 1.9317093
4.4694939 2.4874749 0
1.4982318 3 1.0622452
0.17777197 0.62003332 2
1.125559 1.7310985 2
1.6791056 0.2245362 2
0 2.0908334 0.03211496
2.7203884 0 1.3133258
0.19732079 1.8057326 0
4.5992579 1.5 0.84459227
2.5923545 0.010146202 0
0 0.88101214 0.43728998
3.0834413 0 1.2221918
4.6589737 3 0.56813473
4 0.88198555 1.9588833
2.5148094 3 0.48218006
5 2.3609748 0.51407373
3.244745 1.6480405 2
1.218819 3 1.7069179
3.5146801 3 1.069129
1.9569594 0.96520203 0
3.3364229 3 0.10523573
0.18174948 0 1.0014714
4.0131197 3 0.36863437
2.2759387 3 0.32753703
4.290904 1.5 0.64041972
3.9551339 0 0.84421378
3.4781516 0 0.065037012
1.722206 0.91125107 0
5 2.8542879 0.55053216
1.9792786 2.7359998 2
3.6756303 3 0.90371805
1.8271337 0.96179336 0
1.808702 0 0.090145156
2.2503121 0.56625223 2
4.8344207 1.5 1.0191289
0.49598676 1.3520216 0
1.4581059 1.5622113 0
4.2510314 3 1.3526121
0 0.1340463 1.4895877
1.9585261 0.65642226 2
1.7609204 3 1.2351047
0.29260224 1.4317865 2
0 1.569878 0.033129044
0.95985603 0.99201387 0
0.28180695 3 1.2057894
1.2358066 0 0.87902409
4 0.78064018 1.953668
0 1.5755399 1.9819765
4 0.95944685 0.38455653
3.032196 0 1.8030932
4 0.81049579 1.9961859
0.42150706 0.30534381 0
3.5821977 0 1.9784722
2.8437753 1.6165341 0
2.0653439 0 0.72012442
1.4818605 0.36097547 2
0.9804002 2.6656542 0
3.0949707 3 0.84959882
0.014551915 3 0.2367081
4.4754057 1.5 1.31498
3.3974566 1.1604435 2
1.83803 2.4699938 0
3.5370045 0.19182657 0
0.52237374 2.1701164 0
4 0.48231074 1.9264642
5 2.9326987 0.8290813
0.532215 2.7169032 0
2.4018555 3 0.46391141
2.711741 3 1.9913195
1.5213462 1.7747571 0
2.5135393 0.59975463 0
0 1.9415791 1.9448587
0 1.0252821 1.5507197
4.3154168 1.5900306 2
0 0.62980419 1.5606402
4.5674767 1.5806022 2
2.8858755 1.7126223 0
1.1998475 3 1.6516137
4.3906765 1.5 1.2431246
3.048157 2.2071829 0
0.33880854 0.44103095 0
1.5659411 0 0.022277616
4 0.70585102 1.9711987
3.9762204 1.8440484 0
1.4494773 0.98437291 0
4.6744642 1.9079797 0
3.2006965 2.8631749 0
1.8227389 2.2694893 0
2.6309934 0 0.82255751
0.16231936 1.7027397 0
5 2.9067292 1.1072412
4.7911401 2.4269629 2
3.4290273 0.37223756 2
0.1674697 1.3895625 2
1.2765504 1.3163086 0
0.59846097 0.81431407 2
4.5789003 1.5 0.62331778
0.84125477 2.0653315 0
3.3679655 2.2846186 2
3.1529253 1.828264 0
3.4758911 0 1.5608439
0.67775261 0 0.056027934
3.8739901 0 1.9460982
0.65483212 3 0.43917501
4.4148974 1.5 1.7106563
4.0167489 2.5301566 0
3.6820974 0.2761043 2
1.72873 0 1.674058
2.3252518 0 1.2963002
0 1.7081553 0.77755243
4.9428234 2.7669775 0
0 2.5390601 1.111064
4.8646913 1.5 1.4460909
0.12451178 3 1.0395432
2.1015193 0.51100165 0
4 1.4503459 1.369904
2.4297559 1.6322041 0
3.2548833 3 1.3577045
1.7725511 0 1.938325
3.8749945 2.2127707 0
1.739301 2.4067047 2
2.3931415 1.3006564 2
0 1.9950234 1.7250962
0.3853893 3 1.2378783
3.1654751 1.4592471 2
3.3880219 1.0367084 2
3.5533545 3 1.2985785
4 0.56093043 1.1606585
1.1501025 3 1.3476392
5 2.1372631 0.33713165
0 2.9966857 1.8026811
1.3735446 1.0303386 2
1.9855542 0.27860892 2
0.27450585 0 0.6166718
1.3752301 3 1.6734219
0 0.16273247 0.33090293
0 1.5583943 1.6150869
3.6271391 0 1.7041887
5 2.123369 1.6461537
0.43156978 2.0525894 0
4.7785902 1.5 0.36401439
0 2.9491327 0.47082928
3.3277967 2.653614 0
4.2767091 3 0.94758648
0.57735676 1.5770624 0
4.7749453 1.5 1.323815
2.9090497 3 1.929826
2.3157787 0 1.178055
4 1.1342764 1.0431142
3.7745347 0.24796316 2
0.5482015 0.34328157 0
0 2.4048407 1.2531614
3.516515 1.903151 2
4.5566859 1.5 0.40762717
0.13177353 3 1.3155522
1.379997 0.39089766 2
1.2123054 0 1.2314647
4.1140132 2.4383938 2
0 2.7611694 1.0190722
4 1.2964113 1.6392819
4.3756008 3 1.2778888
1.9911201 2.0633485 0
2.3947895 3 1.0257839
0.95069343 3 0.57983536
3.5284967 3 1.418846
1.1747444 0 1.3939482
4.052475 1.5 1.8239374
1.8317112 3 1.021893
0.89627385 0 0.6365754
0.23297091 3 1.3781056
4.1979527 1.5 0.79761583
3.5879819 0 0.81629711
2.741992 3 0.12544408
5 2.5855792 0.81924218
0.77292782 2.7617922 0
3.0118515 2.7834964 0
1.5980662 0.77856082 0
2.3769031 1.7877046 2
4.4011445 1.5 0.81472117
3.3247862 2.8195643 2
5 1.6623946 0.1803624
1.9162649 3 0.62444133
4.1524668 2.7496295 2
2.7460661 3 1.4462804
0 0.28884408 0.43505818
3.4054697 1.5863202 2
2.0587044 3 0.35742679
1.8009002 1.7908659 0
0 0.7524029 0.5101338
2.4187834 3 1.3912838
1.0285004 0 0.039822843
4 0.59695667 1.145105
3.2960176 0 1.9723347
4.0509143 1.6993092 0
1.1497196 0 0.6432035
3.5583634 0 0.15394549
1.4034046 1.7313592 2
5 2.2697279 1.7860887
5 2.4851372 1.8782547
1.571835 0.37475741 2
2.6159346 2.2608273 2
0 0.93437052 0.86486048
0.34112132 2.0143943 2
1.3413858 0.43821234 0
2.3483281 1.9485655 0
4.496902 3 0.38273796
0.033091404 3 0.74579996
2.4424822 0 1.5226586
1.2807289 2.2525215 2
0.40055537 2.1809556 0
4.1369991 1.5 0.98216701
0 1.7388142 1.6881816
0.8281371 0 1.6934502
2.2454426 0 0.099775083
0.83589339 1.9516382 0
4.1174631 2.5467863 0
1.2363137 2.1856718 2
3.780355 1.9830384 2
4 0.74193209 1.9790336
3.8013363 2.5215297 0
4.1856794 2.8276138 2
3.9063756 2.1763902 2
0.71945995 1.0587214 2
3.1099017 1.8474287 0
2.3045294 0.69332492 0
2.8029037 2.2564266 0
0.50793833 1.3676559 2
1.1811876 0.38351017 0
5 2.8590298 0.015330886
2.1494684 1.7191539 0
3.1571443 1.7332768 0
3.7474074 0.0030445803 0
4.4584699 1.5912566 0
1.6532474 1.8684151 0
0 2.6320696 1.7897055
5 2.8565273 1.3817056
5 2.183748 1.3512336
2.8497026 2.096046 0
5 2.5127826 1.9140946
4 1.4795099 1.8022336
2.5349946 3 0.84163749
3.6978395 2.5273581 0
3.3437803 0.43867081 0
3.6043177 0.56886876 0
4.5763364 3 0.10197558
2.3124061 2.2239985 2
0 1.4740196 1.589474
1.3953521 0.86871272 2
1.8324611 0.2945306 0
4 0.17334802 1.2416031
4 0.20435864 1.2810013
0.86964655 0.66229898 0
3.1669915 3 0.98962396
4 0.67623776 1.6241605
4.7024875 1.5 0.79879797
4.403583 3 0.47543123
3.4422417 2.0115168 0
4.2997565 2.5440097 0
4 1.3742753 1.849039
0 0.5253225 1.525715
2.0806985 0 0.1806919
4.369381 1.911684 0
2.1696453 0 0.34796977
0.52364635 0.65830421 0
2.9323428 0.42132133 0
2.8550653 1.892354 0
5 2.6032097 0.69518763
4.4793425 1.5 0.71255332
3.0952868 2.9048722 0
1.177618 1.0434743 0
4 0.95022351 0.66669261
2.2161331 2.590543 0
2.9163136 0 0.93850577
4 0.74944818 1.3275371
4 0.38402772 0.16570051
3.4205289 3 0.79678094
3.4991369 0.93908787 2
0.22177452 3 0.9198541
1.6222804 0 1.1000782
2.8043303 2.8820183 2
0 2.769433 1.8230554
0.075193547 3 0.72016889
4 1.4255884 1.0042487
2.2308128 0 0.057983451
5 1.5495898 0.65281111
3.7041337 2.1816766 0
2.9900391 0.55684078 2
4.1428185 1.5 1.4716499
0.011603916 2.3278673 2
2.0395491 2.1472161 0
0.18104471 1.7374064 2
0.56259233 2.9255652 0
4 0.6357376 0.028629135
2.0631399 0.93223828 2
1.4218469 2.5147488 0
4.9957042 1.9848303 2
0 1.621228 0.687949
3.7627792 0 1.9555959
2.9798889 0 1.0456158
0.2712613 1.0535724 0
1.728337 1.3716787 0
1.2835808 1.8469901 2
3.8005683 3 1.2180501
2.2496026 0.3202585 2
2.0899646 1.9842001 0
4.2357373 3 0.24649374
2.6090186 3 1.2620038
3.7112663 1.7673928 0
0.45000768 0.25105551 0
1.553923 1.812807 0
2.0090075 0.75494629 0
2.927686 1.6242235 2
2.2116272 0 1.5996363
3.511452 0 1.8489735
0 2.524168 1.4171693
2.1814733 2.7075555 0
2.619117 0 0.85712993
4.6622405 1.8438941 2
0.56635129 1.9203025 2
1.4374866 0.10970145 2
0 2.2914 0.073629506
1.0580277 0 0.33575967
4.898272 2.0683713 2
3.360332 0.68465644 0
4.1305604 2.1609368 2
2.815604 2.1405089 2
3.1894321 0 1.0370793
2.1965983 0 1.0428165
3.4565473 3 0.74799848
4.5578518 1.5892802 0
2.9408491 2.9750168 0
2.5059292 3 1.431716
0 1.722966 0.56879163
0.73659521 0.94540203 0
4 0.43740833 1.91239
2.4479415 0 1.0007439
1.7023206 3 0.28676748
0 0.2141218 0.82995099
2.7902806 2.4192073 2
0.7205379 3 1.8991972
4.4183936 1.5 1.0717874
0.3855769 0.92312008 0
0.88834494 0 1.7936503
0.69409257 1.2740189 2
4.0779309 1.5 0.010402012
0 0.047017839 0.0867735
3.9232728 2.8164546 2
0 0.019140922 1.8629613
4.0051694 1.5 0.75716954
1.7907237 0 1.8133476
4 0.52935606 0.45666173
5 2.4579413 0.55284727
4 0.11723299 1.3145059
0 1.0212989 1.2406291
1.5926454 0 0.069009639
4.2867823 3 0.14326793
0 1.9684063 0.79769993
0 0.87991804 0.5581966
2.4244933 2.6645014 0
0 0.61130333 0.010655897
0.67265457 1.100523 2
1.6696581 0.92850029 0
4.0614495 1.6349864 2
3.0292399 0 0.67188424
0.92449385 0 1.8151882
3.5677247 0.61348838 0
1.4523849 2.876267 0
4 1.0522686 1.206953
1.394225 0.74459732 2
2.7823653 3 1.5086983
4 0.53376561 1.0274739
3.2497926 2.8128102 2
3.7562244 2.1317847 2
4 0.47061613 1.0307803
5 2.3847232 0.84627098
0 0.02921289 1.0272529
0.073461212 0 0.25881004
2.3773384 3 1.5606686
3.9750535 2.1453929 2
4.4582672 2.7522621 2
0 2.1062834 1.3073843
3.592376 3 1.2467003
1.8674217 0.89473802 2
4 0.38044199 1.091053
1.7172601 0 1.6936702
3.88044 2.8080573 2
2.3256245 3 0.24943638
5 2.0161436 0.75354248
0 0.034038812 1.4770868
3.6946142 0 0.39584062
4.3982596 2.7447283 2
2.3750591 3 1.2755386
1.0509973 0.87454456 0
0.34750256 0.3131952 0
3.1826775 3 0.2739681
2.537931 2.5163376 2
4 1.0545087 0.19269407
3.858887 0.082230873 2
0.13943687 1.8712234 0
0.58441985 0 0.35739508
4.8284259 3 1.8232262
1.1818569 2.3987632 2
0.6142472 3 0.60625017
2.7430167 1.9629256 2
1.5159919 2.2384768 0
2.3046658 3 1.0751709
3.4346254 2.8157661 0
1.1533377 1.7709622 2
1.1830567 0 0.39794859
4.8233461 3 0.58539182
3.5357342 1.8420231 2
0.11046733 0.68520778 0
0.35444221 3 0.84301281
2.0142884 0 1.0348152
3.9029391 0.18148312 2
1.9278852 0 1.310457
4.9632668 2.9027469 0
0.55853832 1.3548132 2
3.1547861 0 1.3637067
3.4329641 3 0.66318327
2.382524 0.43448332 2
2.7238541 1.728559 2
2.7667468 2.7806277 0
0.58221227 1.4089473 2
1.3353493 2.3744476 0
1.2864602 0.077605382 0
0.61988771 0.65299118 2
1.8041115 2.0304804 0
4 1.0915318 1.2659587
0.81469941 0 1.5330759
2.784785 0 1.9355285
2.0184071 0 1.0439363
0.45865396 2.1549637 0
0 2.5541282 0.19198212
2.6571109 0 0.59659135
1.3220612 1.9530385 0
1.9391584 1.5462472 2
4 0.84388679 0.47664267
3.6134653 2.2316985 0
5 1.5112965 0.30988976
1.856596 1.1641427 2
0.46094126 1.1066798 0
4.6882029 2.628123 2
0 2.6030364 0.72204942
3.2131951 2.3954337 0
4 0.93287259 1.6956087
4 1.3231517 0.58176041
0 2.6003189 0.88710308
3.0232503 2.1497355 2
1.7960104 2.3442624 0
0.36553687 0.71572578 0
0.038743496 0.63762867 0
1.7772162 2.6480751 2
0 1.3117559 1.373755
1.7556604 2.6044769 2
5 2.3979652 1.2928573
2.5729144 1.2583165 0
3.8997984 3 1.8575402
1.0771362 0.69044775 2
4 0.079645969 1.1401354
1.68217 3 0.47571233
4 1.2852124 0.55719978
3.9490201 2.1199036 0
0 1.5036277 0.1998093
0.32324094 0 0.89100993
2.623333 3 0.16876866
1.2407225 3 1.7456264
1.7085613 2.5155132 2
0 0.021491107 0.21916126
2.3550889 0.45915583 2
4.4308538 2.126332 2
3.5246201 2.4363418 0
0 0.49587008 0.3843714
3.9198327 2.8798242 0
0.11599332 1.2742367 2
3.9901977 2.5543137 0
4 1.0951951 1.8340195
3.5513291 0.89130837 2
3.3612661 1.810329 2
0.47625336 0.44845492 2
4 0.28714609 0.80938792
1.3238351 3 1.6460693
3.7932298 3 0.70609182
4 0.15494299 0.30209377
4 0.047191583 0.19103916
4.2327991 3 1.9282264
4.2953277 3 1.4142524
2.3542678 2.6496322 2
5 1.8679731 1.9025702
4.9180741 1.9738503 2
2.2400823 3 1.3283918
0.082592532 0 1.9612772
4.9078522 2.7985349 0
1.1044431 2.3053169 0
0 2.7612934 1.0367107
1.0616438 0 0.40002748
4.0515609 1.8394368 2
0 0.21716918 1.3089626
3.2528231 0 0.28731072
3.0975425 0 1.5928707
2.3150883 0 1.0531125
1.611518 0 0.46710488
4 0.52989459 1.2215548
1.3047941 3 1.6066844
3.9618914 0 1.9298962
0.95968992 2.5751083 0
1.0867448 3 1.1306432
0 2.8290942 0.42802513
0 2.5345318 0.15987125
2.7955816 3 0.42003351
4 0.53872782 1.6783702
1.9792668 2.1988227 2
2.2844884 0.029930325 0
5 1.6823283 0.783476
4 1.012601 1.6841848
3.2492595 2.8680689 0
2.1100795 1.9168261 0
1.1129444 2.6778762 2
0.91710067 1.5450387 0
0 1.8195652 1.7202053
4.6379948 1.5 0.51918399
1.4609685 2.0601606 2
1.4155031 2.8341496 2
0.5900526 1.8684525 2
1.8574655 0 1.2307971
5 1.7211555 0.19277096
0.1212472 3 1.2939677
3.2695487 3 0.43000433
4 1.152735 0.22069931
1.9500725 1.2574908 0
1.453676 1.096815 0
0 2.1912401 0.39867958
2.316195 0 1.1696974
2.6544633 0.35525152 0
1.9930502 0.84674221 2
4.045033 3 1.6444441
1.015649 0.34628034 2
3.5070264 1.8637121 0
4.4849257 1.5 0.50119704
1.7124369 3 1.1739337
1.0379827 0.31151891 0
0.17028287 3 0.73213339
0.29110327 2.1000645 2
1.8840047 3 0.72267854
2.9498775 3 0.72559994
0 0.90079463 1.3630815
0 0.89159441 1.6489286
2.0409303 3 1.8853027
1.2064362 2.8325527 0
4.9500203 2.6393101 2
0.71344328 3 1.6894318
1.4816293 1.6258779 0
1.3277192 0 1.7361494
2.094841 0 0.24927209
2.1201124 3 0.020105973
2.7776215 0 0.97251427
4.8279352 3 0.7835834
4 1.1193749 1.4274006
3.4056771 0.80045426 2
0.45133829 0 0.75872511
1.1468239 1.5858692 0
2.5468111 1.1183722 0
0.99898499 2.8538623 2
2.7303138 0 1.7253945
2.8229911 1.6327672 0
5 2.8291783 1.4261223
2.1667597 0 0.5295105
1.5931571 0.46680126 0
2.5947397 0.60045779 0
0.066506453 0 0.55469996
4 1.0728271 0.32291231
0.76647556 0 0.20324706
2.8847933 2.1812985 2
3.8088312 3 1.9509853
2.8431587 0.25634396 2
1.3826206 0 1.9834681
0.61612689 0 0.19791645
1.2792369 0.15514232 0
0 0.32480505 0.70953798
4.7097883 3 0.49412155
2.8869271 0 0.22338735
1.690694 2.4107108 2
4 1.0424773 0.5601247
0.67092514 1.8006394 0
3.1566517 1.2652367 0
3.5899467 3 1.3992712
0 2.0969772 0.17054972
4.4972615 2.8628047 2
1.1782782 2.1187186 2
2.2515373 0.51583052 2
0.29338774 3 1.8665646
0.040734775 1.8386968 2
3.6887002 0 0.24121468
2.78967 3 1.3686659
0.21987203 0.89169967 2
2.8843718 2.8891635 2
4.1230249 2.6732044 2
4.3976603 3 0.37047011
4.6285963 2.048496 2
2.5280602 0.64664406 0
4 0.6877355 0.42907977
0 1.7891788 0.884857
5 2.5675683 0.54689664
2.2916057 1.3091356 2
1.272249 0.53396469 0
1.556353 0.085344054 0
1.3148278 1.6398623 2
0.82208788 0.57731748 0
4.3140717 2.0902684 0
1.7479155 3 1.1115413
5 2.5459893 0.93445706
1.1439701 3 0.18674143
0.23066172 3 0.015833069
1.0364398 2.8891511 0
0.50102007 0 1.7559119
5 2.4105506 0.8829205
4.8794227 3 0.89544004
0.7278803 1.3955474 0
1.4309814 0.90298229 0
0 2.2841704 0.053596221
0.99094087 1.6868742 0
0.93573594 0 0.62229216
2.463201 0.18625221 2
0.403478 0 0.47467822
1.6976869 1.1604986 0
3.488595 0 0.5249474
1.8042648 2.9315667 2
0 0.38966972 0.65088499
0.31214425 0.2633056 0
0 0.068270266 0.68288708
2.4035306 2.6694143 0
2.9256639 0 0.14559068
3.1341197 0.81038243 0
4 0.80230641 1.9830196
1.2913685 3 0.026492812
2.1619642 1.1386263 0
1.6284474 1.198884 0
1.6335058 3 1.7314991
5 2.9742217 0.22118959
3.2418332 0 0.56645381
2.3216941 0.63433033 0
4.7748456 3 1.4302275
4.0519872 1.5 0.42316881
0 1.0422391 1.5503951
2.6314778 0.25920346 2
4 1.1462491 0.52235705
0 1.0750378 0.053811982
0 2.0624852 0.062033817
4.9646783 1.8329483 2
0.32591286 3 1.0642512
0.50220495 0.42763862 2
5 2.0472505 0.82140797
2.9798372 2.7301145 0
2.5184801 1.5378016 0
0 2.9440794 1.7164464
0.66760612 2.1446116 0
0.3361761 1.3126321 0
3.7815211 0.4470529 2
4.2686658 2.5837924 2
1.3461449 3 0.66819924
1.830602 0.62409157 0
4 0.94248182 0.12337191
5 2.4610794 0.87514484
4.610744 2.2742286 2
3.1187265 1.7041861 2
4.7802854 3 0.72898161
4.8327956 1.6564413 2
5 1.816714 1.4613
0 2.8445292 1.5233997
2.6986244 0.59176469 0
1.5129986 3 1.3039685
0.90323848 0.33605441 2
1.0041966 3 0.18017285
4.2789364 1.5 1.1642383
1.1984456 1.5607266 0
5 2.8366809 0.77160788
4.7116046 1.5 1.5741885
2.6796248 2.7826381 2
2.5326347 3 0.33323175
2.9388418 1.8815019 0
4.8673596 3 1.0512266
2.3282118 0.76284623 0
4.9315133 2.8888376 0
1.0666337 3 1.7878348
3.7636847 1.3713019 2
3.897963 2.0669038 0
0.43325207 3 1.3546041
3.3582399 2.9592569 2
3.2168283 1.1442598 2
3.440748 3 0.33149481
3.6869397 0.8576597 2
2.4479914 1.9291697 2
3.7981226 1.7235115 2
4.8969383 2.308917 0
3.718828 2.6183836 2
4.6011395 3 1.8823768
2.6300123 1.6016879 2
1.7813838 0.43248537 0
4.9875774 3 0.17421922
1.9245814 3 1.4532355
2.7235799 0.41789231 0
2.7040231 1.9315791 0
3.5891683 1.306525 0
0.21659808 0.14468475 2
1.6393958 0.71745706 0
4.8165588 1.5 1.658613
3.3889794 0.82053882 2
3.1970131 1.5048449 2
