# .PCD v0.7 - Point Cloud Data file format
VERSION 0.7
FIELDS x y z
SIZE 4 4 4
TYPE F F F
COUNT 1 1 1
WIDTH 1563
HEIGHT 1
VIEWPOINT 0 0 0 1 0 0 0
POINTS 1563
DATA ascii
5.8080101 2.7802138 1.2804793
4.4898024 3.9031546 1.4218044
2.0859332 3.4296701 1.9673247
4.4983168 0.30014843 1.7552277
5.2001171 2.3405836 0.21868776
4.4571257 3.0760543 2.2001648
1.1831901 1.7246068 2.2024415
0.45328751 1.8693869 0.64621496
4.6727872 1.7426523 0.88119119
1.763485 1.1443565 0.191526
0.43889675 2.5921361 1.4097837
5.5015912 3.9131229 0.20123933
3.1084154 0.64354444 0.20619844
3.9136934 1.4886006 2.1907783
2.7631438 3.5878594 0.20898113
2.1804395 2.9002469 2.2099638
3.7541294 0.3617574 0.20506173
0.93161017 0.74349451 0.20552868
1.2075373 2.2891309 2.1907222
5.1730299 3.7264972 2.2047327
1.4003484 0.12396076 1.159292
0.42230776 2.2227566 0.55164766
2.1569083 3.4531343 2.0112863
0.82807797 0.82481635 2.1972218
1.8468248 1.6491485 0.21096312
1.6149702 3.3477759 0.74020934
4.3853059 3.6589396 2.1965723
4.4610214 1.0215524 0.3490783
4.6068525 2.3681796 0.22231784
0.43142956 2.3216324 0.58965963
0.40243638 3.0152552 0.20769858
2.8418429 2.8526046 0.19958955
5.0425663 1.7538017 1.8041739
1.8969456 1.0435812 0.19691345
5.4224572 4.1143045 0.65960997
2.3998666 0.13799965 1.0103501
0.64284372 2.2305272 0.19430187
1.9701006 3.4186068 0.26854786
1.131604 2.3324933 0.19979343
0.45370007 1.1363456 1.0729367
5.8971734 3.6642542 0.18855929
3.3723967 1.4199002 2.1988473
3.1114385 0.1874992 1.0205668
1.1305149 1.7813718 0.20720012
5.5685844 2.0891881 1.4140478
5.5354595 1.992457 0.35491246
2.2936878 0.16354054 1.7072481
3.9843404 0.2079244 0.68597347
2.094883 0.80997765 0.19772179
4.8120112 2.7346964 2.2128108
5.742106 2.5674446 1.2192439
2.1977603 3.3484828 2.2113416
1.7462273 3.3729587 0.25525379
0.50013363 0.16002868 0.46238494
3.7367496 0.75158852 2.2022426
6.0138235 3.3088541 1.1196271
3.0679994 0.18171299 0.83050972
3.0240674 1.8784046 0.21746211
2.2926536 3.4717534 0.67967206
5.3668694 4.0810938 1.4970641
5.2563219 3.557112 2.2095819
5.8368697 2.7915637 1.3687344
2.6681154 1.4527092 2.2138734
2.4658391 3.5088923 1.0385234
0.49579129 0.3645173 0.39692506
2.054651 1.7565056 0.21005438
3.2168052 3.6626925 0.8298943
2.3130083 0.16824093 1.0624505
1.1636418 0.1148207 1.1221316
4.5222363 3.7598348 2.1911023
0.50427574 3.1245313 1.9327343
4.0150423 3.7972331 1.8489674
4.0310788 3.8231707 0.52801102
3.6575723 1.2950149 2.2006655
2.7261357 2.8594303 0.19902061
2.3438625 3.4901967 0.73682171
3.9475868 0.75910515 0.2073555
4.0208812 3.3354726 0.19160949
4.9324036 2.93116 2.1920745
2.1746621 2.0330648 0.17946559
1.7701733 0.93024242 0.21264866
0.8067221 0.097209074 1.2675527
3.5387709 1.2358688 0.19207078
4.4994831 0.50086123 0.51319492
1.8692143 2.636833 0.19822191
3.2468338 2.6684093 2.1989117
0.77091575 3.1632164 0.41761678
1.0440567 0.093773797 1.7754052
3.4632828 3.7058947 1.5678236
1.9036262 1.5724179 0.21071598
6.3217607 4.1578922 1.9194263
1.9343271 2.667737 2.1963494
2.8457255 2.4924242 0.18773122
1.1025269 0.10749968 1.4938469
0.41785637 3.0544913 2.1311285
0.41438419 3.0200531 0.91689616
5.4604249 1.7956917 1.2665586
0.82223374 1.6008672 2.2188523
1.8473052 0.14518994 0.21341297
6.0294142 3.3193576 1.4714419
2.8125854 1.6965868 0.18443772
3.6132088 0.52325702 2.2049828
1.5535074 3.2444143 2.2014143
3.8625412 1.5598817 2.198724
2.1125636 2.4668932 0.20474319
3.6713753 2.9914813 0.20947625
5.1740055 2.8564682 2.2046683
2.9375362 3.5848877 0.53371632
6.2279925 3.8864887 0.89066696
2.3517191 2.0695093 2.211144
2.8083606 0.18080841 2.0132961
4.722311 3.9521263 0.68369305
5.7135768 2.4886196 1.7479284
0.47311354 1.1267983 0.69244772
5.4808431 3.9869254 0.20459151
0.72233891 3.1567605 0.27312601
1.7335019 1.0633619 0.19692251
4.424427 2.7368727 0.19779328
3.7093976 0.76483631 2.1934998
2.8826652 0.17666399 0.19240209
6.3172035 4.1020212 1.5907536
4.5011191 0.41054535 1.461206
1.2510707 0.12525639 0.70884269
5.5488739 2.9121208 2.1822567
3.7078776 0.20393991 2.0810504
0.4035711 2.7519917 1.7034403
4.4662046 1.0162475 0.77424991
1.7897604 2.1404626 0.19893935
4.5816674 3.24259 2.2019334
0.44963962 1.3830817 0.35285723
3.8440421 3.4031198 0.21203223
6.2752757 4.0368333 0.8559317
0.62776351 0.11388617 1.8609866
2.9423537 1.9469442 0.19021411
0.4104504 3.0888505 0.89209843
1.3182691 2.1818278 2.1998451
6.1373377 3.6532457 0.22672051
4.2953463 3.863014 0.75379568
4.4660587 1.1752745 1.7704829
4.1371126 0.21824318 0.85809565
6.1184535 3.5843449 0.85890025
2.5043433 0.21971929 0.21201122
4.1927414 0.20731747 1.5153245
4.5385947 3.9208727 1.2439185
2.6740582 3.5461657 1.3776988
3.1932428 2.180865 0.1990096
1.7024242 2.8308702 2.1832011
2.2604892 0.14796671 2.055423
4.4750443 1.3461541 1.9627606
3.8034394 1.4710358 2.1996205
2.4830897 2.4500346 2.2043126
4.4649258 3.9114861 0.69649649
3.7858348 2.236407 0.19658576
4.3957386 3.6574669 0.20198604
4.4682055 0.73777521 0.25997636
1.8939227 1.0978503 2.2018244
5.0363669 3.964618 2.1888857
5.8415632 2.803045 0.38765609
3.4909806 3.7083099 0.84468293
4.7779059 3.9564257 1.2435338
6.2762332 4.2782445 0.66003513
0.46095383 0.6432066 1.882231
5.8154082 4.1854057 1.9135629
6.2171826 4.2477837 2.0305798
4.5035686 0.295636 1.5300435
0.58404946 0.11610362 2.0261216
4.4700766 3.9077091 2.0333679
3.3967688 3.690757 0.68144506
0.44990784 1.8553098 0.83845139
3.8785584 1.5758249 0.19896415
3.8504019 1.2115937 0.19323274
1.2554789 0.11871847 1.4180639
5.6151433 2.192476 0.52613068
4.5506282 1.7200912 1.0032116
3.496192 2.8326204 0.20096342
1.0721622 3.227495 0.88743937
0.4036704 2.9030225 1.1852736
1.4411261 3.3099387 0.22413799
4.7322369 3.3022165 2.2098722
2.3470235 2.0290689 0.19998999
3.8307948 3.7657473 1.1972919
5.3141589 3.4583595 2.1956701
5.2640061 1.7374673 0.32712728
4.4726562 3.9154136 0.26291642
0.93720937 3.2112503 0.91094947
3.3789234 2.429373 2.1978776
2.7851193 1.2282108 2.2004228
2.2351973 3.4835205 0.60726953
0.85269642 0.59045714 2.1945727
1.3601818 3.2878594 1.7633849
4.9620113 1.7407745 2.0458086
2.4002595 2.7861786 2.2101958
2.0524025 3.4386241 0.42591053
2.1233902 3.4294734 1.8806175
3.378741 1.9577143 2.1893587
1.4490433 2.5822666 2.2132154
3.2741899 0.18911578 1.9248399
2.6506314 0.60780507 0.21253063
3.8874106 2.4692264 0.18437909
0.47128162 0.52590692 0.92427063
1.5713545 1.6626976 2.187865
1.7339659 2.3135419 2.2189875
0.43704122 2.3681903 1.2258999
1.1979232 2.6514263 2.2133145
6.1532516 4.2402096 1.7509346
3.0291991 3.6064062 0.27860731
1.4325686 0.12610039 1.8367219
2.6678779 1.89916 0.20888051
5.9911771 3.2612581 0.75622153
2.0258183 0.16670531 1.3145652
0.81137395 3.1859615 0.68061292
2.0266817 0.39166197 0.20201908
3.1698432 0.19901939 1.3263699
2.2814279 1.379522 2.2048717
0.51357603 1.938964 0.18177173
4.5988054 2.0106378 2.2055118
1.7620263 0.14372346 2.1337521
2.2463851 0.14988564 1.7505114
5.1087651 4.0356359 0.49267733
6.0417595 3.3841002 0.86351389
4.4839554 0.88325417 1.0638397
2.1604731 0.82372046 0.20363151
5.2904592 1.7265216 1.6711352
0.4495804 1.1187669 1.2961392
5.8519411 3.2649515 2.1990354
2.2718034 2.2681081 2.1959658
4.7340961 3.0579195 0.19882251
1.1806121 0.1225742 0.72183484
1.0301554 3.2247355 1.3975176
2.8485103 1.952563 0.18882634
2.8995039 3.557219 0.20072542
3.9759378 3.1578164 0.19234091
4.5049353 0.32483092 0.57148087
3.79109 1.2847927 2.1891882
4.0504255 1.1587362 2.1884236
1.0016401 0.78879064 0.21507925
0.87036502 3.1875751 1.7170241
5.0418005 4.0196342 1.6448613
0.43065587 2.140614 0.19709027
1.8203924 1.3740405 0.21322849
3.6269777 1.918496 0.18783344
6.2327127 3.8821597 1.2615435
1.000092 0.99464613 0.20431633
0.47752222 0.13318689 0.64050376
5.9264221 4.1948767 0.68716979
2.310935 1.257888 0.20056079
5.7461834 2.5434666 1.3335154
3.1321218 0.18746448 1.5891854
4.4646921 1.0279641 2.2010689
3.1367211 0.24686345 2.1978748
0.49215391 0.18690491 0.91492391
1.5710989 1.1833063 2.204813
3.1349978 3.5550745 0.1905067
1.8718315 0.32091981 0.18108603
5.6004777 4.1311488 0.49088806
3.4956009 1.2633196 2.1939859
2.1982384 0.19421369 2.2028451
1.4326932 1.0268714 0.19448926
2.4321251 0.61141557 2.2070804
5.0776286 4.0136142 0.98868984
4.5795102 2.1795607 0.19400486
1.5223784 1.5360214 2.2192507
6.2545948 3.9958031 2.2035728
4.1819372 0.22464117 1.5430851
4.4270248 3.430594 2.1885636
4.4724836 1.2666517 2.1561337
3.6701374 3.4899824 2.2007327
5.2493796 1.7398992 1.8257139
5.2299771 1.9450529 0.2032368
6.1335011 4.0255256 0.18847582
2.5601294 0.41700926 2.2200346
5.1486149 1.9212732 2.2023311
0.86450875 2.6733618 2.1999269
6.1820374 4.2468452 0.84514517
1.6861268 1.7258204 2.1958466
5.0503249 3.0512807 2.1824968
0.71606952 3.1453993 1.6225859
2.7114286 2.4614229 2.1975911
4.4995413 3.3950453 0.19070593
1.4171842 0.80035615 2.2013662
4.2589865 1.5638533 0.18957776
1.0296454 1.0772568 2.1942599
3.469202 3.7039499 2.1165447
1.3934662 0.11000819 1.2637498
4.8490529 1.959649 0.19833583
5.6696177 2.6679635 0.18069777
2.2587507 3.4814434 0.67285132
3.1603284 1.896964 2.2071426
3.0024314 3.5910015 1.4946635
1.0503707 1.3716494 2.1903222
0.47633061 0.93650991 1.6991093
3.5198269 0.79680145 0.19400521
3.4057882 3.5577137 0.20496005
3.2306812 0.18862778 0.29731631
1.3126643 3.2893999 2.1472492
6.3325558 4.1370945 1.6098233
1.762094 2.3242261 0.18383569
3.8595171 1.0328064 2.178472
1.2214386 1.5789859 0.18292342
0.99952364 0.094094507 1.159526
0.53104216 2.3848109 0.18753606
3.5298002 0.18045416 1.1569289
4.9925575 2.7374768 2.1930346
4.3687525 3.746067 2.2027512
0.57581133 1.7864518 0.21563996
0.51499456 0.32251292 2.1960371
1.1643291 0.1186628 1.3600556
3.2093256 3.6829138 1.4151925
5.8384852 4.1828246 0.98485321
1.8067443 0.75087887 2.2056279
4.2687349 3.8561077 1.8472321
3.4587109 1.0498194 0.2019722
1.9163798 0.13416258 0.48928767
1.9653299 3.4014797 1.0844074
4.6057281 2.7023895 2.1839631
2.5858433 2.1444504 2.1943169
0.42535472 2.2277799 1.5847712
3.6828218 0.20857254 0.63371664
5.6771708 2.437757 2.0187116
0.44245869 2.4555848 1.7773176
3.0935485 0.17516004 1.0027417
3.2323239 0.2699244 2.2101274
3.1976733 0.19130936 2.1189094
2.4386625 0.16999438 0.50744379
3.9751215 1.1296662 0.20550418
0.40331095 3.0331337 1.0845197
0.4658204 1.6441509 1.8884286
4.9293842 1.9430736 2.2022939
3.8102493 1.5386828 2.1996312
1.7682801 2.7622595 0.20019689
5.0791755 4.0549054 0.71019292
3.503201 3.4024787 2.2011297
1.2700872 3.2736802 1.4127425
2.8127267 0.17248987 1.3677582
4.5038567 3.5270317 0.2025556
3.0894046 0.34740958 2.1928182
2.1318138 1.1589367 0.17665514
2.2859368 1.3888013 0.21092415
1.8062443 3.3716557 1.589294
1.5441114 3.3365471 0.23167352
2.8556972 1.426164 0.20052141
1.9722258 2.6364162 2.2163653
4.1723242 3.8575993 1.1349112
3.0065432 3.3327873 2.1898298
4.4300122 1.4557574 0.20130801
5.9623818 3.1509368 0.94219691
0.94369435 0.12560253 1.4164623
1.8383594 3.3755212 2.0225863
5.4239168 2.5778329 0.21005748
5.393539 3.1268468 0.21002874
1.6995444 0.44638711 0.19455004
2.452632 3.5257511 1.900746
0.50182629 0.21709216 0.29606014
5.6259413 3.4548602 0.19234307
0.82923317 0.42599079 0.20355111
4.8641176 2.5651615 0.20041233
3.8922822 0.21704438 0.49179965
2.7896011 0.96997958 2.2176838
6.1294398 4.2407131 1.2452508
3.4940467 0.44644299 2.1937456
0.47197932 1.366756 0.81817174
3.329932 1.3918493 2.1974978
2.8311193 0.58941358 0.205717
4.017889 3.8194442 0.9133715
5.7848125 2.6968775 1.5692286
0.46774009 1.3340849 2.1607461
4.470602 2.1184344 2.201185
0.46187496 3.1076918 0.69013333
0.9111973 0.1228841 0.94044
4.631979 1.8673738 0.20488289
3.410567 2.6030738 2.1991634
4.0815115 0.46848854 0.21443798
5.7440815 3.6669974 2.1953471
0.64646852 2.5896544 0.19328216
0.49981344 0.26129922 0.53266227
5.0047832 4.0148754 1.1153497
2.7946756 1.0143973 2.1933908
2.0784707 0.12383311 0.73710608
4.5057979 0.32556945 2.0889308
4.0335646 1.3585137 2.2092304
6.3311844 4.1697521 2.0507278
5.8266897 4.1733918 1.6732173
5.6240239 2.1994386 1.7228338
2.3857942 3.4801366 1.0768062
3.2700813 2.7371783 0.20125085
1.9508835 1.2357513 0.19482148
4.478776 1.1720892 0.18708737
3.6208162 3.7275982 1.6446906
4.1047602 1.6324487 2.1917229
6.2148986 4.2457433 0.69408351
2.1286912 1.1176721 2.2076526
1.473604 0.12032211 1.1541325
0.46534407 1.3329189 0.35068348
2.1112299 0.16249296 0.28990483
0.41989046 2.4849424 0.84955531
1.8777071 3.395685 0.95682883
3.3838871 3.6945879 0.23861882
4.7937346 2.8327904 2.2052503
2.9998395 3.393615 0.19742975
1.7311027 2.9130685 0.21050335
4.4908133 1.0824901 1.0011936
0.42362875 3.0173423 1.5847834
2.4814327 3.5312958 1.1928418
5.1992669 2.2295535 0.20907253
4.3443599 1.0779521 0.18403316
2.2939057 2.7169323 0.20845161
2.9512403 0.17751196 1.7555289
0.47892225 1.3045084 1.9054749
2.5239713 0.5952661 2.1986895
0.49583516 0.3276692 0.54401565
4.1825442 3.8533862 0.80572802
2.7167122 1.1616963 2.2145574
4.2145967 2.2534156 2.1867881
5.2487836 3.3680212 0.1888168
3.6486714 3.7380419 1.2973022
6.1560779 3.6246388 0.91744435
5.2386284 1.9442073 2.1886499
1.0065249 3.2275953 1.4078976
4.3403068 1.522777 0.19565475
1.7558312 1.0686544 0.17716892
2.7838025 3.5760162 1.1110408
5.6786056 2.3702989 0.84391487
2.6717021 2.4559965 0.20169051
3.0740948 0.19513026 1.4271941
2.0324392 1.0513306 0.19620673
1.5992676 2.6934419 2.2097476
0.47400081 1.2225879 1.0364155
2.1213627 0.783692 0.21359035
2.2405293 1.7449708 0.1757067
3.0257511 0.17691953 0.45797759
0.46569568 1.9233479 2.0108788
5.3733602 1.7442168 1.2196714
6.3546906 4.2333469 0.80674469
4.0909443 3.3589544 2.2094326
2.4787755 1.8065375 2.2060761
6.1699905 4.2387877 0.5385071
5.4922438 2.9671414 0.19399025
6.2028966 3.8272252 1.2754029
3.0787005 0.2030343 0.41145068
4.5661054 1.7325579 0.4453195
4.1254063 0.2086919 0.44589722
1.9976248 1.955029 2.2100289
0.48747671 0.24829647 1.0099583
3.2495327 2.5106628 0.19917238
4.7442393 3.9826086 1.6922432
2.955904 2.8462143 0.17958485
3.3719497 1.3268172 2.1918714
3.3402562 2.0539987 0.20280157
2.5368826 3.1603291 2.195693
5.8481984 4.1869388 0.24255952
4.1426072 3.7348311 0.20161127
4.4588022 1.6589698 0.22245982
4.8391619 3.5940208 0.18668589
3.3617339 3.0950532 0.19260621
4.4712863 1.1578707 1.7969606
5.6585331 3.1639853 2.1881793
3.8002839 2.0696464 0.19304642
6.0585217 3.4743555 1.0029054
1.0262413 3.2463374 1.3856177
5.4620385 4.1125135 0.56532341
0.83564699 3.1966016 0.85775888
1.1589928 0.12683855 1.3622379
4.7812848 1.8775394 2.2020645
5.0449133 2.6763659 2.216795
1.6187434 0.59299791 2.1952574
5.4499402 4.1114612 1.5627223
4.6054759 3.4905014 0.20314629
2.6216896 3.5086691 1.5365722
4.4795728 1.2415333 0.94267952
1.2153455 1.7987784 0.19010314
0.44945395 1.6141474 0.87271214
5.6107101 2.1880219 0.34930056
1.2079656 3.2564151 1.3599726
1.6647191 0.74092633 2.2088919
4.4796414 0.5241484 1.0667692
0.54205215 1.7697835 0.20421197
0.50364161 0.17075013 1.7078111
5.8276649 2.7833922 0.7789312
0.76254737 2.1336584 2.2034936
5.4188709 3.3843017 0.2073326
2.7890346 1.1270291 0.19086167
4.2716174 0.21488342 0.59807485
3.0614021 0.17421706 1.3386172
3.6517022 0.20132762 0.28536522
1.6018902 0.99470335 0.21486178
3.7191112 3.7349112 2.2037239
2.5672212 1.5637647 0.19851694
5.7454786 3.2716291 2.1915495
3.9122658 2.004015 2.2012215
3.2677279 0.18027723 2.1045702
4.6456976 3.3404295 0.20415746
4.319294 0.20386365 1.245644
4.6347976 3.9291241 0.77945411
5.5653653 4.1015315 2.2002146
1.8699534 0.15047783 1.9351366
0.43587899 2.1161902 0.65983504
0.39201379 3.0449028 1.2291275
0.99343419 3.2139676 1.6808223
5.4241691 1.7665972 1.0176616
4.449358 1.6492888 1.2287555
3.638339 3.7380984 0.80827707
5.6116467 2.2104588 2.1823359
6.1582789 3.6979566 1.5696418
0.43984735 1.7929633 2.0155399
2.3334892 3.4332821 2.1890464
0.4939 0.32774022 1.3440385
4.9589953 4.0233688 0.90436012
4.9788599 2.752878 0.19192451
2.1467886 1.221643 2.2053993
2.9446819 3.4611621 0.18683961
4.6004252 3.2550168 2.2027202
0.95976812 0.11348919 1.9912398
5.6753454 2.4099712 1.1970961
0.44958368 1.9070981 0.20377634
1.875493 0.14015803 1.5143291
5.1466093 3.8829257 2.1879313
0.44228035 2.1071923 0.26816243
0.45408705 1.6096509 1.7217553
2.1711216 2.9645739 0.19624782
1.590102 3.2998612 2.2081916
1.6764162 0.13078685 1.5832297
0.50783437 1.5224229 2.1978002
3.8054519 0.19761771 0.54796594
3.3229127 0.73875451 0.19727917
2.2593203 3.4805651 0.7434873
0.42374057 2.6299968 1.9119836
5.1256495 1.7518958 0.38705665
5.8640509 2.8587956 1.5576991
2.2653432 0.4327687 0.20501895
5.7092533 2.6458759 0.19690965
5.7517142 3.7193105 0.18932821
1.6560818 0.12576999 1.0149568
5.8675346 4.1884584 0.28601554
4.0771284 3.8167124 1.442976
0.49038646 0.18045023 1.2659901
5.6942739 2.4197636 0.86404628
5.8381333 4.1657796 0.59117508
5.7756653 2.632663 0.96305352
5.4298034 2.7036915 2.2150898
1.8845718 0.38306719 2.2140133
0.45935002 1.3059754 1.6040152
4.7197881 1.7480505 2.2003832
3.1270032 3.6265931 1.3478874
0.81072128 2.205416 0.20069994
4.4807043 0.79564172 0.61672223
3.0280769 3.6155849 1.3881006
0.47419801 1.0131632 0.77593344
5.982501 3.2490404 1.6420068
0.7786268 0.095244668 1.6933055
1.9320167 0.32000178 0.21192306
2.7113087 0.13788877 0.20233619
2.5427938 3.5275364 1.9066979
4.0749021 3.847681 0.89844024
3.6036015 0.20091099 1.1676269
0.4898119 0.67953551 0.20933589
0.49238932 0.40730017 0.53307039
6.2778711 3.9786355 0.43856317
0.50063729 0.2513144 2.1065271
6.229198 3.8913448 2.1224592
5.3656054 2.6124992 2.1883366
5.9047551 4.1879787 0.28241742
5.1173801 4.0407934 0.56939811
6.1181746 4.2298217 1.9751902
3.6641417 0.21350594 1.2109678
5.5442233 1.9700115 1.0347375
3.2254829 1.2687676 2.1988728
0.50242305 0.26719725 0.9541598
5.837851 4.1800022 0.18098441
0.47400668 1.0338128 1.4735239
5.9676814 4.2232957 1.7921587
4.7573328 3.9845665 0.40676916
2.5864353 3.5441256 0.68612123
2.066447 0.66878748 0.21294007
5.2008715 4.0515885 1.0945365
4.4136505 3.8943141 2.0929635
6.3232794 4.2664766 0.96738738
4.1179657 2.6762383 0.20070729
2.3072834 3.2433405 2.2085989
4.9554663 3.0536005 0.20494632
6.0374236 3.5664017 0.19929749
0.48888859 0.17931043 1.9407786
3.0150537 2.31125 2.2036085
6.1464391 4.2475829 0.6515466
5.8859496 2.9799118 1.711717
0.47166637 1.3406845 0.83035284
5.6961756 4.1601129 1.8781024
3.1906624 1.453077 2.1853597
3.2272673 2.4853518 2.1996543
5.9134097 4.2047286 1.8604503
3.7706385 1.2986445 0.21147346
6.1316862 3.6079807 0.27688858
4.0989466 3.8281772 1.0559818
1.8248329 3.380142 2.0983264
1.7060094 2.7194748 0.20004047
5.5255852 1.9151284 0.67490709
3.8350072 2.9151034 2.2044351
2.8824952 0.1694122 1.5362706
1.0429246 0.1323909 1.4998652
2.9625335 3.5628629 2.2161624
2.7857437 3.3628745 0.1962027
1.3923416 3.3086455 2.1530221
1.206552 3.2572112 1.9992026
3.7535102 0.20109063 1.8037685
0.40917417 2.6815135 1.7558687
3.8955536 3.3542757 2.1954679
1.2767081 1.6466439 0.19791874
2.7756171 3.5544074 1.560648
2.8888342 0.18329948 2.0929661
2.4072869 2.4594646 2.193007
6.0573421 3.4405246 1.6233591
3.844552 2.666219 2.2042968
3.8691862 1.8257757 2.189409
0.67115057 3.1455309 1.40687
0.46585748 1.4730339 0.62985271
2.0170197 3.4246078 0.65490967
0.52816385 1.171986 0.2125611
0.49111557 0.73635077 1.1015605
1.3161411 0.15961429 2.1909454
0.48923707 1.0060173 0.18751992
0.74263304 3.1607153 1.1568996
5.8422227 2.8441842 1.8400888
3.4615057 2.0042982 2.2074373
0.81824136 0.47177655 0.20380579
3.1694798 3.6459873 0.34746143
3.811806 0.20421681 1.0493963
5.101006 2.9109516 2.1967299
5.9829316 4.2085853 1.2389973
2.2525382 3.4402277 0.17563158
3.2054303 3.6611347 1.9986771
0.72663516 2.9665875 2.184392
3.4033153 0.86504799 2.2001715
0.45617583 0.93944043 0.87895495
1.2374763 3.2753284 1.4567087
1.1730144 2.2587082 2.1896968
4.1904855 3.852278 0.88707304
3.23472 3.6650054 1.9011787
4.4683132 1.3212817 2.0492086
4.5372658 3.9361229 1.1902952
1.947859 3.3916819 0.20168912
0.89165485 0.13120858 0.21334618
3.5861359 0.19601297 2.11566
2.9485881 1.4153301 0.21145624
0.88297915 1.4083588 2.2001553
5.6196904 3.9667797 0.20263627
3.9815679 1.7853314 2.1930652
4.4988689 0.61721879 1.0037798
2.1644845 1.5724944 2.1872892
1.993138 3.3977535 1.5387595
2.0113597 1.0225736 2.1995747
1.6584331 0.93212712 0.21073167
2.712224 1.025821 2.2141113
2.1310043 0.1427142 0.38344079
4.6957831 2.3159015 0.18213439
2.3376226 1.5391436 0.19421211
2.6006639 0.15465358 0.51090831
1.7030421 0.13326547 0.93035519
5.9782691 3.2203541 0.45688444
3.0827711 0.96721262 2.1891358
4.9696746 2.4966221 0.20786652
1.2166855 2.3612337 2.2015359
3.3298595 0.42846498 2.2052155
0.44181722 1.7938522 0.26332587
3.051333 3.3964198 0.19513804
4.1071324 1.5800754 2.2021735
5.7712908 4.153471 1.2222526
1.1502459 3.2590489 0.82212621
4.3552933 3.8836174 1.6618441
5.5037136 4.1216526 0.89353335
6.1672177 3.7183712 0.46856159
5.7128129 2.5526404 1.527918
4.5291696 3.9290094 1.267432
2.9136665 0.8135708 2.2038112
6.1451278 4.0108542 2.207093
4.2421212 0.5613355 2.2165215
5.4604998 1.7988502 0.47345787
4.0847845 3.1480868 0.19942151
3.5733073 3.6404335 0.19184387
4.4764404 0.76592594 1.7039229
0.4961957 0.33312041 1.6464455
1.6480505 3.3024895 0.20874086
4.968575 2.5359182 2.2135887
5.421155 3.5040951 2.1987002
1.4310284 3.308516 1.0093052
5.3848433 1.7436038 2.1386557
2.5226009 1.3861843 2.1966541
5.1497903 4.0499344 1.8241807
0.49599794 0.15827484 0.755449
6.0493765 3.3968518 1.8832431
1.3535891 0.90589952 2.2205832
5.5841641 2.1407437 0.64048159
4.1575212 3.8370864 1.1881509
0.676166 3.1420403 0.50142092
5.1036754 4.0435309 1.7612112
4.4695673 0.92596263 0.49329406
0.49470776 0.10495035 2.1273792
0.63677251 0.085835025 0.66329789
2.1954675 2.861176 2.1833377
1.4731327 2.5830412 0.20159033
0.43595743 2.5860593 1.0278653
2.228694 3.4612632 0.66501409
5.5375934 4.1253061 1.7736393
1.9527185 3.2478015 0.19559413
3.3193386 2.8647699 2.1827614
0.43890962 2.0598242 0.46835548
4.8379607 2.8921895 0.20604204
5.6324673 2.2891045 1.1326981
6.2842126 4.2652903 1.4042122
2.6995556 3.5612552 0.77816331
3.8022144 0.20032036 1.6577557
5.1720338 4.0481844 0.32323873
3.7033207 1.2306441 2.202647
4.1775622 1.6653821 0.20738621
2.8586614 3.0785897 2.1932554
3.0137672 0.16525155 1.3232702
4.5667944 2.7585306 2.2051232
0.73108393 1.5372956 2.2101891
5.5818849 4.1459627 0.3530612
6.3614078 4.2325277 2.0238616
5.615644 2.2343502 1.4783108
3.2183547 1.8516982 0.21786481
0.40946552 2.8702021 1.2110444
2.6460745 0.17246722 0.87436575
2.8846521 2.9740009 0.18585418
6.0556707 3.4499271 0.8896057
4.0134048 3.814481 1.8283074
4.7706537 2.8166237 2.1894846
2.204402 2.1131868 2.1991646
2.434783 3.0107701 2.2031024
4.0215588 3.0597332 0.20776869
3.892844 3.784071 0.63018113
0.45052159 2.0969803 0.56673598
0.92919064 0.12025153 1.2169266
4.4723854 0.93355048 0.90005976
0.40914923 2.8045826 1.3845314
1.1840997 2.6514645 0.21139467
4.8873529 1.8583783 2.2043207
2.3983345 0.15420434 1.0939192
0.55861354 2.8992226 0.18231544
5.8264184 4.1634512 0.50583267
2.7331629 1.1291219 0.18497887
3.2004423 3.6479084 1.0506953
2.0825462 3.1098979 2.1904016
5.6396937 2.2544208 2.1575718
2.204464 3.4529891 0.70267475
4.1027975 0.21590793 1.6668862
0.87411845 0.51152945 0.21540582
3.8933005 1.2929885 0.21012126
5.1546803 1.7591525 1.0990843
1.5455701 3.3489575 1.0035735
3.5392206 3.7085552 0.48766381
1.7077172 0.99445081 2.206701
4.4941845 0.54347867 0.71134645
3.039439 2.9906063 0.21715111
3.8029125 3.771524 0.29646128
1.3936779 0.29634753 2.2001636
5.7104721 3.6778064 2.198278
3.052546 2.7483439 0.19583568
6.3830366 4.2875147 1.0826484
5.3446598 4.07341 0.70566708
1.7322714 2.4152598 2.1911786
3.9170697 1.6787575 2.2026384
3.6333108 2.5837867 0.20092106
2.7360902 3.5650616 0.29396424
1.4249061 2.5111334 0.20046656
0.57842261 2.8549345 0.19286051
4.4849343 1.0960768 0.73867476
4.7139502 1.7260319 2.1566303
2.8028624 3.0196257 2.1876748
4.9320302 1.7310811 1.2379432
4.1180301 0.20568794 1.1220514
0.72628051 0.095814981 1.5868109
3.3120999 3.5577188 2.1981008
2.1797943 1.7693843 0.18484889
0.64231294 0.34373322 0.19859686
2.7725244 3.5679741 1.7917204
6.0271678 3.3416147 1.1709512
4.9850993 1.7369684 0.24052206
0.40333202 2.4968777 1.4181253
1.6482073 2.6706827 2.1852875
2.1484208 3.1838903 0.21420282
1.2165135 2.4537873 2.2041006
1.4388492 2.5773413 0.20700143
2.5986156 1.8393666 0.20266411
0.83045369 1.6156763 0.21043742
2.9530025 2.2441285 2.2052879
4.7831178 3.9690719 2.0985758
3.5325634 0.17880735 0.53820431
3.4391809 3.704443 0.3565515
1.4367762 2.758281 0.18805766
6.3251567 4.156558 0.19426966
4.4885864 0.38486159 2.0565848
3.0272827 2.255054 0.19918427
2.407721 1.0183905 2.1929073
1.5022626 2.7751319 2.1880653
2.763576 3.5569236 1.9185669
6.0241852 3.3374851 2.0857837
3.0442438 2.734628 2.2028289
5.6012421 2.3001173 0.20425893
4.4945993 0.45509967 0.35165578
0.49523783 0.47388932 1.8068273
3.6255693 3.7373223 2.0385168
6.2784634 4.0313721 1.3142614
1.3934276 0.12808913 2.1979346
4.4624491 0.96141809 0.55181271
4.6224294 3.7015631 2.1917422
2.6162558 1.0584832 0.19510557
5.1315551 3.0859742 0.20060521
6.0607529 3.4608636 1.9727966
0.45316759 1.2513442 1.872197
0.9633466 0.099969387 0.38645276
3.8455071 2.5032616 0.21296857
3.706821 0.99634516 0.19468954
5.5119538 1.9018072 2.1985636
1.856872 3.3891494 0.40864193
4.4735923 1.3253165 1.7516985
1.2664881 1.0419918 2.2071297
5.5228958 2.255676 0.19945504
4.1008444 0.91183329 2.1987467
0.46624517 0.71655512 0.39993429
4.4540334 1.1385067 0.94131362
2.7608538 1.0277014 0.22657144
3.9450777 2.1832416 0.2079602
0.45023602 1.8607776 1.9013379
3.8809328 0.1944381 0.24125545
1.6631891 1.097625 2.2030759
4.4548101 1.6798298 2.0379617
1.6218406 2.6861253 0.19551556
0.80421412 2.8219721 2.190079
4.1453605 2.3699818 2.2048342
1.6520417 1.3842936 2.1757929
1.1592014 1.213989 0.20154755
5.3534021 4.0995436 0.39585423
0.96688521 1.8919768 0.20554522
5.9014878 3.2529447 0.19743022
3.4626973 2.167006 2.1928658
3.4057946 2.4588759 2.1892462
5.6750488 2.3860998 1.7158411
5.8593698 2.8786356 1.2968433
1.4034324 0.13160115 1.689831
3.9838469 0.78104842 0.21280865
1.4792341 2.6757865 0.19673336
4.8988461 2.1920996 2.1898577
4.5015144 0.2170846 1.4063696
0.49375719 0.43685764 1.5785731
4.4491587 2.076159 0.20239225
4.4534941 1.4320353 2.1078382
2.9034328 0.18707335 0.95462179
6.1575861 3.9508772 0.18771088
3.4041657 0.83028245 0.20191909
0.44302464 1.8291159 0.98203933
5.3610053 1.7561775 0.39474857
1.5694611 2.7946589 2.2128234
4.499157 0.33608449 1.6639606
4.5118375 2.6554654 2.1836884
4.2646008 2.7768486 2.2025657
5.0291142 1.7614229 0.56013447
2.102906 0.53167897 2.19467
5.0153775 3.3138862 2.2006829
5.0138278 3.9821057 0.18976046
4.6785259 3.9407928 2.126348
6.340301 4.2085905 1.876218
3.157114 1.0065377 0.19616534
3.8925917 3.2813687 0.20228787
0.58407134 0.4648937 0.22326535
1.5867381 0.12799048 1.9437976
3.688158 1.371336 2.2001028
5.1146107 2.115633 2.1921577
3.1478703 0.19914144 1.9909687
1.6134887 2.3781996 0.18267746
5.8518906 4.1802411 1.4421397
5.997313 3.2918732 1.8552799
6.1404095 3.6596661 1.624252
2.9047573 0.18264112 0.94908965
3.9271021 1.8606553 2.1998918
0.83273727 3.023205 2.2009299
3.1908696 2.0783615 0.18859513
3.0532317 0.1755874 1.3230308
4.1475415 2.7303894 2.2076385
3.489536 3.2767124 0.20406808
4.6065717 3.9119534 2.0656965
4.0458136 0.20588413 1.9732301
4.2675314 3.8425913 2.1726189
3.8920496 0.21533692 1.18188
3.2199752 0.18627426 0.91497475
4.4649563 1.510754 1.0548524
1.2946973 3.2692118 1.8624907
2.8804522 2.7067754 2.2045155
4.4800148 1.0350565 0.91568369
4.9572945 1.744323 0.37066084
1.2215409 0.77466381 0.18892552
1.6051043 3.3393221 0.59962082
4.1142807 3.8316245 1.0274037
3.770416 0.20676214 2.1338766
0.461014 2.2041392 0.79125601
3.4725108 3.7095859 1.8740298
3.1392105 0.19496262 1.9952128
2.5460584 3.5260549 0.34647384
5.941556 3.1354675 1.4365165
4.6938791 1.74511 1.6441844
4.6346712 3.0556843 2.2049162
0.93085623 0.72449148 0.21346878
4.7633514 3.4566157 2.2125084
2.071835 3.0656457 2.21331
4.2114992 0.84286302 2.2067444
4.238061 2.9938798 2.2034628
0.44773868 1.4273611 0.52905321
0.93317759 0.1182199 1.9707752
1.6878636 0.88421899 0.20023571
3.2723715 3.5517318 2.1931736
5.8989124 4.1842256 1.7848465
3.24207 0.54441172 0.19447818
5.1889014 1.7584537 0.65323317
3.7276952 1.791278 2.186018
5.7159305 4.1648765 0.92911917
3.9165046 0.88518852 0.19396265
0.92791224 3.200974 1.7533517
3.8994782 1.393582 2.1740787
6.1269665 4.2023702 0.2008263
4.2560673 2.6860576 0.18733594
2.007477 0.13037609 2.1310408
5.5361595 4.1282005 1.2494189
2.6693337 0.16362977 1.1296422
1.8528547 0.88594979 0.19872987
1.277328 0.11946543 0.67343098
2.1388257 0.15037555 0.47537559
6.1478219 3.6453297 1.3288466
4.1383119 1.0877167 0.20438032
4.0911713 3.8409717 1.2682813
3.853651 3.7799318 1.9584525
0.50830156 0.20463796 1.3073519
4.5960755 3.9288297 0.59185475
6.1019192 3.5969892 1.7941259
1.169589 3.2610765 0.40720308
5.2780333 1.7663437 0.69852948
5.4634986 1.8120723 1.9480412
5.8190765 2.7808938 0.21323186
1.4938662 1.584669 0.19165103
1.9484211 3.4118936 0.62026024
3.5337596 3.3615355 0.19300228
1.6907282 2.2233474 2.1972272
4.4494104 1.4989252 1.7784312
0.75994629 0.49566793 0.21772213
0.42425084 2.5989418 1.8953395
3.1862981 2.5235126 2.1923649
3.4397991 1.2754602 2.179435
1.6086825 0.11862841 0.37427855
2.1252823 3.3098071 0.19582185
0.46412945 1.0961859 0.39568096
5.8941231 2.9534969 1.2711189
4.0142326 0.21476707 0.97232372
0.64594221 0.10126517 0.96197259
4.0385084 2.5087161 2.2043679
4.6569347 1.7264477 0.67906833
0.45503813 1.4417033 1.6763124
2.2721782 3.4765735 2.0516863
3.1207752 1.9465076 0.21018478
2.338212 0.19114482 0.20721534
1.7088815 1.3150715 2.204757
0.4416194 2.2448902 1.5352929
2.5760665 3.0835071 2.1911232
4.4746752 0.80599689 2.0015666
5.5604939 4.1175952 0.28824753
0.55553591 1.5625247 2.2015667
3.5845857 2.8541045 2.2118123
4.4779778 1.738263 1.9045719
0.42809978 2.133044 1.732504
5.9407525 3.4330022 0.20976776
3.4635675 1.3450636 0.20536876
2.9840837 0.17077544 0.83880657
0.48892498 0.92297775 0.3881616
1.6818329 0.14862287 0.29434568
4.5002856 1.7231035 0.90992159
6.2038622 3.7969468 0.40735871
1.651912 0.1332804 0.75764382
3.9268162 0.67710257 2.1955173
2.6707535 0.15874703 1.9331855
0.68610263 3.1472864 0.32052064
5.762454 3.644727 2.2066023
2.1468086 0.17891657 2.1912928
4.5122809 1.7324535 1.8223729
4.1378593 0.21657917 1.3114398
4.0715337 0.20912397 0.63284743
4.7051096 3.4998283 2.2023313
4.8590078 3.9900467 1.8820723
1.4548496 3.2943454 1.699477
0.44895405 0.90194923 1.3852259
2.9585545 1.9040263 0.20000151
2.9001601 0.19462597 1.2740101
3.3382931 1.6863445 0.19058134
2.7222173 0.15649606 1.2167583
4.9230118 1.7363957 0.66657138
6.1625791 3.6862679 0.78432184
0.81437206 1.9791143 0.19556832
4.4670796 1.6325564 1.3223118
2.4623926 0.16875589 1.0184159
0.4433443 1.6734791 1.6183593
5.4547758 1.7978814 2.1662765
2.4306197 1.1366162 0.19714136
0.46624777 1.2168337 0.60391712
3.4548135 3.7096283 0.2226117
2.4017506 2.7592924 0.20042107
4.4686804 1.548128 0.23500171
0.42672467 2.326067 0.58190894
6.2509832 4.2782974 1.300734
3.0286827 2.9922416 2.1954093
0.42657071 2.369453 1.4528708
3.8317935 1.7698779 0.18884099
5.9487047 3.1852911 0.87334567
5.6951704 2.4522047 2.0561466
0.73873615 0.084492788 1.6201121
4.4496641 1.5784445 1.6647074
3.9428058 1.7992336 2.1987016
5.5758848 2.2724929 2.201669
1.757912 0.1305137 1.7780771
1.2369101 2.6340084 2.1903965
5.1500387 2.0670192 2.2053986
1.2760248 1.0078263 0.21578562
4.4763389 0.74207425 2.1997943
5.3714352 4.0882492 1.3600304
4.5090685 0.32603306 1.6767765
1.1150146 1.9296507 0.19291331
4.4760246 3.9086564 1.5499016
3.3519323 0.21601161 0.21653371
3.101907 0.19182086 0.48300505
4.4607253 3.0933688 0.20217897
1.6120641 0.58784419 2.2081246
3.097208 0.17204034 2.0012953
2.2052021 3.4585791 1.2582539
5.9159918 3.6421773 0.20123978
4.5196548 0.40584272 1.70819
3.4660869 0.72796059 2.2053757
0.42999595 2.2165134 1.4475398
2.3756423 0.3778156 0.18481682
4.4636965 1.4124551 1.506341
3.583272 0.35006869 0.18616369
5.065681 4.0209651 0.80376232
2.7404239 0.17777935 1.0808802
5.7971568 3.966826 2.2033296
5.0712314 4.0272684 1.5744306
1.2005355 2.3614366 2.2104151
2.5264955 0.32869142 2.2017374
1.1319133 0.92378616 0.18867265
2.9000931 1.0260158 0.1848027
4.7537303 2.4693873 0.18732534
5.928443 3.0969722 1.3476737
0.59312266 1.2129924 0.19510579
4.2202225 1.9047008 0.19647239
2.3642561 3.487396 0.55368179
1.9429009 3.396306 1.9070879
5.3499269 2.1565309 0.20560183
5.4478602 2.3669698 2.2088406
3.7748084 0.34706214 2.1937292
4.3809023 0.26380113 0.19942497
2.6343164 3.5505314 0.25965697
5.7566738 4.1555495 0.47121483
4.011169 0.43997529 0.19994989
5.479619 1.8675689 1.0038524
3.952796 3.1493196 2.2071443
1.440781 3.2984352 1.3735169
6.0758562 3.4515133 0.4435637
0.48897842 0.56233591 0.84960496
2.2582812 0.13993415 1.9015852
4.8768473 1.7643883 1.9152198
0.70187014 3.1382151 1.1669799
2.4761038 2.4787161 2.2073305
1.6119984 2.6275177 2.1983011
3.7364457 0.2180374 1.5811999
5.4224906 1.7525145 2.190568
2.9551902 0.89501661 0.21377027
2.6179743 0.1633541 1.0817797
1.4398382 1.9850769 0.20696402
2.7462859 2.195576 0.19543205
1.1526489 2.2579224 0.203163
5.6982865 2.3997538 1.8682116
1.9861505 0.44795889 2.2067027
5.6737032 3.6867602 0.20501436
3.1100764 0.18322493 1.0985227
6.0058575 3.3978288 0.21670678
0.41131419 2.7450998 0.41281676
3.5280199 3.1047239 2.1883471
2.5017149 0.1539188 0.93451476
4.4310308 3.8862314 0.76462209
5.588089 2.3310685 0.18900524
3.9749343 0.20666064 0.44779658
5.5550365 2.7733526 2.2039976
0.7891584 3.1737585 1.1685399
5.2724438 4.0650144 0.72997117
1.0485297 2.2815943 0.2161368
2.0866499 0.15709655 0.72383499
2.2842646 3.486402 1.4441545
5.6934657 4.1455622 0.24332823
6.2157688 3.853548 1.6872319
2.6588771 0.84177971 2.1912656
2.1232991 2.8878281 0.19907326
1.8412957 3.3784254 1.2774664
0.60090482 2.0404413 0.17376064
1.3932002 1.3347585 0.20747083
4.0415215 0.94333369 0.20486651
1.8157322 0.12422313 1.308852
0.41785318 2.5957973 1.4436898
0.84326321 2.4711885 2.2006447
5.4319296 2.3768759 0.19736911
3.2035308 0.99093455 2.2061713
4.2527657 2.9110255 2.1854413
2.6942825 0.95066434 2.2024484
4.4366374 0.25797397 0.19370863
2.0558133 1.0202295 2.2017169
0.63028568 0.22538561 2.2201529
0.45298612 1.5179843 0.47973084
4.2941437 2.835789 0.19552363
5.5728354 2.1132936 0.3847425
1.7933358 3.1812057 2.1984596
3.3272896 2.4050825 2.2050881
4.0060797 0.53766567 0.19830365
1.8248498 2.7807846 0.20525075
1.9884636 0.14190546 1.0609446
0.70690566 3.1611903 1.5858212
4.3399887 2.5013514 2.2082577
2.4617081 2.4462128 2.2156899
0.41875026 2.8788018 0.38656843
1.2639821 0.30228189 2.2001407
2.8336136 3.5823152 1.1492052
1.8010067 0.46265393 2.1848519
4.4725499 1.3640747 2.1835158
3.0396104 0.17895877 0.56539762
6.0324421 4.223609 1.5844914
5.0088048 3.9292989 0.20652117
6.0868745 3.4885373 0.31379861
2.0506983 0.13530272 2.1421196
1.0283136 0.86444896 0.21455993
5.5157018 2.1359434 2.1949041
4.0461793 0.96614921 2.2119052
6.0693398 3.4865832 1.6663047
4.4878168 0.5112775 1.7562107
0.53252476 2.4819698 0.19007537
0.47487101 0.44721201 0.721663
2.4667435 1.8144058 2.2020888
1.5235816 0.13475938 0.74928558
5.2016478 1.733745 0.42058849
2.7156363 3.5620992 1.4507787
5.9604335 3.4852803 2.1988547
0.48542023 0.40047356 0.97205377
4.1764526 3.858638 1.8819906
5.8872581 2.9839458 1.2791888
6.1761808 3.795161 0.96615416
3.9499748 3.8084054 1.941484
0.46639302 1.1506912 2.1859279
0.69641626 2.9344313 0.20151716
3.3472033 2.2250257 0.20109981
5.8815794 3.0059204 0.36842918
1.2195485 0.13096026 1.4903727
1.3759415 0.12602882 1.6115936
1.0455854 3.2191274 2.1417785
1.7353553 0.22022206 2.2202911
2.4776373 0.16446453 1.2573658
1.8147014 0.13941783 0.29000872
0.74961799 2.6471581 0.19561717
1.7765553 3.3596678 0.92172462
5.0674052 3.6395657 2.1972599
5.1499295 1.8623601 2.1828151
0.79809934 0.11681144 1.8876982
4.2466311 3.846709 0.90218431
2.5283794 2.5589764 0.19017106
2.8686228 0.51174098 2.2165406
0.68012005 1.8164061 2.2097082
1.2623856 2.9609935 0.19171688
4.44454 1.6481986 0.88260412
3.0134113 3.5999005 1.7156863
4.9056187 1.866784 0.19526534
2.8472261 2.0763924 0.19913143
5.4542451 3.1453536 0.17838256
0.54124832 1.5453724 0.20005992
3.5600224 3.4557467 0.20283681
3.0591264 0.76731825 0.19019768
0.38846132 3.0246775 1.1022576
5.5380487 2.0359108 1.3749061
0.42225581 2.6117899 0.78476322
3.5850844 0.68654215 2.1913395
2.1999459 0.16167998 1.7297001
1.3687651 0.11292334 1.4172741
2.7297263 1.1630534 0.19114889
4.4542246 2.7778022 0.222516
5.4477162 1.7441776 1.4932655
4.7595968 3.9506526 0.83011198
5.7008657 4.1539068 1.1579968
0.54782212 1.3659223 2.1829672
0.65938866 3.1614478 1.2792127
1.5660462 0.14859034 1.5137862
1.6374556 0.37646553 2.1916971
5.1578169 4.0475402 1.0504867
1.1040908 1.3651862 2.2211542
0.47792953 1.1360444 0.61320817
0.48590061 0.76682615 0.62481976
4.461627 1.6672825 1.0912421
5.550807 2.0655332 1.3977253
1.0870963 1.4144429 0.21089445
4.1522064 0.21237671 0.32005337
0.49521092 0.12163316 0.60615224
5.7986059 2.6947174 0.54335684
1.3943501 1.264593 2.1944749
5.0593624 4.0216112 1.2788686
4.1910777 0.21654752 0.93973166
1.8152554 2.2023587 2.2059929
4.3806009 3.9192696 0.88169581
3.7797279 3.7690861 0.80630398
0.390876 2.9421337 1.0486287
0.47600117 0.69437891 1.30757
6.1244068 4.240417 1.0776752
4.2660055 3.1383228 2.1940825
3.5098417 0.19062936 1.5257903
2.5054965 3.4145811 2.2020569
4.0014815 1.1125828 0.19396304
5.6868701 2.7169147 0.19521707
2.7189133 1.5011007 2.1907258
3.224772 1.2160599 0.20366411
6.1947565 3.8257463 0.5422231
5.1211061 1.7235237 0.21925125
1.6163893 1.9248619 0.19201115
4.7936502 2.1291242 2.2082312
6.1832094 3.7598934 0.57635069
4.4948454 0.26116267 0.47934729
2.4765553 2.7806933 2.1769049
5.1845183 3.2026815 2.1866932
0.57758635 1.3874197 0.20775774
2.4298992 0.16062236 0.2151527
2.9433331 1.2840655 0.21123238
0.4969838 0.42077252 1.2168156
2.5299034 2.0952506 2.1931918
1.8008282 0.88211262 2.2005129
4.5871577 1.7230899 1.8267523
0.42430717 3.0457287 0.5779286
4.1223454 3.8477688 0.36872166
4.8188548 3.9770339 0.67297226
4.9746065 2.6122155 2.1897116
4.474411 0.49172738 1.7769877
4.9123874 1.7447524 0.27867422
1.9966739 0.14702213 1.0384834
0.4882873 0.34477392 1.9532311
1.3017106 3.2940917 2.0436809
2.4218016 0.15772294 1.8295797
0.69048488 0.69568241 0.21319228
3.4675016 3.709919 0.71215874
4.2090774 3.8586116 1.7581829
0.48526087 0.67448759 0.83643615
2.2786736 3.0308568 0.20381546
1.7860193 2.0636263 2.2039428
1.2426059 2.2978153 2.1955123
2.0128257 0.11940111 1.6829208
3.6288915 0.60197389 2.1946039
1.9352186 2.0007617 0.18579583
3.9108179 0.4168953 2.2058742
6.2029366 3.8284822 0.5324319
1.7735136 0.14697112 0.50614464
3.3817732 0.17677192 0.67638469
3.5683286 2.5673776 2.2187278
0.43556154 2.030113 0.82831728
1.9749637 0.17958014 2.2016873
1.1011448 0.11385671 0.75881088
3.5315418 1.8441892 2.202563
1.417209 0.1339602 1.4576063
3.646347 3.7515025 1.3425786
6.0058613 4.2274556 2.2079382
1.7792537 2.374315 2.1972661
2.46878 3.5134223 1.1972486
2.0621769 2.0154805 0.21430482
1.5078 3.2750516 0.19360901
1.2509425 0.11648778 0.48288327
0.72634119 2.2310667 2.2009175
5.8729773 4.2031922 2.1398971
0.44393718 1.532879 0.42540687
1.8613462 1.8901297 2.19751
1.8308046 2.8969579 0.19701055
4.4894142 0.73947001 1.8219842
1.1164527 0.99552357 0.19826519
4.0937247 3.7400663 2.2065783
0.43055192 2.1708443 0.99667859
3.2274954 0.45475963 0.19125053
5.3431659 4.0770941 0.57110649
1.4438984 1.870013 0.18478152
1.23528 0.13062966 1.0037001
5.7750034 2.6354671 0.8561579
5.6578445 4.1357465 0.73848897
3.250401 3.6106675 0.19461946
3.7348988 0.2116881 0.5766964
5.5027738 2.8070314 0.1983
4.4867306 0.64574122 0.56492203
0.85921192 0.92717957 0.19738467
5.6497822 2.3167939 0.30614135
0.46036392 1.7475873 1.3734121
5.7630777 3.087081 0.19865926
4.4160109 3.2283661 2.1932509
1.1994562 2.8757083 2.1928315
3.4484453 0.42580026 0.20053031
2.6943974 0.2831243 0.18425523
4.0885653 3.3594904 2.1803079
5.9254708 4.2070718 1.4162557
1.3449619 0.51966578 0.20747681
0.45881924 2.8960898 2.1889901
2.9743843 0.34350887 2.2029803
2.089375 1.3458664 0.20501474
1.375742 3.301414 1.3926052
2.7027965 0.16181549 1.4679332
4.4544082 1.6160928 2.139673
2.647985 3.5450456 1.7017502
0.47010517 1.2075968 1.2392974
4.453558 1.4095018 0.74672866
0.46918669 1.2346383 0.57897007
4.188426 3.5390167 0.20324528
1.2872212 2.8869166 0.20715065
2.4117026 0.15340881 1.7654819
0.43475404 1.8379447 1.5383668
0.78265345 3.1719699 1.9168549
4.9421625 3.1474037 2.1972768
6.2203341 4.2574458 0.85654807
0.41078189 2.756171 0.90574437
4.466764 1.1195629 2.177418
6.2448063 3.9643104 0.83726555
2.9499466 1.451815 0.19195651
1.434185 3.3089378 0.64729613
0.49766934 0.30395421 1.5152856
4.2220221 2.9834137 0.19751465
5.727356 3.8638101 0.189548
1.5401424 1.3156489 2.1966205
5.4789948 1.8474709 0.71245784
4.6612353 1.7213407 0.58333778
4.9876566 2.3712895 2.206409
1.1428659 0.11259395 0.22905335
1.5912547 0.451783 2.1870959
1.2983196 0.3536886 0.22233175
4.5003743 0.28794602 1.8049817
6.311729 4.1114106 0.79747802
0.68850297 2.9525566 2.1899822
4.2047834 2.4271891 0.20346129
4.4953742 0.32853261 0.32100821
6.2199583 3.8857758 2.1880295
0.49637321 0.50511187 1.5867083
6.2587867 3.9885194 1.9100299
0.4785842 0.38063604 0.52566445
6.0736074 3.4483614 0.37170914
0.41054484 2.7903836 0.35922289
5.3618016 2.9863553 0.2108392
5.6562443 4.1443648 1.540822
1.7812716 3.3695257 1.1549441
4.2666297 3.8916268 1.3593173
4.1077518 3.5962405 0.20091271
4.0170269 1.5318177 2.1989679
3.479924 1.0537251 0.19834982
2.4222598 3.037708 0.21028173
0.60350841 3.1436272 1.8646997
0.49110803 0.48957399 2.1806102
5.5090728 4.1230564 1.3078424
0.87180567 2.9732649 2.2030413
5.7892041 2.9610367 0.20493549
0.60903418 0.11062014 1.7173966
1.5574437 0.81462705 0.19367348
4.3566351 0.22523454 0.3720924
0.82297158 0.39102226 2.2111497
0.4764635 0.2450715 1.9473445
2.3256397 2.7317228 2.2101574
4.5451164 3.910954 1.8465596
2.1737785 1.7546023 0.19253594
6.2889929 4.1084428 0.73100126
5.9340138 3.1095107 0.18597157
5.273016 3.713624 2.1916914
0.51159894 0.19991046 0.42069805
0.42814285 2.3334408 1.5963234
1.9434615 0.88970572 0.1981006
1.3729541 3.3021586 1.34937
6.2176442 3.8794878 1.3757021
3.5359406 3.2871654 0.19902052
4.3846331 1.8786165 2.2072001
0.47406098 0.76881582 1.4947782
6.2991056 4.0938606 1.3899548
2.7150638 1.9790198 0.19822676
5.6834793 4.1493583 0.55243325
1.4430025 0.12863913 0.27599204
5.045073 2.0992312 0.19793174
0.47643703 0.85965115 1.6173302
1.6639723 2.9971094 2.1821737
3.4726608 0.6686601 0.20066413
0.45039168 1.4783486 2.0863178
6.045702 4.2241106 0.25731462
3.7195578 2.9636867 0.18355161
3.4972053 0.19045824 1.091271
4.9530091 3.9986877 0.26333144
3.4517314 0.20330283 1.5641481
2.2873931 3.074858 0.199604
1.6565801 0.98265201 2.196949
2.9703 0.83081061 2.2147872
6.0400991 4.2033095 0.61824447
3.9937587 0.20769259 1.7130554
0.48711035 0.89128882 1.6635612
0.44205233 2.0958371 1.0226334
4.4594059 1.3517841 0.94715369
4.4528008 1.3703154 1.0094882
1.1607651 3.2428505 1.5236617
6.2673554 4.2735043 1.5847774
3.6689537 3.028172 0.2039734
6.3337951 4.274672 0.43512332
3.1034112 3.6307437 2.0546675
1.6825744 1.1797318 2.2050009
2.0504093 3.4124782 0.88309586
3.7403626 1.0073106 0.20325553
3.3659694 0.40447474 2.1739657
5.4966063 1.8781108 0.83553672
0.49559873 0.68747455 0.9785192
4.2937012 1.0939187 2.2025948
3.6221988 3.1849642 2.1910992
1.7909851 1.4346987 2.1965683
2.5915329 2.3663352 2.2123051
4.0677586 3.8338809 2.0325973
0.47862372 1.0455399 0.52488375
5.3108535 3.8849182 2.2123544
4.9536819 3.6588609 0.19617052
0.98477954 1.1370578 0.20523223
4.6395807 3.9366424 1.7680237
5.7274222 2.5450969 1.3843782
2.6902418 3.4789236 2.1958973
4.2521377 3.8431211 1.4344428
0.45984876 1.8659047 0.86281818
1.9419481 3.3891411 1.4103842
3.1710699 0.17119977 0.36220485
1.920897 3.0901859 0.21439238
0.87686026 2.7117386 2.1999598
4.0797334 3.8030307 0.48352468
1.3262483 0.10643902 1.2761621
1.3597939 1.0111029 2.1706958
5.1119847 4.0400047 0.87354428
2.069484 3.4434166 0.94667321
1.1692613 2.4549375 0.19692703
5.9513879 4.2070804 1.7009003
5.8516974 2.8302324 1.5398768
3.7819285 2.5224416 0.18734162
5.1343789 1.7607579 1.3308237
4.3197193 3.8836191 1.606459
0.44452763 1.6208631 1.0720166
1.143242 3.2376933 0.56668079
0.86242855 0.68745464 0.20119369
0.45555034 1.0252856 2.0898793
4.3329124 3.8757279 0.62061495
4.3322411 0.67802823 2.1975389
3.1923773 0.19459194 0.34143436
4.4018688 3.8913178 0.23376727
6.1439147 4.2464108 0.67746961
5.173059 4.0354557 0.21679595
0.76589739 2.4918227 2.2059793
3.4204741 0.17503679 0.8079136
3.362246 3.3811512 0.20540243
4.6855869 3.4195509 2.2069368
2.2055101 3.1546631 2.1909003
2.6981826 0.68327689 2.2011983
2.1249382 0.25442708 2.1885259
2.8488178 3.0045958 0.19846904
3.5213826 0.19102062 1.7499342
1.7927576 0.49179402 2.1924369
3.2100005 3.6481736 0.94500971
3.9483993 3.7330143 2.1913319
4.2459879 3.8637657 1.3738837
0.49376422 1.4941339 2.2138653
4.5670781 2.7928357 2.2073975
1.2174928 0.44628841 0.21112382
0.72939891 1.273167 0.20230168
3.0680637 1.806128 2.2003791
1.6677282 0.1186883 1.795902
5.8521581 2.901686 1.9195088
0.44773883 1.7472785 1.4734547
1.7668086 2.1561863 0.20042646
0.4968552 0.24897307 2.1410525
2.1370387 2.4465652 2.2068524
1.0513024 3.2141259 1.3012571
3.7977173 1.7123808 2.2119505
4.4560914 2.0125954 0.2136784
0.45624232 3.0034125 0.20250319
3.4946117 3.0992436 0.18304518
2.5823717 0.16857801 1.7528634
4.1056404 1.3209673 2.2006211
5.3980646 2.7306383 0.19490887
5.5909548 2.1678693 1.5205686
6.2639856 4.2603188 0.45497358
1.8897597 3.0709677 2.2140551
5.4630589 4.1086416 1.4846133
5.7545929 2.5871277 0.91049719
5.5364985 4.116528 1.2227291
2.4402575 1.1392086 0.21015613
5.1493258 2.3082833 0.19320913
3.4645278 1.2194003 2.1933818
0.46869287 0.85923845 1.2505428
0.95488036 2.9757495 2.1999319
1.2170458 3.2518368 0.24319436
0.84087551 2.1078069 0.19179985
1.9052274 0.59570223 0.2017944
6.0622282 3.4121299 0.49496782
3.6376367 1.6416405 2.1904075
4.5135126 0.37797394 0.39921838
0.68538821 2.4048922 0.20465232
5.0282321 1.7579532 1.2398207
6.2940125 4.0587683 1.1537775
0.80504709 2.532865 0.20097063
0.49198237 0.12690179 0.26368085
2.0406065 2.2123818 2.183898
1.4338379 0.13777225 0.91756362
0.47918922 0.59587759 0.51447231
1.2523379 2.3470349 2.1892176
1.5922617 1.2951219 2.1966448
2.7138531 2.5086284 2.1949711
5.5754466 3.6379156 0.20288448
0.97355115 0.13958204 2.1850855
5.68996 2.5994561 0.20405015
3.9295065 2.8564408 2.1980867
0.58386356 0.43388295 0.1813004
6.1548553 3.6337476 1.9079429
1.3835902 0.70952386 2.1882105
0.56872207 3.1311066 1.3142811
0.69112962 3.1460137 0.94399875
3.3116481 1.9651513 2.2063763
1.4092925 0.79537094 0.20360091
2.7993362 0.18231876 1.0752708
5.0181851 3.6607473 0.20630591
4.8872218 1.746392 1.2998993
3.6837158 3.1311846 2.2016406
2.0593233 0.1621253 0.52572435
3.6929457 1.6667035 2.199877
1.0215187 0.25118658 0.19759956
1.2998152 2.0795062 2.1889622
0.73653972 3.1548045 1.0143874
0.76681018 3.1706681 0.69260037
1.2918835 1.5525274 2.2159662
4.4623995 1.4416968 1.9454613
4.3275299 2.5988691 0.18178084
3.6866503 0.20213613 1.8876224
4.4746113 0.98164892 1.5080347
3.1867473 1.3231875 2.212244
2.0318367 1.6291192 0.21111304
0.47212785 0.96981174 0.67883533
2.2295685 0.1824448 1.8664824
5.2475281 1.9767582 0.18690656
4.7504449 3.0066903 0.18734804
5.9922037 3.4852476 2.2155514
3.1036642 2.7104902 0.19642034
4.3108544 2.8143389 0.21135494
5.2601199 3.9603 0.18650104
2.0541849 0.49519053 2.1933551
5.1212282 3.0136118 2.1913168
0.4198986 2.7410376 0.93029583
1.9018151 3.4081793 0.24435543
2.5249488 2.9932823 0.20364238
4.4848814 0.43173996 1.8560448
5.1715198 3.420043 2.212399
5.8983154 2.9658031 0.35928714
4.8979244 3.2817259 2.2040648
6.3527627 4.2465672 1.5695118
3.7957642 2.9304721 2.1965525
2.9049389 0.62288493 0.21112186
4.1718302 3.8497496 0.95746362
4.4636698 0.76842332 1.1929673
0.45558518 1.1207484 0.55726218
1.8209796 0.18972084 2.1989033
3.675076 0.66694516 0.20133859
0.95852017 3.1933041 0.32558191
1.6526722 1.7293541 2.2057514
5.424736 1.7478336 0.81450045
4.4656544 0.31280401 2.2090309
4.0146608 3.7700782 0.20834939
