# .PCD v.7 - Point Cloud Data file format
VERSION .7
FIELDS x y z
SIZE 4 4 4
TYPE F F F
COUNT 1 1 1
WIDTH 1876
HEIGHT 1
POINTS 1876
DATA ascii
5.56396 2.19219 1.22197
4.87711 2.42239 0.0096774
4.35688 2.86411 2.00039
0.842831 -0.0620618 1.7098
5.13312 3.84553 0.358165
1.89769 3.23423 0.656353
2.28689 -0.024961 1.61961
4.02581 0.276777 2.01435
2.33094 2.34699 -0.000457451
5.46668 1.99038 1.58464
0.308993 0.900373 1.95886
3.66235 0.0136742 1.26166
4.2735 0.0206899 1.96369
0.521688 1.16377 1.98197
1.36736 3.14936 1.03654
0.525327 1.94117 1.99266
2.95469 0.722133 2.02236
5.6017 2.29827 0.214278
1.7955 0.396709 2.00214
4.12426 3.23592 2.01793
0.288062 1.98666 1.75798
5.02288 3.84628 1.72832
0.752441 2.84506 1.98777
0.980712 1.29748 -0.00683534
2.09025 0.199143 0.00344105
3.48931 0.816842 1.99559
2.80666 3.42283 0.12604
3.68263 0.839982 0.00182225
5.42138 1.83876 0.947645
1.35814 2.8944 1.9939
2.74378 -0.020434 1.57065
2.56748 0.999082 0.0124112
4.02712 0.0232891 0.801928
0.31678 1.34191 0.406871
0.312558 0.0526781 0.924973
0.620148 0.496532 1.99418
3.18169 -0.0138642 1.14718
4.31248 0.702765 1.7718
2.29376 1.5833 -0.00463784
5.40943 3.6315 1.99941
0.338085 -0.0578566 1.32204
5.38506 1.70699 0.953323
5.2256 1.52329 0.310626
4.36576 3.70341 0.735694
1.62645 1.98775 2.01571
4.76543 3.7647 1.02974
1.49438 2.10384 -0.00148706
1.43654 -0.0337492 1.09798
0.87284 0.315523 -0.00424965
1.34508 3.04951 -0.00684792
4.07124 1.46379 1.99984
4.53073 1.50187 0.560252
0.235918 2.90293 1.75751
0.650428 3.01016 0.951223
4.40613 1.69267 1.98593
1.86201 2.44311 1.99734
6.05309 4.01835 1.48599
1.7485 1.06218 1.99752
4.76767 1.52727 1.0919
5.59093 2.27366 1.20636
3.54656 2.80783 2.00544
3.25803 1.20869 1.99581
0.49085 2.87956 1.98687
0.336397 0.158775 1.56253
6.02695 3.47442 0.311625
0.309989 2.07204 0.896492
0.326761 0.0988568 1.86452
1.50115 2.71114 0.00186481
1.81528 0.501454 0.000813231
4.40119 3.68816 1.36891
0.325548 0.879925 1.33363
5.48238 1.98653 1.38049
3.67648 1.67526 0.0100211
5.12649 3.84276 0.542858
4.21187 3.31979 -0.0166183
1.97132 2.81146 2.00352
0.313317 1.99475 1.99652
5.75976 2.7004 0.931316
3.92364 3.61155 1.74872
3.05815 0.930768 -0.00583182
0.658779 1.16987 -0.00966921
0.305971 1.21093 0.557624
4.86366 1.5067 0.745059
0.297697 2.38772 1.89613
1.58713 3.01137 0.0152162
0.474661 2.96638 1.34335
1.49667 1.71532 -0.00342007
0.459984 1.02441 -0.0023759
0.322719 -0.0528453 0.595415
3.65485 0.23554 2.00827
0.570895 1.69026 -0.0145434
0.81306 0.034732 2.00179
3.53973 1.06451 2.00258
1.38954 -0.0427269 1.70896
4.08326 0.017609 1.34408
3.21947 1.73108 -0.00273018
5.59947 2.60459 -0.00421001
4.1866 3.18172 2.01231
3.25555 3.0021 0.0226507
6.16237 4.03899 1.01042
4.06618 3.63402 1.2274
5.62156 3.83121 0.00372659
0.302633 1.26556 0.0333174
0.342742 2.2037 -0.0028518
5.12463 3.49354 0.0114421
4.13589 2.16861 0.0159801
0.313177 1.18524 1.98563
0.259345 2.95695 1.89193
3.24112 0.574448 1.98944
4.32227 0.453519 0.0502974
4.95626 3.79931 0.445854
5.56108 2.18048 1.58623
5.91429 3.17253 1.81793
5.60887 3.11752 2.01759
3.23453 3.40088 1.99427
3.77248 3.29301 2.00902
2.63562 1.34634 1.9995
5.17649 2.05268 2.02279
4.29628 0.664765 1.79589
5.73383 2.95145 0.0218515
4.35253 3.53775 0.00237308
2.20319 -0.025879 1.62122
0.362292 2.95677 0.188181
4.23226 3.53435 1.99899
6.20449 3.89564 0.52434
0.300357 1.76447 1.68758
6.06611 3.52405 0.0780014
0.303923 1.40096 1.00597
4.07521 3.66001 0.925573
4.44922 3.71382 0.582964
0.323276 1.12978 1.80995
2.96889 0.84931 1.98501
5.99984 3.35753 0.076778
1.46633 2.03771 -0.00907409
3.97204 0.0137835 0.952063
4.196 3.66083 1.68036
1.61278 0.699797 1.99861
4.32076 1.08103 0.435691
4.32609 0.409194 0.5944
4.82178 2.76053 1.99538
5.52515 2.52041 2.01612
4.99433 1.55154 1.60915
4.30052 1.4879 0.526072
1.80197 -0.0479249 1.5198
0.324955 0.279878 1.6711
0.522817 2.98026 0.243611
4.73301 3.76559 1.37255
1.40642 1.21382 -0.00939637
1.7176 -0.0400718 1.92397
3.11792 -0.0122105 0.876363
2.53602 3.36196 1.33324
5.96976 3.99952 0.861667
0.273012 2.60877 1.51952
0.683834 1.81695 -0.0155978
3.27576 0.123032 0.00345324
1.35985 1.72484 1.98239
3.03151 0.0311666 2.00656
0.567224 2.94402 -0.00358687
4.25935 3.68168 0.176862
5.26537 1.85611 2.0235
4.77841 2.46597 2.00486
5.45361 3.68083 0.00621459
0.332562 0.249245 1.27486
3.28469 2.12717 2.0169
5.10007 3.84328 0.563399
2.3656 1.08511 1.97875
5.0539 2.36832 0.0137842
6.06378 3.55511 1.40617
0.301911 2.21528 1.56728
4.31183 1.30878 1.09675
6.08564 3.62778 0.75305
6.0699 3.58442 1.10859
2.23715 1.77158 -0.00196528
1.21098 1.59858 1.99556
4.33196 0.903173 0.0760039
2.11866 0.529022 1.99561
3.52668 1.46213 2.00807
5.34082 2.0216 0.00271693
0.282794 1.42459 0.606543
1.58742 3.18692 0.632081
1.90017 3.23308 0.286968
2.70816 2.46426 0.0130811
2.1016 2.29562 2.00929
3.34274 0.0456343 2.01953
2.59005 3.34583 1.23024
5.56573 3.92111 2.00171
3.70328 3.5924 1.86634
5.63076 2.38638 1.37377
3.85714 3.16718 0.00554714
5.42796 2.6786 2.00202
2.66643 2.98273 2.02483
5.96914 3.26014 1.89855
3.21911 2.8584 -0.0148027
3.70405 1.9768 1.99624
1.35691 2.00093 0.00237323
3.74024 3.58078 0.571619
3.10336 1.50292 0.0103705
6.0934 4.01152 0.541526
2.75643 0.828522 -0.0134385
6.16566 3.79487 0.524624
3.20304 0.749322 0.00164123
3.92089 0.00516528 0.534376
2.70621 -0.0133919 0.0895253
3.24192 0.624111 0.0174894
1.13809 -0.0472802 1.38175
1.95077 -0.0340699 1.32329
0.607563 -0.0716862 1.67646
0.439019 -0.0446097 1.21684
4.05467 2.14274 0.0107525
3.45252 3.51856 1.64166
1.48176 2.35092 1.99344
4.13448 2.74223 1.99529
4.14838 3.314 2.00354
2.28526 3.31448 1.43709
1.57615 1.86381 2.00321
2.86876 -0.0361831 1.72798
0.301793 1.32858 1.36441
2.08915 0.587103 2.0101
4.96695 1.77788 0.0061273
1.47405 -0.0263973 1.72697
2.60583 2.60657 2.00413
0.838008 0.18782 1.98191
0.324346 0.428078 0.390288
1.3581 1.05411 2.0012
5.3612 2.47133 0.00757091
2.24411 3.30091 1.93116
0.508891 2.99422 1.44867
2.13953 2.17941 1.99708
2.40944 2.54482 -0.0136585
4.9371 1.74832 0.00475223
1.16878 0.40099 -0.00274122
5.28209 2.86948 1.99276
2.9604 2.55221 1.98863
2.62206 0.966673 0.0081338
2.30621 1.93749 0.00450096
3.29123 -0.000340044 1.20455
1.04556 -0.0426312 0.892596
4.4494 1.51092 1.37979
5.75579 3.65867 0.0162668
2.42703 2.97619 1.99789
4.33544 0.073573 1.45292
2.21579 2.64116 1.99669
4.94059 3.81305 0.567427
4.58383 1.86623 2.00707
3.31295 0.59029 1.98368
4.11319 0.00694999 1.12436
0.576823 2.98729 0.883256
2.78863 3.39452 1.62285
4.15839 3.67101 1.02715
3.23679 0.94865 1.98797
1.77338 0.924586 1.9871
0.965477 -0.0453567 1.19066
5.94682 3.992 0.166223
5.01055 1.53486 0.337276
5.46502 1.96266 0.808271
1.15984 -0.0496261 1.84434
1.75104 -0.037234 1.16832
5.58296 3.91294 0.531131
0.653069 0.91586 1.98148
4.17755 0.0142062 1.45479
0.71852 1.72863 1.99491
1.75793 0.54377 -0.000328675
5.99375 3.98327 0.463824
2.47325 0.333126 2.00571
1.42072 0.524686 2.01228
0.342991 0.155879 1.02364
0.571328 -0.0539972 0.246149
2.00245 1.18824 2.00389
5.9173 3.99119 1.4205
5.69398 2.58978 0.833118
3.20331 -0.0135896 1.15928
5.85799 3.96767 1.15511
0.289423 2.06233 1.58971
0.522887 2.9754 0.280665
5.23983 1.54854 0.713337
5.90167 3.11634 1.15054
0.338425 0.0534059 0.0609161
3.51603 3.53564 0.416934
2.51883 3.35679 0.120691
3.95624 3.62363 1.84189
5.35207 3.44937 1.99693
3.40875 1.83839 2.00897
2.88344 -0.0126784 0.677519
3.50032 3.52719 1.97713
1.42612 2.18664 1.97813
2.70076 1.36431 -0.00754702
2.18951 -0.0215548 0.630874
4.53919 2.27041 0.00550148
1.04478 1.98256 0.00996929
6.01196 3.36249 1.448
0.277226 2.6339 0.23147
2.99472 0.723586 -0.00241557
4.08094 0.738354 2.00951
1.91366 -0.0313368 0.632814
3.03581 3.02774 1.99529
3.74579 0.486478 8.73655e-05
0.308594 0.400004 1.05877
0.451805 -0.0749012 0.134814
5.16041 1.53332 0.687913
3.75133 -0.000114381 1.4319
5.69568 2.54055 1.1253
4.26708 -0.00399972 0.487451
3.15442 -0.0190019 0.314199
0.332998 0.607574 0.0398291
5.98949 3.38351 0.123118
1.80277 3.21146 1.05557
2.76902 2.19481 0.0030594
5.87933 3.54951 1.98838
2.78184 0.67641 1.99591
5.55416 2.20403 0.939634
0.63129 1.54158 -0.0169138
1.88265 -0.0219021 1.17144
5.08168 3.81524 2.00994
1.22415 3.09863 1.31592
4.70393 3.76793 0.681333
5.99769 3.99325 0.126841
1.00357 0.373656 -0.0207212
5.03967 1.66268 0.0101145
4.69201 3.75599 0.735434
1.05023 3.07729 0.00377455
3.64758 3.31245 0.0112665
1.8641 1.9068 -0.016311
4.80412 3.78731 1.62272
4.07584 2.19153 -0.00689083
2.48134 2.13709 1.99454
4.0096 3.08156 0.00797524
0.615699 3.00013 1.91008
3.3271 1.7186 0.00806841
5.95643 3.99368 1.32056
4.0167 2.8221 -0.00367571
2.80211 1.00127 0.00791642
3.98632 2.90803 0.0161169
3.3764 -0.0116116 1.38428
5.44024 2.03787 0.0157312
0.276933 2.48529 1.07561
6.0405 3.48418 0.612442
4.93067 2.36254 2.01054
0.298251 1.81051 0.461591
2.89289 0.0425303 0.000463665
3.2779 3.49826 1.41711
5.40571 2.22977 2.02517
5.13519 1.52652 0.485093
3.5767 3.55049 1.19422
4.6403 1.60828 2.00002
1.53193 -0.0386398 1.46394
4.74315 3.26688 0.00819647
3.87817 0.0170029 1.18614
4.32391 3.69415 0.0546304
6.02714 4.03266 1.69482
2.86738 1.4632 2.0149
2.97769 -0.00955622 0.260408
1.50946 0.877729 2.00388
4.2099 2.55507 1.99776
3.54668 -5.7593e-05 1.7551
4.16035 3.66329 1.47661
0.387026 2.11267 1.9934
2.22268 -0.0297535 0.470028
0.815597 1.01352 0.0114335
5.76621 2.74729 1.35336
3.37924 1.36702 -0.0186931
5.35409 1.62712 0.936404
3.22022 2.43093 2.01564
3.65384 3.22524 0.00793527
0.313717 1.3014 0.849683
2.65088 3.29476 0.00810583
2.59358 -0.0175068 0.39367
4.29211 1.40141 1.46786
1.79394 2.56099 -0.00192337
2.85844 2.54081 0.0051268
4.22054 3.68062 0.141867
4.14086 -0.0049039 1.92026
3.13309 2.48733 0.0208963
0.322188 0.807478 1.42073
3.52803 0.0080716 0.588698
0.802418 0.662191 0.00727712
2.87952 0.183862 -0.0202352
4.70636 1.53154 1.93329
3.96228 3.46626 0.0131717
0.675853 -0.0633397 1.19679
3.56819 -0.00257394 0.105416
5.57261 2.27689 0.243056
2.50559 0.672029 -0.00584905
5.9414 4.0075 0.532977
4.22659 0.45748 -0.00406723
6.09816 3.65012 1.68089
5.90909 3.79537 1.99539
1.86285 1.87064 1.98978
5.16659 1.53469 0.718783
1.59462 3.17571 0.600175
0.280579 2.91861 1.04575
2.20941 0.0947042 2.00382
3.33212 -0.00441943 0.876372
4.78396 3.80023 1.1267
2.24701 1.95052 0.011834
0.283386 2.33518 0.455891
3.18722 2.23877 1.9989
4.12793 3.31754 2.00853
2.46993 0.553135 1.99145
1.38658 -0.0324996 1.16319
4.4421 3.3356 0.012914
2.29952 3.30992 0.813223
2.17146 2.08824 1.99179
1.32322 -0.0591988 1.84282
0.949041 0.860351 1.99278
2.3122 1.25901 0.00828001
0.494295 2.98272 0.564924
4.32746 0.476631 1.74595
3.87276 1.84799 -0.00329408
4.96571 2.74714 2.0112
0.282717 2.93658 1.78082
0.401825 2.57274 -0.00337613
0.309851 1.29646 1.3166
2.06804 2.90271 0.0021878
3.28021 2.21332 0.010503
6.1237 4.03466 1.75103
1.81009 -0.0478714 1.91683
1.81433 1.86668 2.00402
4.35894 1.51836 1.30661
5.51501 2.12437 1.11207
0.630062 -0.0505175 0.740834
5.4717 3.28979 2.00412
4.15571 1.09806 -0.00387636
2.15621 1.65725 0.00222318
1.51878 0.238693 -0.0213908
1.87687 -0.0355247 1.71676
0.339731 0.0963138 -0.0199757
5.07663 3.84659 1.51316
4.75262 3.50666 -0.00914738
0.325094 0.204802 0.701831
4.79811 2.76299 0.00455149
4.53189 3.7161 1.27042
5.35388 1.633 1.69907
6.06396 3.56237 1.77604
1.48238 -0.0405222 1.2156
1.77488 3.21787 1.01946
2.34962 0.841671 -0.00768529
1.54992 3.18198 1.22477
0.285592 2.90866 0.0690324
5.65088 3.93619 0.238248
0.796746 -0.0705163 0.147054
5.31293 1.57292 1.32558
2.53247 1.03648 -0.00487053
4.32801 0.140066 0.419084
6.16831 3.79047 0.409296
2.67192 3.23791 0.00708365
1.39229 1.46706 -0.000803351
2.51581 3.36049 1.22193
5.68858 3.94502 0.0315641
3.2522 3.49095 1.17503
1.58473 0.927621 0.00586434
2.45468 0.3082 1.96931
1.56406 -0.0361873 1.21742
2.21625 1.5704 2.0166
3.03786 0.028051 2.00303
2.89489 1.28867 0.0155832
5.53128 2.13607 1.36078
2.43434 2.63418 -0.00116356
0.83367 3.03213 0.191022
0.381931 1.11342 1.98555
1.76625 3.02018 1.99167
4.25224 0.251856 2.00939
2.39148 2.39722 2.0229
3.09124 1.78015 2.01465
5.43183 2.65179 2.01087
4.84124 2.80466 1.99588
4.73807 3.75811 1.28778
3.08053 0.331857 2.00761
5.6542 2.43234 0.844765
4.31982 0.749831 1.73249
0.632069 0.169409 1.986
0.595899 1.72363 -0.0193599
0.760795 2.21492 -0.00929783
1.12532 2.73065 -0.0105085
5.07356 2.02764 2.01281
3.83277 0.132528 0.00725068
2.81119 1.75676 0.00381768
1.5175 3.16797 1.32563
2.78125 3.38442 1.05181
0.289102 1.38769 1.38302
0.644042 2.31325 -0.024939
5.71895 2.61983 1.91984
1.09242 2.68451 2.00278
0.278759 2.92438 1.02218
2.45685 -0.0233321 1.8607
0.308942 1.89296 0.728662
5.38831 1.77563 1.13689
1.83101 3.2294 1.70356
0.309688 0.658463 -0.00565997
4.81036 3.39934 2.00825
0.306484 1.42539 -0.0143875
4.05646 3.64179 1.46945
4.71474 3.40261 2.0085
2.86592 3.39686 0.0354669
4.53428 2.17342 2.00599
5.53615 2.12933 0.907255
6.11983 3.78722 0.311717
4.03687 0.877128 -0.00711992
2.58704 -0.0365525 1.78397
3.81387 1.59466 0.00419752
3.94096 0.211632 -0.0121439
5.19858 3.84978 1.78679
5.56268 2.25803 1.29723
1.38161 0.914149 1.99137
5.79863 3.96409 1.42184
5.67279 2.55242 1.08964
4.36755 3.69073 1.22828
1.95675 3.24521 1.76673
4.3326 0.0876016 1.55862
5.06271 2.12088 0.0257903
4.32294 2.86343 2.00584
1.03329 1.55073 1.99787
0.309478 1.70541 0.439757
4.52652 1.52867 0.686313
1.61228 0.965341 -0.0119267
0.301497 2.42765 1.20391
5.38277 3.68977 0.010536
2.95116 0.448672 0.00603925
3.76084 1.28251 1.99357
2.64067 3.39686 0.0104095
2.04432 2.71451 2.00918
3.59351 0.159282 0.00644809
0.775699 0.574318 -0.000575304
1.06433 2.11494 1.98671
5.04646 3.50537 2.01295
1.23444 -0.0514998 0.953947
0.282935 2.0592 0.345409
2.02787 3.2678 1.81091
0.667597 0.655201 1.99089
1.70152 1.4691 0.00817743
1.48827 3.1699 0.538247
4.25802 3.44712 2.00255
4.30773 0.810564 0.152993
4.4698 2.15548 0.0278005
0.293117 2.15793 0.383532
0.273376 2.85217 0.00209148
2.71071 2.66073 0.000600666
4.89383 1.53469 1.61033
1.74453 0.862993 -0.00625658
5.30475 3.89149 0.468859
2.23446 -0.0491396 0.807788
0.50454 2.06467 -0.0113172
1.84552 3.23693 0.0676325
0.994452 2.16085 -0.00438336
0.30005 0.972063 0.865844
5.77542 3.43626 -0.00126298
3.21875 1.2202 2.00008
2.94654 -0.00805375 0.820019
0.986837 1.60977 0.00254408
5.42486 1.86416 1.22195
5.39354 1.76871 0.162643
2.12665 -0.0229263 1.50441
3.82055 0.00234161 0.487863
1.93969 0.627068 -0.0051017
4.67374 2.51789 2.01917
5.60455 2.3405 1.02804
2.06693 3.16251 2.01099
1.62116 3.19394 0.0536788
0.336653 -0.00422598 0.25458
3.57518 0.54763 2.00391
5.88528 3.07873 0.929817
2.90356 -0.0131687 0.629837
2.88137 1.68443 0.0181362
2.16753 3.28592 0.479695
5.24644 3.85824 1.30613
5.12773 3.33501 2.01788
5.70154 2.56336 1.17799
2.51486 1.26131 2.01319
2.34014 3.32071 0.839056
0.334907 0.200354 0.189285
1.9106 1.57399 0.00793728
3.09345 3.46581 0.632642
2.14782 -0.0179182 0.859673
0.997744 -0.0578135 0.916123
4.39615 3.5464 1.99754
0.371702 2.9588 1.7275
3.89038 3.59007 1.65404
3.9104 3.61691 0.333154
3.50242 1.09195 2.00258
2.59509 2.66892 -0.000282973
2.2188 3.30371 0.537002
3.79163 0.554316 0.0096212
3.89538 3.12965 -0.00369543
4.7965 2.71294 1.99894
2.03396 1.84914 -0.0220799
1.61639 0.751146 0.00902937
0.640238 -0.0713306 1.06054
3.38852 1.03589 -0.00638416
4.33959 0.289319 0.316765
1.73561 2.45646 -0.00364824
3.10793 2.4701 2.00088
0.642992 2.99559 0.213158
0.876102 -0.0779901 1.56904
3.33837 3.50549 1.37129
1.75741 1.3917 0.00802137
6.20099 3.92341 1.7312
1.79552 2.48493 1.99468
2.71037 2.30054 -0.0115581
0.935513 -0.0647215 1.28766
0.28391 2.88962 1.92559
0.283408 2.85623 0.711323
5.31365 1.57209 1.07391
0.670854 1.43125 2.01318
1.68424 -0.0347631 0.00932904
5.90002 3.08876 1.28168
2.66785 1.50515 -0.0156311
3.44894 0.320771 2.00611
1.42152 3.06606 1.99919
3.71051 1.35438 2.00144
1.97691 2.28365 0.0034004
3.54179 2.7898 0.0129057
5.03717 2.63539 2.01214
2.81411 3.39156 0.335624
6.10689 3.65399 0.70195
2.20578 1.88181 2.01011
2.64064 -0.0119909 1.8119
4.60267 3.73757 0.490862
5.57363 2.26158 1.55658
0.320407 0.962604 0.485403
5.36289 3.76381 0.0138945
0.594744 2.98983 0.0685272
1.58133 0.884702 -0.00668328
4.29181 2.52632 0.00308916
3.54801 0.561208 1.9951
2.71996 -0.0154985 -0.00878595
6.19669 3.86787 1.40247
4.33752 0.198202 1.2647
1.08644 -0.0480672 0.503088
5.41273 2.68663 1.99081
3.54018 0.000461832 1.88216
0.267244 2.58766 1.4976
4.31167 0.804845 0.578172
1.6503 1.96106 -0.00357984
4.44944 3.02848 2.00809
0.300905 1.21943 0.14597
3.7193 3.19936 0.0162957
6.15604 3.80379 0.667476
0.459839 -0.053035 1.65349
2.80054 1.75395 -0.00927883
0.280356 2.92509 0.686574
1.17376 2.00633 1.99605
6.01533 3.42238 0.037554
4.17449 3.65345 0.559705
4.31063 0.963035 1.57454
3.97295 0.0107128 0.660416
5.99388 3.35318 0.669619
2.34212 0.0320044 0.0098121
4.02662 -0.00141543 1.31779
4.41704 3.70802 1.05055
2.54785 3.35525 1.17884
3.05415 1.98489 0.000413865
1.5656 2.6508 1.98103
2.09231 -0.0383965 1.85248
4.3211 1.13364 1.76699
3.65036 1.26624 2.00209
2.34165 2.26076 2.00397
4.34479 3.69996 0.502918
3.64736 2.03343 -0.000320107
4.27398 3.44719 0.00799792
4.31182 0.526796 0.0636659
1.73657 0.915627 1.99868
4.91266 3.7451 1.99693
5.7091 2.5756 0.196935
3.3681 3.50818 0.648229
4.65675 3.74075 1.05086
6.16039 4.04534 0.471792
0.299231 0.4782 1.67473
5.69502 3.9569 1.72396
6.09718 4.01444 1.84214
4.33843 0.0832147 1.33344
0.415695 -0.0504389 1.81851
4.34618 3.69501 1.83979
3.27415 3.49187 0.484716
0.305397 1.69122 0.631971
3.73227 1.3718 0.00174436
3.69984 1.00793 -0.00437976
1.0888 -0.0552464 1.21231
5.4751 1.96763 0.334254
4.40376 1.50745 0.807975
3.36477 2.63302 0.00377023
0.943668 3.05592 0.683868
0.270567 2.73911 0.979569
1.31542 3.13455 0.0216633
4.60068 3.08632 2.0165
2.2062 1.84309 -0.00108148
3.70759 3.5613 1.00183
5.18444 3.23559 2.00405
5.11917 1.51697 0.133885
4.35377 3.70416 0.069364
0.808468 3.04125 0.70699
3.23719 2.22953 2
2.62925 1.03546 1.99986
2.11042 3.29843 0.407143
0.689454 0.420569 1.98811
1.22994 3.11215 1.56066
4.81246 1.52241 1.85173
2.26278 2.59785 2.00992
1.92761 3.25584 0.22524
1.99444 3.24464 1.68013
3.23147 1.75791 1.99108
1.30922 2.40518 2.01013
3.10678 -0.00911075 1.72474
2.49297 0.418335 0.0110722
3.75171 2.26505 -0.0120441
0.310837 0.361583 0.7167
1.42074 1.48426 1.98432
1.59093 2.13311 2.01645
0.297509 2.20389 1.01983
1.05893 2.4773 2.00959
6.03394 4.00785 1.56231
2.90673 3.4122 0.0807886
1.2648 -0.050304 1.63147
2.52547 1.7094 0.00858571
5.86308 3.03171 0.566309
1.85993 -0.0162725 1.11099
0.682984 3.01764 0.476284
1.86655 0.209583 -0.00135486
3.00422 0.00252178 1.12599
2.12737 1.1927 2.00305
0.371874 1.77466 -0.0244574
4.45202 1.79641 2.01066
1.59361 -0.0368191 1.92942
2.07907 -0.0360577 1.54753
4.99061 3.81667 0.30099
5.91481 3.15386 0.673847
4.32705 0.671411 0.867695
2.00542 0.64003 0.00100161
5.14176 1.50459 1.47795
0.295102 0.954349 1.08902
5.71989 3.03585 2.00873
2.12826 2.08135 1.99488
4.60525 2.84369 0.00525379
1.01592 -0.0499281 0.515882
0.900214 3.05323 1.19383
2.70678 1.76068 -0.0109218
2.77668 3.36461 0.00250515
3.84834 2.95254 -0.00324205
4.3428 0.113188 0.374914
3.63584 1.08017 1.99147
3.89367 0.951058 1.99131
0.846232 0.618776 0.00920841
0.739108 3.01769 1.51286
4.92026 3.8005 1.45297
0.291298 1.97726 -0.00919437
1.67184 1.19432 0.0101318
3.48479 1.71743 -0.00978723
6.11053 3.64929 1.07283
0.847144 0.824644 -0.00138088
0.313231 -0.030947 0.432613
5.80955 3.96608 0.497885
2.16101 1.07239 -0.00127704
5.60803 2.31638 1.1423
2.96564 -0.00880542 1.38869
4.30633 0.815393 2.00499
2.96925 0.050029 1.99744
0.327732 0.0223663 0.707119
1.41477 1.00489 2.00085
3.01216 3.3597 -0.00706293
1.71093 0.140692 -0.022778
5.48342 3.90637 0.300646
3.34011 1.06218 1.99543
2.0302 0.00845972 1.99977
1.28012 0.851768 -0.00998148
2.26898 0.422867 2.00501
4.95784 3.7946 0.796896
4.44032 1.96722 -0.000751138
1.37018 1.35814 2.01546
6.13113 3.76189 2.01502
4.01594 0.0160116 1.34553
4.29706 3.21831 1.99446
4.31706 1.05401 1.96028
3.5409 3.28662 2.00458
5.10041 1.51832 1.63243
5.08794 1.72504 0.0100804
6.016 3.79471 -0.000379503
2.39464 0.226952 2.01815
5.00074 1.70056 2.00892
0.725839 2.50318 1.9953
6.06532 4.0149 0.656613
1.53622 1.54601 1.99267
4.91586 2.83167 1.98979
0.584588 2.97742 1.41795
2.57013 2.26946 1.99789
4.37471 3.18357 -0.00322132
1.25636 0.623783 1.99665
4.11256 1.35535 -0.00659829
0.872137 0.905246 1.98871
3.34274 3.50302 1.92002
1.2271 -0.065457 1.05837
4.70723 1.74414 0.00413659
5.53615 2.44273 -0.0106158
2.13376 3.29602 0.472788
3.0123 1.69973 2.0082
2.8764 3.3961 1.29675
0.896347 1.19938 1.98508
0.318579 0.771454 1.4919
3.36439 0.597071 -0.00488164
3.28292 3.35913 0.0081429
3.0678 -0.0077319 0.0971024
1.18138 3.11393 1.94439
6.2124 3.90274 1.42161
1.62484 2.14515 -0.0186013
3.70132 0.827399 1.98072
1.07543 1.40635 -0.0216555
0.833289 -0.0766316 0.953045
0.394586 2.22026 -0.0182594
3.36441 -0.0201514 0.957533
4.85436 2.51856 1.9999
4.24248 3.53444 2.00876
0.432211 1.62139 0.00945137
0.34861 0.15663 1.98841
0.997815 -0.0541776 1.15405
3.08458 3.48563 1.21793
5.72065 3.95482 0.795313
1.64529 0.569706 2.00195
4.14476 3.64595 1.65306
3.30624 0.850786 0.00313462
1.75241 -0.0468346 0.285384
1.83828 3.21918 0.883461
4.46717 2.48805 1.98972
2.44082 1.95399 1.994
0.283168 2.06333 1.37854
3.5192 0.00659327 0.434771
5.53587 2.21092 1.82721
0.302424 2.29076 1.57133
2.92855 -0.020166 0.802133
3.06508 0.0719494 2.00998
3.02976 -0.00617519 1.9186
2.27503 -0.0171871 0.305018
3.82355 0.924527 0.00816637
0.272024 2.8693 0.878927
0.315896 1.47901 1.68181
4.78179 1.72495 2.00829
3.65797 1.3338 2.00218
1.63615 2.58307 -0.00184453
4.96065 3.83611 0.51844
3.37294 3.20109 2.00444
1.14066 3.09933 1.20976
2.64671 -0.0198237 1.16637
4.38055 3.31548 0.00875431
2.92313 0.151131 1.99234
1.9808 0.975584 -0.0257644
2.13753 1.20358 0.00913012
1.67745 3.19082 1.38788
1.41869 3.15994 0.0295071
2.70772 1.23423 0.000338316
1.83299 2.45315 2.01477
4.05035 3.64917 0.940473
2.87553 3.13728 1.9917
4.28226 1.24523 0.00551234
5.83247 2.92158 0.752109
0.777121 -0.0446802 1.20985
1.7084 3.19394 1.82126
5.28932 2.35548 0.0179851
5.26542 2.90482 0.0183466
1.5401 0.268173 -0.00968295
2.32474 3.33701 1.70125
0.339481 0.0529518 0.0883102
5.50173 3.23008 0.00158836
0.669587 0.258047 -0.00311086
4.72944 2.34943 0.00677806
3.72914 0.0127093 0.293443
2.63063 0.777177 2.01692
6.01154 4.00906 1.05657
3.32891 0.245379 1.99448
0.321756 1.20245 0.61133
3.17596 1.19265 1.99859
2.67325 0.39782 0.00474274
3.89609 3.61302 0.718474
5.64781 2.46913 1.37825
0.313398 1.16872 1.95386
4.32511 1.90572 2.00607
0.33256 2.94349 0.484769
0.745918 -0.0466189 0.73374
4.48907 1.65443 0.0100025
3.27088 2.40284 2.00153
3.9221 0.262132 0.0168236
5.6168 3.43914 2.00509
0.512406 2.42373 -0.0120165
0.337332 0.0969828 0.324944
4.88466 3.79662 0.923354
2.6363 0.821552 1.99267
1.91368 -0.0592832 0.533642
4.33945 0.112655 1.89236
3.87911 1.151 2.01224
6.21019 3.93505 1.86254
5.70683 3.94496 1.48363
5.48074 1.97349 1.53098
2.25966 3.29287 0.877092
3.13755 2.54026 0.00334871
1.80074 1.05451 -0.00803305
4.32771 0.961016 -0.00881825
3.49593 3.52526 1.44861
3.95359 1.42409 1.99517
6.09858 4.01353 0.505642
1.97154 0.932671 2.00518
1.30766 -0.0559989 0.948988
0.316022 1.16909 0.143796
1.94814 -0.0206411 0.0865668
0.282784 2.32115 0.643536
1.75095 3.21453 0.755635
3.26254 3.49622 0.0418591
4.65664 2.6162 2.01164
2.87508 3.19984 -0.000653893
1.60073 2.7343 0.00848921
4.33643 0.870604 0.805241
0.290763 2.85286 1.37923
2.35557 3.3428 0.993437
5.06058 2.00988 0.0160768
4.19221 0.868475 -0.0123262
2.16118 2.53153 0.00782731
2.78419 -0.0167598 1.55453
0.32494 1.13922 1.69859
2.36065 0.405641 1.99686
0.334106 0.163386 0.336344
4.06144 3.64511 0.611316
2.56002 0.969743 2.01375
4.07076 2.04372 1.99108
5.12358 3.1477 -0.0030579
3.52488 3.53567 1.10131
6.03181 3.39298 0.728302
5.09106 1.72244 1.99551
0.87659 3.05636 1.20414
4.19337 1.31331 -0.000331521
1.60378 0.889747 -0.0263703
2.65868 3.38402 0.912513
5.53977 2.14443 0.652366
2.53589 2.26616 0.0018875
2.90816 -0.00032036 1.22655
1.88011 0.869143 -0.00658119
1.46075 2.51458 2.00717
0.321469 1.05809 0.829454
1.96582 0.600458 0.0108175
2.09643 1.56029 -0.0259052
2.8623 -0.0171532 0.257185
0.318727 1.75809 1.8045
5.22612 1.52168 1.02673
6.23791 3.99939 0.618679
3.9601 3.15063 2.01433
2.32974 1.61736 2.00517
6.05403 4.00724 0.349936
5.36228 2.74397 0.00244366
6.08003 3.5947 1.08656
2.91568 0.0083732 0.210828
4.42094 1.5202 0.250139
3.96228 0.00164306 0.248179
1.85036 1.77151 2.00792
0.323516 0.0837298 0.802193
3.11433 2.314 0.00101757
4.62215 3.76695 1.4995
2.82474 2.65301 -0.0190935
3.21722 1.12713 1.99302
3.19965 1.85629 0.00450352
2.40385 2.97038 1.99612
5.73247 3.95944 0.053053
4.02178 3.52754 0.00698864
4.31339 1.44807 0.0269194
4.71667 3.37852 -0.00612843
3.23344 2.89703 -0.00473271
4.31558 0.945548 1.60102
5.52534 2.93718 1.99726
3.65985 1.86652 -0.0039635
5.93225 3.24379 0.813363
0.896588 3.07489 1.18193
5.34456 3.88931 0.374681
0.706888 3.02784 0.653506
0.992569 -0.0459412 1.15623
4.63293 1.66117 2.0076
4.90592 2.45682 2.02375
1.45547 0.414065 1.99092
5.32968 3.88757 1.37204
4.48173 3.27776 0.00959499
2.4946 3.31824 1.33753
4.32723 1.02982 0.746833
1.07191 1.62619 -0.0143028
0.302001 1.45005 0.666022
5.47111 1.96338 0.157408
1.07849 3.08284 1.1568
1.50315 0.561428 2.00481
4.31849 0.312379 0.870302
0.398289 1.60514 -0.00208451
0.336824 0.00541785 1.50002
5.69388 2.55579 0.588153
0.617504 1.96472 1.99811
5.2938 3.16196 0.0159431
2.63756 0.935907 -0.00976458
4.10813 0.00598128 0.400766
2.89546 -0.0210086 1.13792
3.48897 5.91576e-06 0.0863288
1.44887 0.817587 0.010832
3.59275 3.53095 2.00792
2.42089 1.37522 -0.00234652
5.61354 3.04379 2.00096
3.76547 1.7979 2.00446
3.09972 -0.0180218 1.90444
4.52017 3.12722 0.0105879
4.15387 -0.00613901 1.04846
4.51462 3.71552 0.586361
5.44321 3.87575 2.00984
1.70216 -0.0311744 1.73111
0.294946 1.95239 0.453542
0.260464 2.88109 1.02351
0.86258 3.04266 1.47702
5.27775 1.54363 0.824886
4.30104 1.43766 1.03318
3.5159 3.53625 0.612258
5.46721 1.98428 1.99046
6.03307 3.46573 1.38057
0.291329 1.62801 1.80897
2.20371 3.24572 1.98914
0.329948 0.162814 1.13636
4.83956 3.80583 0.712246
4.84641 2.53579 -0.00122961
1.99087 1.03642 2.00307
2.82076 3.26804 -0.0113384
4.46834 3.04069 2.00894
0.791453 -0.0574603 1.78466
5.536 2.18384 1.00557
0.307449 1.74353 -0.00265767
1.70875 -0.041209 1.31031
5.02194 3.66211 1.99621
0.30233 1.94365 0.0618808
0.30422 1.44479 1.51507
2.04136 2.78061 -0.00450264
1.45875 3.12107 2.00611
1.50939 -0.0482863 1.37865
0.35561 1.35654 1.99119
3.64193 -0.00573744 0.349351
3.16679 0.54135 -0.00220342
2.13413 3.29507 0.543425
0.285392 2.46527 1.7061
4.98083 1.53298 0.193443
5.72899 2.63011 1.36708
2.10567 0.247867 0.00234178
5.57547 2.42016 0.00568672
5.63062 3.49303 -0.0008495
1.49057 -0.0525903 0.810323
5.7517 3.96069 0.0965637
3.95382 3.60915 1.24824
0.324913 0.0156411 1.05817
5.55597 2.19369 0.672584
5.72119 3.93811 0.401621
5.63959 2.40553 0.772
5.29111 2.4796 2.02313
1.71875 0.200994 2.01023
0.306225 1.14117 1.39708
4.56991 1.53242 2.00563
3.00179 3.43034 1.15035
0.672091 2.03757 -0.0044757
4.324 0.584215 0.420495
2.90263 3.42047 1.19028
0.319918 0.848894 0.568793
5.8518 3.01886 1.45206
0.610938 -0.0733171 1.48621
1.77102 0.139038 0.0082249
2.54813 -0.052256 0.000639826
2.4149 3.33773 1.70746
3.95348 3.6406 0.703725
3.43841 -0.000576258 0.968453
0.333168 0.515577 0.00195257
0.331631 0.243061 0.325458
6.15911 3.74591 0.250066
0.333662 0.0856805 1.8988
6.10473 3.6578 1.93374
5.22592 2.38919 1.99612
5.78893 3.95978 0.0930683
4.99907 3.82166 0.377739
5.99812 3.99769 1.78646
3.49898 0.0112669 1.01197
5.40015 1.7456 0.84247
3.07006 1.07081 1.99957
0.338839 0.102499 0.746452
5.72222 3.95268 -0.00855653
0.318031 0.868965 1.2664
5.84807 3.99309 1.60301
4.63884 3.76982 0.214065
2.46213 3.35481 0.48702
1.90955 0.486211 0.00991572
5.08123 3.83103 0.903116
4.28943 3.68223 1.89922
6.20644 4.03276 0.779263
3.98465 2.46931 0.00510168
2.17521 3.05608 2.00846
4.82653 2.83675 0.0119872
5.91448 3.33675 0.0097792
0.321525 0.0139581 1.73295
2.87194 2.1157 2.00462
6.03027 4.01622 0.462917
5.75189 2.75083 1.52127
0.321102 1.17638 0.623488
5.5756 3.93305 1.68814
3.03746 1.25553 1.98612
3.08621 2.28729 2.00141
5.79339 3.97511 1.67113
3.62106 1.0959 0.0137151
6.00901 3.37715 0.0876671
3.97685 3.62068 0.861315
1.69472 3.19866 1.89697
1.57338 2.54102 -0.00221044
5.38186 1.69124 0.482542
3.69896 2.70983 2.00824
2.71596 -0.0238651 1.33507
0.876192 -0.0391333 1.29354
2.83416 3.36784 2.01811
2.66064 3.17163 -0.00250068
1.26126 3.13223 1.9504
1.07531 3.08312 1.79603
3.58654 -0.00269552 1.60501
0.271869 2.51708 1.54999
3.76471 3.14827 1.99982
1.13145 1.47334 -0.00644866
2.64899 3.36213 1.36208
2.72092 -0.0105164 1.89179
2.266 2.27109 1.99247
5.92895 3.20946 1.43378
3.70557 2.46085 2.00792
3.72032 1.62019 1.99237
0.540274 2.97826 1.20212
0.317413 1.30895 0.423087
1.89143 3.24205 0.454128
0.377321 1.00754 0.00570954
0.332661 0.571631 0.894226
1.14779 -0.0157122 1.98539
0.336508 0.842061 -0.0195828
0.612626 2.99281 0.952357
5.7062 2.61552 1.6494
3.31473 1.8035 2.00942
0.659136 0.303959 -0.00284708
3.04727 3.45007 0.150065
3.64697 0.000369295 0.850803
4.96484 2.69074 2.00404
5.86468 3.97866 1.04988
2.12845 3.25529 -0.0244822
3.07881 3.46342 1.80139
0.59148 2.79803 1.97963
3.24311 0.665021 2.00101
0.300741 0.775304 0.6717
1.10795 3.10132 1.25363
1.02946 2.08493 1.98556
4.06914 3.64384 0.692682
3.10841 3.46702 1.70397
4.31384 1.10877 1.8534
4.41604 3.72333 0.996936
1.82315 3.21032 0.000689134
0.728497 -0.0374598 0.00660239
3.41826 -0.00605588 1.91643
2.80044 1.22229 0.0115211
0.729374 1.23805 1.99448
5.50149 3.74203 0.0123066
3.8322 1.57842 1.9963
4.33899 0.405268 0.807447
2.01276 1.38706 1.98531
1.86478 3.21475 1.33788
1.85312 0.838971 1.9967
1.50468 0.754351 0.00680444
2.55393 0.833931 2.01318
1.96742 -0.0407297 0.18014
4.55822 2.10219 -0.0121816
2.19103 1.35332 -0.00730875
2.43683 -0.0344425 0.308919
1.53786 -0.0455794 0.725858
5.85053 2.99121 0.266902
2.92383 0.770972 1.98918
4.83416 2.27964 0.0144655
1.0743 2.18692 1.99761
3.16449 0.229331 2.00548
0.298181 1.63034 0.0567722
2.92661 3.20204 -0.00280051
3.95531 1.37169 2.00558
5.65245 3.92607 1.0325
1.0223 3.0866 0.618799
4.23215 3.67259 1.46793
5.38543 3.89768 0.703013
6.04531 3.48695 0.279533
5.57423 2.32579 1.33662
4.40765 3.71625 1.07404
2.75288 0.619325 2.00325
6.02184 3.77823 2.01825
4.07822 0.351412 2.01942
5.31597 1.5759 0.280813
3.95704 2.94152 0.00413169
3.45144 3.43987 -0.0044376
4.31637 0.553647 1.50765
0.331466 0.167916 1.43877
1.52229 3.12467 0.00683311
4.82794 2.31728 2.02021
5.29196 3.28006 2.00741
1.30313 3.1326 0.806798
5.23504 1.52017 1.94575
2.36862 1.19652 1.99551
5.0281 3.82938 1.63261
0.331682 -0.00617452 0.54763
5.91975 3.16567 1.6936
1.19396 0.730054 2.01578
5.4432 1.91617 0.448474
4.03516 3.62879 0.993654
0.547766 2.97547 0.296681
4.98209 3.82357 1.56951
4.31475 0.714761 0.297149
0.325947 -0.0606207 1.9195
0.471847 -0.0801948 0.455807
2.05896 2.67528 1.98256
1.33891 2.40735 -0.00142372
0.299548 2.42192 0.821977
2.10349 3.2762 0.46485
5.41691 3.90021 1.58321
1.82632 3.0664 -0.00551669
3.1828 2.66561 1.9851
0.297843 1.89615 0.262023
4.70713 2.67674 0.0126179
5.49188 2.06354 0.94095
6.16615 4.03167 1.21598
2.57519 3.37053 0.57939
3.63564 -0.00391941 1.45913
5.0545 3.82861 0.131739
3.5474 1.02705 2.00464
4.03229 1.45781 0.0110722
2.72465 2.88484 1.9945
2.84777 -0.0293983 1.12243
4.42884 2.54463 2.01082
0.578984 1.36876 2.00421
5.46539 3.92152 0.162781
6.24123 3.99748 1.83581
5.47345 2.00871 1.28647
3.07532 1.65543 0.0190541
0.275903 2.70621 1.00533
2.48144 -0.0174685 0.672516
2.75498 2.78162 -0.0129111
5.92943 3.21949 0.700034
3.88901 3.60735 1.63339
4.63342 2.60032 1.9958
2.05902 1.92723 1.99776
2.29997 2.82203 2.00311
3.89276 2.85391 0.0122273
3.77143 3.57936 0.434907
0.30962 1.93309 0.360467
0.76311 -0.0496937 1.01027
4.31653 0.721976 0.703927
0.274329 2.64045 1.17876
1.05068 2.47917 0.00763892
4.73875 1.64076 2.01013
2.23289 -0.0329875 0.891366
0.428243 2.73432 -0.0229591
5.70968 3.93599 0.316244
2.58173 0.938664 -0.0158003
3.0763 3.45104 0.853384
1.94897 2.92532 1.98952
5.49584 2.02793 1.96581
2.07906 3.26818 0.502437
3.93636 0.00811042 1.46911
0.715446 0.34304 0.00894208
3.74365 1.0888 0.0126979
5.00796 1.5393 0.905555
1.41815 3.17169 0.801419
3.41734 3.50815 0.291346
1.54915 0.814429 2.00296
4.33424 0.331831 0.514938
2.90987 2.79638 0.0188289
3.68228 3.56816 0.100929
1.22691 0.120088 1.99495
5.58331 3.45034 2.00794
2.92017 2.55399 -0.0026595
6.26612 4.05299 0.894707
5.22634 3.85148 0.514665
1.59052 2.23486 1.98873
3.76643 1.47261 2.00561
3.49894 2.38259 0.00389275
2.61311 3.37431 0.0952976
1.28984 2.33601 -0.00274323
0.447498 2.68979 -0.0123975
4.33144 0.884477 0.542718
4.56393 1.51051 1.96185
2.66817 2.82655 1.98871
4.78461 1.51374 1.04377
3.95299 -0.00183575 0.924307
0.558898 -0.0720402 1.37957
3.1837 3.35858 2.00102
2.03596 1.58542 -0.0169103
0.481723 0.178006 -0.00865406
2.64541 3.37555 1.59315
5.89887 3.11129 0.981206
4.84052 1.51983 0.0465072
0.264787 2.33281 1.21207
1.50949 2.49126 1.98283
2.0212 3.00017 0.0135789
1.07521 2.27947 2.00026
1.30455 2.40205 0.00388746
2.45553 1.65043 0.00212577
0.684833 1.44763 0.0048068
2.8091 2.04932 2.00607
4.65974 3.75262 1.90592
3.36887 -0.0213163 0.338817
3.31762 3.50533 0.159953
1.30466 2.58301 -0.0149056
6.20917 3.92347 0.00605854
4.32303 0.172173 1.86002
2.88908 2.06103 0.000192821
2.24942 0.830114 1.99112
1.36478 2.59743 1.98529
2.63598 3.3645 1.71996
5.89329 3.10643 1.89602
2.90613 2.53871 2.00429
5.46337 2.0757 0.0124379
4.33462 0.243753 0.155174
0.331724 0.308553 1.59927
3.49971 3.5346 1.84246
6.15789 3.79791 1.12581
1.22468 -0.0481536 1.99257
4.30789 0.750249 0.355678
4.49564 3.48695 1.99841
2.46397 0.869402 -0.00605863
5.003 2.86705 0.00816195
5.93163 3.22947 1.78324
0.298653 1.0864 1.6652
0.799334 -0.0696872 0.17988
3.71014 2.29955 0.0164586
3.55372 0.794392 -0.00350678
5.36384 1.67681 2.00614
1.73156 3.20869 0.207387
4.31999 1.11299 1.5559
1.10851 0.867176 2.0022
5.38452 2.03219 0.00737858
3.94114 0.703568 2.00156
0.30951 0.552714 0.192517
4.30048 0.927101 0.745307
2.6081 0.836889 0.0257811
3.80593 1.97838 0.0114496
0.302835 1.6958 1.69486
3.71822 -0.00955305 0.0428484
1.50585 0.918125 1.9993
4.3046 1.46747 1.84242
1.48884 2.50867 -0.00699736
0.667331 2.6525 1.98541
4.00285 2.16108 2.00903
1.49816 1.20493 1.97223
1.00884 1.0421 -0.00351928
5.23625 3.87776 0.204901
0.824529 1.7223 0.000531375
5.77486 3.02492 0.00726447
3.31788 1.96619 1.995
3.26444 2.25872 1.99147
5.53398 2.15955 1.52429
5.72527 2.65022 1.10623
1.23614 -0.0443375 1.4845
3.82813 0.575825 0.0151938
1.34612 2.50002 -0.00618361
4.75423 1.97433 1.99599
4.33579 0.00479585 1.2097
0.330441 0.271731 1.37099
4.30873 1.86536 0.00718571
4.30016 1.21965 1.91208
2.73873 -0.00596878 0.753497
6.0392 3.71979 -0.0011422
3.24911 0.631909 0.0027407
0.297806 1.66499 0.775517
5.2162 1.53447 0.201791
1.43214 2.61614 2.01025
4.33412 0.123601 1.46738
4.37273 2.44224 1.98915
4.1269 2.56652 2.00745
4.88393 1.5435 0.366261
1.93888 0.347034 1.99162
4.88396 3.09465 2.00811
4.89589 3.76452 -0.00223458
4.55474 3.72555 1.93338
6.22025 3.97392 1.68809
3.00417 0.811073 -0.00354522
3.76643 3.07706 0.00658071
0.424848 0.299825 0.0159577
1.41868 -0.0503234 1.73897
3.53391 1.16791 2.00217
4.96907 1.89532 1.99882
2.98041 0.00235073 1.79053
1.47689 2.20088 -0.0201246
5.73275 3.9517 1.25263
5.86653 3.06134 1.66541
6.0146 3.4276 1.43509
2.74001 -0.0104118 0.747965
3.77861 1.65437 2.00304
0.698197 2.85338 1.99651
3.0506 1.88243 -0.0100957
2.88735 -0.0195289 1.12231
4.00928 2.52144 2.01215
3.36335 3.07716 0.00724018
4.48262 3.69762 1.8725
3.87841 -0.00149453 1.77528
4.14249 3.63217 1.97843
3.72697 0.010431 0.983518
3.05535 -0.0104723 0.714727
4.31548 1.2991 0.859198
1.16397 3.09419 1.65957
2.74202 2.51279 2.0055
4.32531 0.823372 0.71966
4.81244 1.52741 0.176575
1.06602 0.602076 -0.0163482
1.47869 3.16168 0.397624
3.99231 3.62397 0.832783
3.6026 0.00250153 1.93517
0.320752 2.03993 0.585108
3.34679 3.50881 1.67752
2.97169 -0.00172909 1.79474
2.42248 3.3375 0.147247
5.81009 2.90595 1.24636
4.54552 1.53025 1.44936
4.50022 2.84096 2.01106
0.774699 0.555319 0.00734626
4.63361 3.24034 2.01936
1.93767 2.88117 2.01236
4.05096 0.633289 2.00981
4.10292 2.78384 2.00846
0.299037 1.26358 0.322198
0.764977 -0.0523989 1.76413
1.53357 0.706108 -0.00365134
3.14391 3.35307 1.99597
5.77886 3.95485 1.59547
3.08367 0.347978 -0.00539632
5.04341 1.53857 0.4598
3.57844 1.58737 1.98856
5.59804 3.93837 0.739224
3.76208 0.680768 -0.00374877
0.796708 3.03038 1.54935
3.74555 1.18768 1.97675
6.01152 3.97161 0.0121057
4.12289 2.47751 -0.00787851
1.8389 -0.0530614 1.92738
5.41696 3.90355 1.05899
2.50388 -0.0267922 0.927848
1.69858 0.705892 -0.00469854
1.11272 -0.0541384 0.467744
1.97507 -0.0332377 0.272103
6.02266 3.41343 1.1397
3.98623 0.880655 0.00745842
3.96864 3.63339 1.0736
3.7285 3.57458 1.76306
0.342997 0.0395812 1.0996
4.47642 3.71584 0.398655
5.9749 3.36525 1.60481
1.04282 3.08875 0.203933
5.13251 1.54537 0.50535
5.31502 1.58786 1.75541
5.68684 2.55386 0.0224298
1.34788 1.40881 -0.0121682
1.82278 3.23018 0.419278
3.4086 3.16146 -0.00362976
1.54669 2.04345 1.9945
4.29778 1.28685 1.58272
0.601089 0.328525 0.0109283
0.285582 2.43422 1.68943
3.04571 2.32594 1.99404
3.28449 1.07499 1.98073
1.44488 -0.058639 0.16951
1.99961 3.12637 -0.00475729
0.311888 0.932346 0.188586
5.76097 2.72469 1.08067
3.84972 0.00859278 0.774301
0.480367 -0.0651223 0.754519
3.89765 2.30107 2.00839
4.51104 1.51282 0.484133
0.303315 1.27688 1.46949
2.1433 3.28984 1.85165
2.97889 1.75139 0.0111857
2.17567 0.00539748 0.00453126
1.5541 1.13502 2.00129
0.299771 2.08029 1.32912
2.44214 2.8931 1.99159
4.31425 0.593489 1.80533
5.44384 3.89346 0.0978838
0.403771 1.39607 1.99512
3.44782 2.65179 2.01487
4.32882 1.52573 1.70915
0.284384 1.96845 1.5262
5.81621 3.20449 0.0198663
3.31457 1.14595 0.00679974
2.8195 -0.0231215 0.637892
0.334658 0.758864 0.180985
1.5186 -0.0294439 0.0898059
4.35372 1.51114 0.714549
6.08305 3.56514 0.2185
1.48721 -0.0448172 0.553006
3.76437 0.470911 1.99765
2.50301 -0.0323594 1.73139
0.558267 2.98074 0.115813
5.63487 3.41664 2.01638
1.97862 -0.00621949 1.98806
4.36329 1.51959 1.62704
3.97242 0.00866315 1.11376
3.9079 0.00255576 0.43498
4.57591 3.28424 2.00906
4.73647 3.77288 1.68965
1.32486 3.11757 1.49702
0.291669 0.73748 1.17792
2.81621 1.71084 0.00051631
2.73465 0.00135641 1.07288
3.19338 1.4887 -0.0080398
2.55643 -0.0346222 1.0151
4.77725 1.51964 0.472382
6.03941 3.45464 0.595252
0.673084 1.81124 -0.00979273
4.3183 1.42065 1.12677
2.29732 -0.0191305 0.816053
0.294519 1.50883 1.4117
5.30553 1.57359 1.97361
2.27926 0.94972 -0.00446965
0.314851 1.05279 0.396931
3.33368 3.51044 0.0260616
2.26954 2.57262 0.000132203
4.32193 1.33711 0.0393929
0.288487 2.16243 0.375772
6.13336 4.04516 1.11242
2.89363 2.79649 1.99705
0.286423 2.20509 1.24677
3.68783 1.5664 -0.00834064
5.81939 2.95615 0.68325
5.55394 2.22513 1.86471
0.571127 -0.0835364 1.4129
4.29929 1.36646 1.46907
3.79359 1.59277 2.00184
5.43213 2.04671 2.00975
1.59033 -0.0496837 1.57373
1.09777 2.45944 1.98676
5.00388 1.84628 2.01212
1.12318 0.834556 0.0108643
4.31461 0.529386 2.0035
5.25147 3.86546 1.16911
4.34388 0.113423 1.48022
0.973128 1.75824 -0.0116575
4.35348 3.69629 1.35635
3.18959 0.0182856 0.0166797
2.93855 -0.00317295 0.282436
4.3323 2.88236 0.00788346
1.4487 0.408979 2.00376
2.9294 -0.0241589 1.80069
2.07832 3.2733 1.05802
5.79394 3.41395 0.0114505
4.35532 0.193076 1.51173
3.30425 0.527197 2.00627
0.288057 2.05212 1.24131
2.21537 0.191632 -0.0176022
4.31181 1.20045 1.3106
3.42258 0.149627 -0.0129333
4.94649 3.80225 0.611942
2.57527 -0.0134424 0.879295
5.67338 3.73831 2.01348
4.94997 3.80785 1.38263
1.05813 2.1873 2.00645
2.36002 0.139053 1.99969
0.978163 0.752246 -0.0167205
2.74743 0.833594 -0.0156031
4.61796 2.25498 -0.00669748
5.79677 2.86768 1.15744
0.442808 1.04779 -0.0115303
4.0778 1.69662 0.000483423
2.23966 3.30082 0.353917
1.8135 3.21359 1.70607
5.21037 1.93509 0.0129604
5.30521 2.14269 2.01664
3.60848 0.14269 1.99515
4.21909 0.0539366 0.00246327
2.51127 3.36101 0.0606959
5.63995 3.92894 0.281427
3.85146 0.234464 0.00211602
5.33442 1.64395 0.811317
3.8195 2.94264 2.01148
1.31175 3.1221 1.17103
5.95087 3.22121 0.254052
0.329171 0.397863 0.642115
2.09043 -0.0462745 1.69863
4.72794 1.54714 1.72092
0.571572 2.97078 0.962305
2.335 2.28952 2.007
1.47274 2.44852 1.9957
3.5703 0.0146366 1.38241
5.27264 1.52859 1.99777
2.8009 0.70193 0.0134038
2.45265 -0.0264216 0.879843
1.29854 1.80981 0.003341
2.60741 2.00488 -0.00438932
1.01461 2.08603 -0.00101992
5.55695 2.1728 1.67674
1.82111 0.264688 2.00326
5.55219 3.46139 0.0145923
2.94491 -0.0123765 0.897967
5.88088 3.16854 0.0269553
0.278494 2.58175 0.207
3.39428 2.90308 1.99147
2.3367 -0.0343611 0.732249
4.31041 3.67505 0.570927
5.45062 2.10681 -0.00282539
3.81179 0.00138703 0.24966
5.41719 2.54778 2.01245
0.659269 3.00529 0.964137
5.15397 3.84392 0.538762
0.910738 2.11092 0.0116858
1.92229 -0.0261077 0.520422
2.15719 3.30003 1.24416
5.57726 3.91989 0.0533572
6.09206 3.62053 1.49845
2.49848 0.650551 1.99002
1.99263 2.70444 -0.00187603
1.71344 3.19743 1.07616
0.460417 1.87511 -0.0321388
1.24423 1.16009 0.00315666
3.88774 0.737424 0.00755167
1.64938 -0.0562664 1.10466
0.280404 2.43153 1.23776
0.702206 2.30128 1.99578
5.29499 2.15446 0.00514537
3.04481 0.793252 2.00657
4.11669 2.70084 1.9904
2.53514 0.759001 2.0014
4.27477 0.0474565 -0.00310366
1.89754 0.8361 1.99896
0.462679 0.0581283 2.01276
0.305491 1.35418 0.272969
4.16271 2.62677 0.000544041
5.43225 1.88907 0.192681
1.6606 3.00003 1.99684
3.18526 2.20584 2.00705
3.84753 0.332209 0.000540107
1.69292 2.60092 0.00338206
1.82299 -0.0404186 0.857245
0.575714 2.99335 1.38118
4.19901 2.29014 2.01311
2.3202 2.25718 2.01529
0.287581 2.71538 0.180888
1.09729 0.127554 1.99457
2.70845 3.3897 0.95082
1.63621 0.281586 1.98091
4.3182 1.1514 1.98775
2.87588 -0.0153671 0.364645
5.9134 3.99282 1.39552
4.8902 3.71176 0.0144665
5.96269 3.25821 0.12435
1.88214 -0.0486546 1.93858
0.873798 0.694115 0.00882837
5.37036 1.91089 2.0027
3.88709 0.758515 2.01461
5.94137 3.25534 1.4768
4.32459 0.298839 1.55975
0.397209 2.3174 -0.015632
0.314061 0.28302 0.514035
2.31781 1.62537 2.00116
1.35893 -0.0418161 0.544293
5.05651 1.5139 0.22717
2.58941 3.37063 1.25205
5.83098 3.25488 2.00904
0.323361 0.235952 0.764414
4.05242 3.64954 1.68756
5.75445 2.75521 1.08875
6.05379 3.56321 0.777215
3.8252 3.60193 1.74638
0.309817 0.985333 1.97888
0.566398 2.76788 -0.00334525
3.20862 2.02723 0.00296879
5.75156 2.778 0.177994
1.05281 -0.0426413 1.28453
1.2088 -0.0495198 1.40618
0.913507 3.04682 1.93812
1.56761 0.0399171 2.01595
2.31185 -0.0238002 1.05504
1.65136 -0.0402135 0.0858291
0.616221 2.48001 -0.00934604
1.64947 3.17974 0.720219
4.93984 3.4197 2.00511
5.00142 1.64165 1.98936
0.630123 -0.0521433 1.68068
4.12517 3.63759 0.707944
2.39383 2.37083 -0.00994
2.70424 0.318038 2.01559
0.53132 1.64846 2.00383
1.13267 2.78777 -0.0115544
4.29717 1.43692 0.687012
2.88687 3.40469 1.51781
4.7627 1.65062 0.00114259
2.70693 1.88451 -0.00051327
5.32643 2.92263 -0.0131152
0.394848 1.38075 -0.00643268
3.43594 3.25535 0.00635891
2.90338 0.573033 -0.00999105
0.257026 2.86101 0.896616
5.3938 1.81128 1.18268
0.286827 2.44802 0.57886
3.42278 0.484388 1.99253
2.03284 -0.0236985 1.5266
1.20201 -0.0623781 1.21183
2.57868 0.972629 -0.00961055
4.32202 2.56688 0.0279297
5.29971 1.52054 1.30053
4.63953 3.73553 0.637383
5.58222 3.92739 0.96805
0.393789 1.19959 1.97633
0.529056 2.99442 1.07444
1.39943 -0.0291231 1.30892
1.47164 0.197329 1.98722
5.03825 3.82753 0.858944
0.949902 1.19225 2.01606
0.325552 0.971858 0.406185
0.329132 0.602562 0.417499
4.3139 1.45563 0.895713
5.40685 1.84073 1.20556
0.93908 1.24338 0.00580102
3.98947 0.00511581 0.122413
0.330877 -0.0426802 0.3983
5.66443 2.46766 0.352422
1.23903 1.08826 1.9901
4.93886 3.80258 1.08703
4.02667 0.00831217 0.7422
1.67094 2.02098 2.00359
4.26005 3.70859 0.687889
3.65765 3.56557 0.610703
0.258615 2.77849 0.842923
0.31648 0.529669 1.10016
6.00697 4.00896 0.888977
4.13259 2.92796 1.99928
3.34354 -0.0100479 1.32635
2.37545 3.22497 2.00261
3.84973 0.907143 -0.00331645
5.55393 2.49146 0.0039935
2.56629 1.30912 1.99022
3.07428 1.01978 0.00432202
6.07391 3.59393 0.353363
4.97642 1.5048 0.0256017
1.47441 1.74753 -0.0111747
4.64824 1.91259 2.01402
6.06149 3.52819 0.387402
4.33222 0.0497203 0.282698
2.3391 2.59149 1.97683
5.05182 2.98147 1.99449
0.429297 1.22238 0.0012293
2.26697 -0.026212 0.0126963
2.79364 1.09109 0.0111693
0.334483 0.25591 1.00922
2.38431 1.90546 1.99268
1.64094 0.701005 1.99693
4.43803 1.50934 1.63162
0.294576 2.88207 0.372407
4.00239 3.64057 0.17414
4.69953 3.76134 0.480431
4.83494 2.39352 1.99642
4.3109 0.279431 1.58048
4.7678 1.52844 0.0844645
1.83133 -0.0353806 0.834811
0.322842 0.179407 1.74555
1.17077 3.11884 1.8408
2.25435 -0.0303578 1.62709
0.534006 0.52935 0.00637889
3.34501 3.51017 0.515642
4.08538 3.64923 1.56384
0.326814 0.510062 0.629033
2.14967 2.84562 0.00342025
1.64007 1.88261 2.00134
1.09949 2.1232 1.9916
1.84536 -0.0637262 1.47927
3.46558 0.399306 1.99584
1.79413 1.81966 -0.016441
3.74527 0.210902 2.00773
6.08215 3.59658 0.343597
1.60966 -0.0323541 0.301857
3.21768 -0.021686 0.476578
3.42816 2.36527 2.0215
0.293144 1.86619 0.621948
1.80677 -0.0035356 1.99798
0.93625 -0.0577375 0.55263
3.38288 1.64258 2.00461
1.25059 -0.0419482 1.25232
3.52258 3.54912 1.14659
5.88514 3.99646 2.0189
1.63699 2.19336 1.99491
2.3427 3.32508 0.997793
1.92117 1.83286 0.0124323
1.38176 3.0989 -0.00871097
1.08684 -0.0566459 0.277121
0.582458 2.06255 1.99552
5.75217 3.97382 1.95047
0.296769 1.36922 0.218633
1.71336 1.70824 1.99496
1.70027 2.71702 -0.00474122
4.3287 0.526942 1.62573
0.963524 0.824153 -0.00710884
3.96739 3.53168 2.01182
0.289328 2.00683 0.790416
3.06805 0.258507 -0.00874181
5.22527 3.85529 0.380104
1.30131 1.69473 -0.0189296
1.06989 -0.042753 0.797905
5.63926 2.40843 0.665105
5.54015 3.91009 0.548409
3.1282 3.41392 -0.0025824
3.57147 0.00914112 0.377898
5.37091 2.58374 0.00664422
4.3284 0.434297 0.368582
0.705497 0.758852 -0.00876114
5.51182 2.09171 0.114469
0.313093 1.58293 1.16687
5.6345 2.8607 0.00796667
4.28365 3.01622 1.99894
1.06317 2.70157 1.9893
3.28861 0.226933 0.00112508
2.53298 0.093184 -0.0173624
3.95781 3.15121 1.9852
5.80671 3.97768 1.22698
1.18637 0.345623 0.00232467
0.322839 2.7307 1.98343
2.80805 0.14858 2.00218
1.94049 1.16298 0.00263903
1.24669 3.12583 1.18994
2.53638 -0.0292827 1.26623
4.30316 1.40365 1.94408
2.52086 3.35416 1.50282
0.316832 1.04298 1.03231
4.30375 1.19824 0.550956
0.318069 1.07058 0.372008
4.06528 3.33119 0.00858042
1.15658 2.71339 0.00388408
2.24438 -0.0344991 1.56296
0.288093 1.67345 1.33183
0.650663 3.00296 1.71243
4.8088 2.92905 2.00435
6.10371 4.02504 0.668131
0.276722 2.59242 0.699934
4.30955 0.90698 1.98143
6.12477 3.73165 0.648663
2.80229 1.25877 -0.00794326
1.30729 3.13328 0.4448
0.33296 0.138843 1.30759
4.09233 2.77524 0.00246277
5.60797 3.6378 -0.000572339
1.3854 1.13759 1.99269
5.33437 1.6241 0.519905
4.51554 1.50775 0.388411
4.8451 2.15244 2.01294
0.979426 -0.0590523 0.0229894
1.42634 0.273191 1.98256
1.13773 0.180196 0.0169069
4.33438 0.0753344 1.60837
6.19353 3.87798 0.609188
0.55317 2.78445 1.98511
4.06851 2.21925 0.007881
4.33398 0.117211 0.124419
6.09524 3.65229 1.99928
0.33384 0.339943 1.37919
6.13605 3.7548 1.72148
0.317533 0.216568 0.31799
5.94879 3.21814 0.182188
0.278408 2.62709 0.153443
5.23203 2.76471 0.0189478
5.53642 3.91806 1.35074
1.65366 3.18934 0.953459
4.14443 3.68189 1.16517
3.9853 3.38937 0.00607379
3.86465 1.3245 2.00209
3.32751 0.854444 -0.000425592
2.29331 2.85077 0.0102902
0.471341 2.97678 1.65975
0.32674 0.323974 1.97306
5.38966 3.89868 1.11734
0.736667 2.80298 1.99869
5.65912 2.73435 0.0142063
0.441472 -0.0559603 1.50985
1.40236 0.638066 -0.010635
4.19389 0.0155157 0.175029
0.657331 0.221486 2.00443
0.309859 0.0798558 1.73954
2.18752 2.54428 2.00963
4.42177 3.69753 1.6532
2.02975 1.5707 -0.00925268
6.17095 3.87534 0.542646
5.80572 2.88112 -0.00422797
5.14633 3.49133 2.00017
0.348704 0.0355523 0.21296
0.287171 2.16894 1.39019
1.78922 0.708578 -0.00507353
1.24404 3.12664 1.1467
6.09511 3.64671 1.18695
3.40988 3.08707 0.00233023
4.2363 1.66693 2.01164
0.314898 0.603968 1.28742
