# .PCD v0.7 - Point Cloud Data file format
VERSION 0.7
FIELDS x y z
SIZE 4 4 4
TYPE F F F
COUNT 1 1 1
WIDTH 232
HEIGHT 1
VIEWPOINT 0 0 0 1 0 0 0
POINTS 232
DATA ascii
0.29818109 1.6303374 0.056772232
0.3384248 0.053405926 0.060916096
0.30232969 1.9436461 0.061880827
0.33948117 0.052951798 0.088310152
0.31451315 1.4967997 0.088265151
0.26860318 2.7651329 0.0883798
0.31602201 1.1690857 0.14379638
0.30090481 1.2194287 0.14596996
0.27840832 2.6270885 0.15344331
0.33490652 0.20035401 0.18928531
0.33465761 0.75886375 0.18098542
0.31188774 0.93234634 0.18858573
0.28758088 2.7153807 0.18088788
0.30950996 0.55271357 0.19251689
0.32989314 0.87810457 0.19548163
0.27849403 2.5817537 0.20699996
0.34870374 0.035552278 0.21295977
0.29676941 1.3692225 0.21863294
0.2772257 2.633903 0.2314702
0.33665252 -0.0042259842 0.25458026
0.34174562 0.53136086 0.26151371
0.29784337 1.8961545 0.26202276
0.30549082 1.3541768 0.27296889
0.31774199 0.51919514 0.28342301
0.32070997 0.43179637 0.30698603
0.31753299 0.21656775 0.31799048
0.32542381 0.88142514 0.31778443
0.33733237 0.096982807 0.3249439
0.33163127 0.24306089 0.32545763
0.2990368 1.2635809 0.32219815
0.33410636 0.16338569 0.33634359
0.28293452 2.0592022 0.34540939
0.30318478 0.95687366 0.35016388
0.30961955 1.9330894 0.36046714
0.31806937 1.0705769 0.37200773
0.28848654 2.1624279 0.37577206
0.29277915 2.2699537 0.3731845
0.29457581 2.8820715 0.3724069
0.34539413 0.044731259 0.38452667
0.29311717 2.1579318 0.38353193
0.32434645 0.42807835 0.39028835
0.31485111 1.0527875 0.39693117
0.27460927 2.4823599 0.39285052
0.32555246 0.97185814 0.40618473
0.31677988 1.341913 0.40687132
0.32913208 0.60256207 0.4174993
0.3056103 0.55347717 0.42815012
0.31741315 1.3089528 0.423087
0.26499465 2.6936889 0.42414492
0.30947751 1.705413 0.43975675
0.2949459 1.9523932 0.45354182
0.28338632 2.3351803 0.45589054
0.29825094 1.8105104 0.46159106
0.31760636 0.80565107 0.47165191
0.3204073 0.96260381 0.48540264
0.31406096 0.28301996 0.5140354
0.28989804 2.325676 0.51498264
0.33168152 -0.0061745197 0.54763013
0.28456801 1.8291179 0.54990983
0.30597124 1.2109298 0.55762434
0.31991816 0.84889436 0.56879282
0.28237119 2.3851099 0.57437277
0.28682688 2.4480152 0.57886004
0.32075185 2.0399299 0.58510792
0.30693012 2.2192807 0.58082795
0.30578062 1.4819933 0.59172225
0.28279445 1.4245864 0.60654283
0.32175627 1.2024535 0.61133039
0.32681391 0.5100615 0.62903327
0.3211017 1.1763774 0.62348801
0.29314384 1.8661858 0.62194818
0.30539739 1.6912169 0.63197088
0.27386609 2.6171937 0.63883954
0.32917058 0.39786285 0.64211541
0.2827841 2.3211508 0.64353567
0.31539488 1.7016735 0.65637428
0.30200136 1.4500482 0.66602188
0.3101514 1.8500797 0.66420531
0.30074051 0.7753039 0.67170024
0.27672178 2.5924211 0.69993365
0.28007445 2.7219095 0.69196802
0.32773229 0.022366345 0.70711851
0.3250936 0.2048018 0.70183104
0.31083748 0.36158335 0.71670026
0.28340793 2.8562331 0.71132344
0.28274709 1.8060024 0.72937489
0.30894217 1.8929633 0.72866178
0.28559092 2.5771608 0.7244972
0.33883941 0.10249919 0.74645203
0.32453406 0.022722006 0.75380409
0.32745048 0.35523933 0.75600779
0.32646671 0.91986477 0.7570951
0.27546588 2.6053157 0.75283825
0.32336143 0.23595208 0.76441401
0.33690917 0.52280742 0.7711556
0.2978062 1.6649866 0.77551657
0.28932777 2.0068264 0.79041648
0.32351592 0.083729818 0.80219257
0.31722358 1.4837617 0.80342948
0.29986972 1.931667 0.8163383
0.32146886 1.0580902 0.82945418
0.29954776 2.4219227 0.8219769
0.3137174 1.3013968 0.84968317
0.25861529 2.7784867 0.84292293
0.30004996 0.9720633 0.86584449
0.29660046 1.456656 0.8653177
0.27989781 1.8351675 0.86895859
0.31889474 0.78345931 0.87508678
0.27202383 2.8693042 0.87892699
0.33312789 0.079810023 0.88971734
0.33266124 0.5716309 0.89422619
0.30998906 2.0720377 0.89649236
0.25702614 2.8610086 0.89661622
0.3125577 0.052678078 0.92497313
0.29289395 1.0744671 0.95243382
0.29496175 2.1453085 0.97800684
0.27056712 2.7391138 0.97956896
0.28909439 2.0729408 0.98922765
0.31794336 0.89827645 0.99087965
0.33448318 0.25590956 1.0092244
0.30392256 1.4009569 1.0059698
0.27590272 2.7062058 1.0053273
0.29750887 2.2038913 1.0198255
0.34299093 0.15587938 1.0236386
0.29956836 1.832387 1.0251021
0.31683239 1.0429775 1.0323116
0.31127658 0.69465077 1.043252
0.32491261 0.015641123 1.0581727
0.30859363 0.40000445 1.0587691
0.3118633 1.892471 1.070604
0.27693257 2.485291 1.0756079
0.29510245 0.95434892 1.0890195
0.3429969 0.039581239 1.099605
0.31647962 0.52966917 1.1001567
0.31579435 1.4766071 1.1179639
0.32994759 0.16281441 1.1363579
0.31309348 1.5829338 1.1668653
0.30559793 0.36782467 1.1761721
0.29166892 0.73747975 1.1779166
0.27432939 2.6404505 1.178756
0.30149662 2.4276466 1.203907
0.26478678 2.332808 1.2120677
0.28040352 2.4315281 1.2377579
0.2880573 2.0521235 1.2413138
0.28642288 2.2050891 1.2467675
0.3180308 0.86896467 1.2663976
0.3001875 1.5826907 1.2668723
0.33256164 0.24924517 1.2748605
0.31489775 0.60396802 1.287423
0.28849277 2.803957 1.2909274
0.33295968 0.13884321 1.3075942
0.30985069 1.2964562 1.3166003
0.29977083 2.0802884 1.3291231
0.33034816 0.13007963 1.3357856
0.32554796 0.87992454 1.3336251
0.28809348 1.67345 1.3318264
0.30179334 1.3285757 1.3644098
0.284747 2.5329299 1.3617432
0.2903474 2.6028433 1.3606813
0.33044076 0.2717309 1.3709854
0.33383968 0.33994269 1.3791867
0.28316778 2.0633302 1.3785414
0.2907626 2.8528581 1.3792311
0.28910157 1.3876914 1.3830209
0.30622524 1.1411729 1.3970832
0.28717089 2.1689415 1.3901926
0.31800514 0.6946671 1.4100597
0.29451919 1.5088279 1.4117004
0.32218811 0.80747825 1.420734
0.33146575 0.16791573 1.4387746
0.3289226 0.72613811 1.4563475
0.30331492 1.2768822 1.4694853
0.31857866 0.77145374 1.4919045
0.26724407 2.5876641 1.4976027
0.33682376 0.0054178536 1.5000203
0.31812415 0.18615255 1.5160247
0.3135125 0.52036029 1.5103743
0.30422014 1.4447913 1.5150706
0.27301174 2.6087742 1.5195155
0.28790548 1.903025 1.5228961
0.28438351 1.9684459 1.5261993
0.3166399 0.19919035 1.5391712
0.30858275 1.4885141 1.5373574
0.30423903 0.70439535 1.5486711
0.27186897 2.5170808 1.5499854
0.34161025 0.18791828 1.5524498
0.27059045 2.6395206 1.5509704
0.33639652 0.1587747 1.5625277
0.30191129 2.2152805 1.5672791
0.31404722 0.57826078 1.5765734
0.30242431 2.2907572 1.5713314
0.28942266 2.0623283 1.5897081
0.33172378 0.30855274 1.5992748
0.31235948 0.8430717 1.601876
0.30281648 1.3566154 1.6004614
0.3007091 0.88406169 1.6138668
0.30919144 1.2182593 1.6223085
0.30436972 0.26918659 1.6353579
0.29865265 1.0863955 1.6651994
0.32495511 0.27987835 1.6710987
0.29923138 0.47820026 1.6747295
0.31589642 1.4790119 1.6818054
0.3032575 1.5577861 1.6827112
0.30035725 1.7644736 1.6875793
0.29062411 1.948917 1.6885216
0.28558195 2.4342213 1.6894262
0.30170196 0.68246233 1.6908083
0.32494047 1.1392244 1.6985945
0.30283457 1.6957968 1.6948586
0.30303955 0.7429871 1.7062726
0.28539205 2.4652662 1.7060956
0.29274186 1.8419523 1.7131352
0.31074506 0.5725463 1.720216
0.32152501 0.013958067 1.7329533
0.30985889 0.079855785 1.7395416
0.32284245 0.17940673 1.7455472
0.28806168 1.986662 1.7579821
0.34601384 -0.008358717 1.7698636
0.26935717 1.9912921 1.7788724
0.32327566 1.129781 1.8099499
0.29132855 1.6280149 1.8089728
0.31872714 1.7580892 1.804496
0.32676062 0.098856837 1.8645175
0.32992637 0.24728903 1.8785703
0.29796129 1.3132389 1.8795078
0.32151225 0.29420963 1.8850846
0.29776129 0.86014366 1.8826921
0.33366197 0.0856805 1.8987961
0.31781033 0.94232535 1.8959875
0.29769659 2.3877201 1.8961344
0.3066355 1.5273194 1.9225888
0.32975653 0.083355278 1.9333086
