# .PCD v0.7 - Point Cloud Data file format
VERSION 0.7
FIELDS x y z
SIZE 4 4 4
TYPE F F F
COUNT 1 1 1
WIDTH 358
HEIGHT 1
VIEWPOINT 0 0 0 1 0 0 0
POINTS 358
DATA ascii
0.32866335 -0.037089124 0.0558258
1.2795998 -0.046591058 0.070773363
1.6513596 -0.040213518 0.085829139
1.5185975 -0.029443905 0.089805901
1.9481392 -0.020641088 0.086566776
2.7062123 -0.013391867 0.089525342
3.4889688 5.915761e-06 0.086328834
3.0677958 -0.0077318996 0.097102404
1.8691463 -0.029428095 0.10631078
3.1138301 -0.011429369 0.10253453
3.1788061 -0.0010748655 0.10383174
3.5681937 -0.0025739372 0.10541552
4.0509076 0.01520206 0.11349177
3.989471 0.0051158071 0.1224131
0.451805 -0.074901246 0.13481402
1.4819375 -0.043558069 0.13503909
0.79674649 -0.070516258 0.14705381
1.846909 -0.033223905 0.14725056
3.0294425 -0.0013525784 0.1411193
1.4448761 -0.058639012 0.16950983
2.5328894 -0.022014916 0.16209298
3.007803 -0.024508774 0.16181046
0.79933351 -0.069687225 0.1798799
4.0686746 0.00109227 0.17861512
4.176434 0.0048297197 0.17878896
4.193891 0.015515715 0.17502943
0.34389728 -0.052593008 0.18393829
1.9674184 -0.040729709 0.18014005
3.2047498 -0.022003949 0.187594
3.5388167 -0.004850328 0.18287343
4.2252846 0.018873587 0.18215621
0.99760306 -0.070861638 0.2115618
1.6613127 -0.060902745 0.21537608
2.915679 0.0083732009 0.21082765
2.264411 -0.027551487 0.2391862
0.57132751 -0.053997166 0.2461493
3.8117886 0.0013870299 0.24965969
3.9622793 0.0016430616 0.24817899
2.8622961 -0.017153233 0.25718513
2.9776921 -0.009556219 0.26040837
1.086835 -0.05664587 0.2771211
1.9750741 -0.033237673 0.27210274
1.7524145 -0.046834618 0.28538445
2.9385526 -0.003172949 0.28243634
4.3322177 0.049720302 0.28269786
3.7291429 0.012709349 0.29344255
1.609663 -0.032354116 0.30185658
2.4368298 -0.034442522 0.3089186
2.2750313 -0.017187119 0.30501848
4.2120886 0.0016317964 0.30193281
1.8489456 -0.045150921 0.31828153
3.1544151 -0.019001946 0.31419939
1.8955762 -0.0205919 0.32224119
1.1137266 -0.045321539 0.33740425
3.36887 -0.021316305 0.33881736
3.6419334 -0.0057374388 0.34935123
0.80100888 -0.057674646 0.35049462
3.0983758 -0.012819916 0.35147107
2.8758795 -0.015367076 0.36464489
3.5714717 0.0091411173 0.37789828
0.33087716 -0.042680219 0.39830017
2.5935833 -0.017506823 0.39367032
4.108129 0.0059812814 0.40076649
2.8492563 -0.02166371 0.42680162
0.3132306 -0.030947015 0.43261254
2.0122943 -0.032398328 0.43703246
2.2059362 -0.039145045 0.43589079
3.5192032 0.0065932721 0.4347713
3.9078956 0.0025557578 0.43497956
0.47184682 -0.080194823 0.45580685
0.52823979 -0.065710843 0.46220571
1.1127241 -0.054138385 0.46774375
1.6398157 -0.031194285 0.46376026
0.51496923 -0.044684738 0.47718126
2.2226753 -0.029753506 0.47002804
3.2176828 -0.021686047 0.47657758
4.2670832 -0.003999725 0.4874512
3.8205469 0.0023416132 0.48786277
3.6493754 0.012190074 0.48691809
4.0023055 0.0091805756 0.4942531
1.0864387 -0.048067242 0.50308752
1.0159174 -0.049928136 0.51588207
0.95878255 -0.056580082 0.52455062
1.9222903 -0.026107669 0.5204224
1.9136822 -0.059283234 0.53364199
0.75070786 -0.04668998 0.53798836
3.9208922 0.0051652789 0.53437591
1.3589292 -0.041816145 0.54429346
1.4787599 -0.041917257 0.5416556
0.93625021 -0.057737455 0.55263031
1.4872093 -0.044817202 0.55300599
1.6960597 -0.031219333 0.55508351
3.581305 -0.00013706088 0.56136578
4.0760622 0.011577949 0.56877553
3.5280271 0.0080716014 0.58869827
0.32271922 -0.052845262 0.59541512
1.7066052 -0.033589102 0.59666473
3.775456 -0.0050519407 0.59872711
3.2559946 -0.023987368 0.6082117
2.6434827 -0.03368286 0.61326754
2.9035618 -0.013168678 0.62983692
3.677696 -0.0035867244 0.62585008
1.9136646 -0.031336844 0.63281417
2.1895146 -0.021554768 0.63087445
2.8195 -0.023121536 0.63789177
2.2755368 -0.015968353 0.649804
3.8940597 -0.0085109174 0.64585227
1.5524846 -0.053840853 0.65295452
3.9729509 0.010712758 0.66041642
2.2057745 -0.027202651 0.67127478
2.4814367 -0.017468482 0.67251581
2.8834398 -0.012678444 0.67751884
0.67948896 -0.05798962 0.6920048
0.93883133 -0.055824868 0.69419777
3.0742841 -0.013167217 0.69989556
3.0434246 -0.014280379 0.70279986
3.3159838 -0.0064542294 0.70271724
1.2687596 -0.037883766 0.7123248
3.0553455 -0.010472342 0.71472663
1.5378554 -0.045579433 0.72585833
0.74591821 -0.046618946 0.73374015
2.3367016 -0.034361117 0.73224854
3.4704671 -0.01117301 0.73845977
0.63006169 -0.05051747 0.74083424
2.7400129 -0.010411754 0.74796492
4.0266652 0.0083121657 0.74220014
4.0468564 0.0093182623 0.74213707
0.48036748 -0.065122336 0.7545191
2.7387254 -0.0059687793 0.75349712
2.5036733 -0.021454573 0.76143515
3.8497214 0.0085927844 0.77430058
1.0698926 -0.042753041 0.79790461
2.3894527 -0.0043399036 0.79655552
2.234462 -0.049139649 0.80778766
2.9285529 -0.020166025 0.8021332
4.027123 0.023289099 0.80192828
1.4905747 -0.052590251 0.810323
2.2973239 -0.019130513 0.81605327
2.9465375 -0.0080537498 0.82001865
3.2736816 -0.0045986474 0.82900512
1.6363475 -0.037899844 0.83742511
1.8313273 -0.035380594 0.83481145
0.62978095 -0.071474031 0.84310567
1.8229947 -0.040418647 0.85724533
1.9259872 -0.036948748 0.85375464
2.1478221 -0.017918244 0.85967326
3.6469705 0.00036929548 0.8508029
1.7886051 -0.034300163 0.86497045
2.4526541 -0.026421621 0.87984324
2.5752678 -0.013442427 0.87929535
2.656328 -0.019010082 0.87550414
3.1179202 -0.012210548 0.87636304
2.6342447 -0.0095942467 0.87385309
3.3321199 -0.0044194311 0.87637174
1.0455573 -0.042631157 0.89259648
2.2328889 -0.03298749 0.891366
2.9449084 -0.012376457 0.89796662
3.3321142 -0.0097085387 0.89179385
2.5771234 -0.03081724 0.90372109
0.99774361 -0.057813503 0.91612339
1.4447131 -0.046524502 0.91135979
0.94136906 -0.042477682 0.92986453
2.5038803 -0.026792169 0.92784798
3.9529877 -0.0018357486 0.92430735
1.307659 -0.055998892 0.94898772
0.83328891 -0.076631561 0.95304513
1.2344375 -0.051499844 0.95394742
3.3644061 -0.020151377 0.95753312
3.9720368 0.01378347 0.95206273
2.4058375 -0.026482031 0.96065521
3.4384136 -0.00057625771 0.96845329
3.7269711 0.010431036 0.98351789
0.76311022 -0.049693651 1.0102732
1.6536897 -0.038994141 1.0189801
1.7294137 -0.031098053 1.0121517
2.5564334 -0.034622215 1.0151041
0.32064942 -0.022459969 1.0141441
3.4989777 0.011266947 1.0119725
0.97415257 -0.050448738 1.0487833
4.1538715 -0.0061390102 1.0484555
1.2271006 -0.065457016 1.0583737
2.3118525 -0.023800239 1.0550407
0.64023805 -0.07133057 1.0605398
1.1598109 -0.068242595 1.0705967
2.7346539 0.001356408 1.0728816
1.4365371 -0.033749238 1.0979791
0.402771 -0.055980906 1.103779
0.4733876 -0.054942131 1.105667
1.6493779 -0.056266367 1.1046579
1.8599341 -0.016272455 1.1109899
3.9724174 0.0086631477 1.1137593
2.847769 -0.029398277 1.1224308
2.8873534 -0.01952894 1.1223097
3.0042236 0.0025217831 1.1259922
4.1131883 0.006949991 1.1243606
2.8954637 -0.021008596 1.1379175
3.0316463 -0.0097338259 1.1358645
3.1816905 -0.013864234 1.1471796
0.81094122 -0.064079642 1.1535094
0.99781477 -0.05417759 1.1540517
0.99256921 -0.045941241 1.1562264
3.2033088 -0.013589635 1.1592789
1.3865753 -0.032499552 1.1631947
1.7510413 -0.037233956 1.1683162
2.6467052 -0.01982373 1.1663679
3.3092725 -0.0014079064 1.1647621
1.8826473 -0.021902129 1.1714417
3.8781691 0.01700291 1.1861356
0.67585272 -0.06333974 1.1967856
0.96547651 -0.045356683 1.1906576
0.77712125 -0.044680163 1.2098529
3.2912345 -0.0003400445 1.2045515
4.3357878 0.0047958493 1.2096967
1.2020087 -0.062378056 1.2118315
1.088797 -0.05524639 1.2123123
0.43901867 -0.044609681 1.2168354
1.4823802 -0.040522151 1.2156014
1.564059 -0.036187261 1.2174165
2.9081562 -0.00032036006 1.2265474
1.6291735 -0.038656861 1.2390064
1.2505854 -0.041948184 1.252316
0.70212817 -0.040901192 1.2617909
2.5363784 -0.029282659 1.2662287
3.662353 0.01367417 1.2616611
1.8549807 -0.034312814 1.2750746
0.93551326 -0.064721458 1.2876616
1.0528129 -0.042641342 1.284532
0.87619245 -0.039133251 1.2935362
1.3994281 -0.029123142 1.3089206
1.7087511 -0.04120902 1.3103136
4.026619 -0.0014154315 1.3177873
0.33808541 -0.057856642 1.3220396
1.9507737 -0.034069881 1.3232913
3.3435435 -0.010047883 1.3263465
2.7159636 -0.023865059 1.3350703
4.0159431 0.016011566 1.3455328
4.0832648 0.017609 1.3440773
1.2577901 -0.035612375 1.3577052
3.2854803 0.0032788962 1.364554
0.55889815 -0.0720402 1.3795727
1.5093867 -0.048286274 1.3786541
1.1380856 -0.04728023 1.3817514
3.3764031 -0.01161164 1.3842775
2.9656377 -0.008805424 1.388692
3.5703003 0.014636576 1.3824073
3.8697062 0.0054924488 1.3956045
1.208799 -0.049519777 1.4061813
1.8289703 -0.037998535 1.4071982
0.57112652 -0.083536357 1.4128984
2.1390741 -0.029681519 1.434343
3.7513266 -0.00011438131 1.4319009
2.071228 -0.037871212 1.4494144
4.1529317 0.021031037 1.4493378
3.6356423 -0.0039194077 1.4591298
4.1775546 0.014206201 1.4547936
1.5319272 -0.038639821 1.4639353
3.9363618 0.0081104189 1.4691066
0.42313296 -0.075637199 1.4747847
1.8453598 -0.063726164 1.4792671
0.61093771 -0.073317073 1.4862114
1.2361361 -0.044337466 1.4844995
0.44147205 -0.055960275 1.5098459
2.1266546 -0.022926271 1.5044106
1.8019726 -0.047924854 1.5198004
3.8271058 0.0011447221 1.5149664
1.5558078 -0.049577311 1.5203184
2.0328352 -0.023698509 1.5266012
3.5810077 -0.014868677 1.5292522
3.4019706 -0.009860903 1.5287834
2.0790739 -0.036057666 1.547531
2.6418889 -0.03551013 1.5438935
2.3328304 -0.028918281 1.5469007
3.5932267 -0.016064346 1.5433422
2.4152501 -0.021335632 1.55083
2.7841895 -0.016759843 1.5545251
3.354465 -0.0099792778 1.5505219
3.5709629 -0.0026426315 1.5505506
0.87610233 -0.077990085 1.5690449
2.2443793 -0.034499116 1.5629624
0.92736185 -0.069752 1.5740942
1.5903314 -0.049683653 1.5737264
2.7437789 -0.020433992 1.570648
0.68707854 -0.057630077 1.5881827
1.8778427 -0.026974514 1.5801511
1.4999651 -0.060458213 1.5912911
3.5865448 -0.0026955158 1.6050078
3.8816962 0.00065113604 1.6011066
0.49501652 -0.076770179 1.6133666
0.83784688 -0.063041739 1.6103595
2.2868896 -0.024960965 1.6196146
2.4640057 -0.018428162 1.6179187
3.7375472 0.0018999577 1.6187276
2.2543502 -0.030357838 1.6270916
2.2031949 -0.025879011 1.621225
1.2647967 -0.050303981 1.6314658
0.45983928 -0.053035006 1.6534899
2.0623202 -0.0033986419 1.663483
0.6075626 -0.071686186 1.6764579
0.63012284 -0.052143343 1.6806759
3.5194688 -0.0009303689 1.688677
3.2443161 0.0096298605 1.6892533
2.0904317 -0.046274506 1.6986284
3.7905328 0.0078686476 1.6906247
0.84283066 -0.062061846 1.7098032
1.3895396 -0.042726897 1.7089608
1.5297793 -0.040834919 1.7186142
1.8768735 -0.035524659 1.7167627
2.8687625 -0.036183104 1.727984
1.474046 -0.026397318 1.7269655
3.1067817 -0.0091107488 1.7247403
1.4186795 -0.050323367 1.7389697
1.7021635 -0.031174392 1.7311128
2.5030077 -0.032359362 1.7313876
3.1532609 -0.01692979 1.7419941
3.5466802 -5.7592988e-05 1.7550999
0.76497674 -0.05239895 1.7641281
2.7258582 -0.0014742017 1.7605129
3.8784118 -0.0014945269 1.7752827
0.79145259 -0.057460308 1.784662
2.5870435 -0.036552481 1.78397
1.1027347 -0.068152659 1.7991104
2.9716854 -0.001729086 1.794744
2.9804058 0.0023507327 1.7905275
2.9293985 -0.024158865 1.8006902
0.41569543 -0.050438851 1.818505
2.773978 -0.022849992 1.8176644
2.6406424 -0.011990905 1.8118982
3.9963379 0.0053276569 1.8124812
1.7113837 -0.041922241 1.8219254
1.7264758 -0.0210682 1.8246725
0.86382854 -0.040194802 1.8383801
2.2895732 -0.02584736 1.8375196
1.3232188 -0.059198774 1.8428221
1.1598417 -0.04962609 1.8443389
3.8212755 -0.0087843388 1.8455596
4.1312556 0.019978166 1.8423276
0.40884793 -0.07694196 1.8512006
2.0923066 -0.038396478 1.8524787
3.756058 0.0017782897 1.8524399
0.47075307 -0.0565207 1.8615122
1.804458 -0.040249288 1.8637846
2.4568503 -0.023332104 1.8606977
3.5401781 0.00046183169 1.8821645
2.7209182 -0.01051642 1.891793
0.33749026 -0.032660589 1.9098468
3.0997159 -0.018021792 1.9044442
3.273011 -0.0079792738 1.9057367
0.32594711 -0.060620658 1.9195049
1.8100867 -0.047871359 1.9168253
1.7210958 -0.027938113 1.9120426
3.0297568 -0.0061751902 1.9185987
3.4182553 -0.0060558766 1.91643
1.8388951 -0.053061366 1.9273798
1.7176018 -0.040071808 1.9239683
1.5936123 -0.036819093 1.9294226
4.1408644 -0.0049038976 1.920265
1.8821404 -0.048654608 1.9385827
3.6025984 0.0025015324 1.9351661
