# .PCD v0.7 - Point Cloud Data file format
VERSION 0.7
FIELDS x y z
SIZE 4 4 4
TYPE F F F
COUNT 1 1 1
WIDTH 233
HEIGHT 1
VIEWPOINT 0 0 0 1 0 0 0
POINTS 233
DATA ascii
5.9998426 3.357533 0.076777965
6.0661073 3.5240521 0.07800138
6.0090094 3.3771458 0.087667078
5.9965124 3.3952966 0.087358594
5.5118175 2.0917149 0.11446881
5.9626884 3.2582092 0.12434959
5.9894886 3.3835115 0.12311786
5.9886918 3.3380661 0.14034611
5.471108 1.9633776 0.15740833
5.3935385 1.7687101 0.16264272
5.7678461 2.7377005 0.1688638
5.7515597 2.7780046 0.1779941
5.9487867 3.2181449 0.18218839
5.4322548 1.8890723 0.19268063
5.7090974 2.5755997 0.19693476
6.151968 3.7471495 0.20419499
5.6017032 2.298275 0.21427757
5.672595 2.487258 0.21058011
6.0830483 3.5651383 0.21849993
6.2332129 3.9848361 0.21796224
5.5726099 2.2768888 0.24305573
5.9508729 3.22121 0.25405163
6.1591101 3.7459145 0.25006628
5.8505273 2.9912081 0.26690218
6.0453091 3.4869499 0.27953312
5.3159695 1.5759034 0.28081268
6.1481676 3.7402267 0.2842654
5.866097 3.0096555 0.30835158
5.9366384 3.1819477 0.30538374
6.216166 3.981113 0.30610543
5.6238608 2.3942447 0.31470132
5.7806926 2.7821369 0.31436396
6.0269547 3.4744239 0.31162542
6.1198325 3.7872162 0.31171697
5.4751019 1.9676319 0.33425385
5.6248837 2.3766484 0.34718251
5.8126068 2.8687806 0.34222311
6.0626254 3.5327735 0.34532732
6.0821471 3.5965781 0.34359729
6.0839376 3.6017685 0.34242737
5.6644316 2.4676576 0.35242224
6.0739079 3.5939307 0.35336345
6.0614896 3.5281906 0.38740194
5.2556152 1.5364254 0.39567733
5.7629924 2.7262206 0.39228988
6.1683078 3.7904739 0.4092958
5.6518669 2.4802957 0.41065192
5.7347536 2.6472588 0.43785954
5.4431963 1.9161743 0.44847375
5.3818622 1.6912374 0.48254186
5.858582 3.0293937 0.49579561
5.6366653 2.3980627 0.50245148
6.2120032 3.9749346 0.50371218
5.334372 1.6241037 0.51990491
6.1656599 3.7948747 0.52462435
6.2044878 3.8956442 0.52433974
6.1709499 3.8753381 0.54264623
5.8630848 3.0317082 0.56630915
5.6938806 2.5557876 0.58815277
6.039413 3.4546409 0.5952515
5.7255273 2.6384683 0.6099171
6.1935344 3.8779826 0.6091882
5.3493028 1.6466267 0.61197865
6.0404959 3.4841824 0.61244196
5.2786574 1.5250292 0.62171066
5.3520021 1.6544311 0.64305854
6.1247697 3.7316489 0.64866304
5.5397749 2.1444287 0.65236622
5.6392617 2.4084301 0.6651054
5.9938803 3.3531842 0.66961926
6.1560411 3.803792 0.66747624
5.5559697 2.1936884 0.6725837
5.6600032 2.4976144 0.67976105
5.9148149 3.1538553 0.67384732
5.8193927 2.9561505 0.68324953
5.6794753 2.4979081 0.69207859
5.92943 3.2194915 0.7000345
6.1068897 3.6539869 0.70195043
5.6181307 2.3602901 0.71934617
6.0318146 3.3929825 0.72830218
5.7584243 2.7141995 0.74033922
5.8324723 2.9215798 0.75210863
6.0856361 3.6277838 0.75305033
5.6395931 2.4055295 0.77200001
6.0272374 3.4002023 0.77040225
6.0537939 3.5632148 0.77721483
5.4650207 1.9626571 0.80827057
5.3344235 1.6439506 0.81131732
5.9322543 3.2437901 0.8133626
5.2777472 1.5436292 0.82488561
5.6575155 2.4353008 0.8250705
5.6939836 2.5897818 0.83311796
6.0253663 3.4495687 0.83108115
5.4001465 1.7455976 0.84246981
5.6541953 2.4323387 0.84476519
6.0698471 3.579792 0.84107304
5.8844523 3.0608854 0.85571659
5.5361519 2.1293316 0.9072547
5.8852806 3.0787311 0.92981708
5.3540902 1.6271209 0.93640435
5.5541592 2.2040329 0.93963432
5.759757 2.7004046 0.9313159
5.4213805 1.8387632 0.94764507
5.4918785 2.0635448 0.94095027
5.3850551 1.7069851 0.95332289
5.3316622 1.6144255 0.96916342
5.8487515 2.9890366 0.96205127
6.1742072 3.8252563 0.96539164
5.8988681 3.1112895 0.98120642
5.9845572 3.3350573 0.9812237
6.1504731 3.7337389 0.99704683
5.5360012 2.1838436 1.0055712
6.0491395 3.4992514 1.0112163
5.6045542 2.3404989 1.0280399
5.9720411 3.2841177 1.0541364
5.6424532 2.4513273 1.0674576
5.3136516 1.5720867 1.0739073
5.8221035 2.90449 1.070531
6.1105275 3.6492944 1.0728347
5.6727948 2.5524244 1.0896417
5.7609735 2.7246861 1.0806695
5.7544456 2.7552071 1.0887467
6.0800266 3.5947042 1.0865641
5.8626189 3.029563 1.0950502
5.7252674 2.6502194 1.1062329
5.7491212 2.7200689 1.1096258
6.0698972 3.5844231 1.108591
5.5150142 2.1243653 1.1120708
5.6956797 2.5405498 1.1253041
6.1578898 3.7979121 1.1258082
5.3883114 1.7756253 1.1368852
6.0226598 3.4134269 1.1396977
5.6080308 2.3163795 1.1423016
5.7967715 2.8676829 1.1574432
5.9016676 3.1163425 1.1505392
5.4506726 1.9124266 1.1738887
5.7015409 2.5633593 1.1779861
6.2174444 3.9457712 1.1743659
5.3938041 1.8112823 1.1826769
6.0951109 3.6467056 1.1869489
5.5891485 2.3181891 1.1931136
5.406848 1.8407331 1.205557
5.5909309 2.2736645 1.2063558
6.1790576 3.8600898 1.2016125
5.9268522 3.1486435 1.2197367
5.4248576 1.8641628 1.2219491
5.5639601 2.1921945 1.2219747
5.810091 2.9059467 1.2463551
5.4033699 1.7885605 1.254143
5.4086804 1.8112519 1.2568172
5.3274345 1.625285 1.2824662
5.4734488 2.0087056 1.2864677
5.9000158 3.0887575 1.2816826
6.0020866 3.3626995 1.2860427
5.5626817 2.2580295 1.2972311
6.0495076 3.4979568 1.2998635
5.2997055 1.5205377 1.3005334
5.5645623 2.2368054 1.3025842
6.033195 3.4494352 1.3166903
5.3129287 1.5729195 1.3255812
5.4478593 1.9424859 1.3285995
5.5742302 2.3257852 1.3366188
5.7163477 2.6017075 1.3492023
5.7662063 2.7472911 1.3533586
5.5312796 2.1360669 1.3607813
5.7289877 2.6301084 1.3670834
5.6307578 2.3863792 1.3737689
5.6478124 2.4691277 1.3782535
5.4823818 1.9865309 1.3804944
6.0330677 3.4657269 1.3805665
6.0637822 3.5551081 1.4061749
6.1966925 3.8678689 1.4024675
5.3797321 1.7264606 1.4187558
5.4590321 2.0151696 1.4270226
6.2124038 3.9027429 1.42161
5.9289498 3.2094598 1.4337814
6.0145955 3.4276047 1.4350938
6.0119634 3.3624892 1.4480026
5.5712523 2.1759195 1.4502139
5.8518023 3.018857 1.4520561
5.3189721 1.556524 1.4612681
5.3037634 1.6128572 1.4664412
5.941371 3.2553377 1.4768
6.1486182 3.8244114 1.4873935
6.092063 3.6205306 1.4984498
5.6214314 2.388104 1.5054343
5.5339804 2.1595459 1.5242926
5.7518868 2.7508292 1.5212661
6.1595201 3.8105068 1.5262806
5.4807358 1.9734942 1.5309827
5.7675614 2.7213402 1.5496048
5.5202799 2.134131 1.5541527
5.5736265 2.2615771 1.5565752
5.4666824 1.9903809 1.5846392
5.5610757 2.1804848 1.5862255
5.9748964 3.3652453 1.6048062
6.0261631 3.4305897 1.6260422
5.5872064 2.2897835 1.6432062
5.7062044 2.615521 1.6493989
6.0959768 3.6141686 1.6546538
5.7187605 2.6181068 1.6667818
5.8665257 3.0613351 1.6654065
5.5569539 2.1727977 1.6767389
5.9098496 3.1164718 1.6716954
6.0981569 3.6501245 1.6808906
6.220252 3.9739208 1.6880869
5.3538775 1.6330034 1.6990668
5.5203414 2.0968814 1.6966878
5.9197469 3.165668 1.6936045
5.90554 3.0853696 1.7161616
6.027946 3.4012814 1.7188011
5.7165961 2.6728354 1.7288958
6.0474916 3.452569 1.7240028
6.1360521 3.7547994 1.7214826
6.2009945 3.923409 1.7311999
5.3150234 1.5878632 1.7554097
5.5025024 2.0571241 1.7724952
5.8649073 3.034585 1.7766031
6.0639563 3.5623727 1.776039
5.3107972 1.5260447 1.7855083
5.9316292 3.2294664 1.7832444
6.0378714 3.4665756 1.7821758
5.91429 3.1725302 1.8179338
5.5358696 2.2109227 1.8272123
6.2423849 3.9867492 1.8223732
5.5539351 2.2251253 1.8647099
6.2101917 3.9350476 1.8625374
5.8932934 3.1064343 1.8960233
5.9691443 3.2601409 1.8985536
5.6222258 2.3623133 1.9166839
5.7189536 2.6198254 1.9198434
6.1072659 3.6705389 1.918421
6.1047273 3.6578045 1.9337449
