# .PCD v0.7 - Point Cloud Data file format
VERSION 0.7
FIELDS x y z
SIZE 4 4 4
TYPE F F F
COUNT 1 1 1
WIDTH 731
HEIGHT 1
VIEWPOINT 0 0 0 1 0 0 0
POINTS 731
DATA ascii
0.80322188 -0.064934663 1.9455938
0.26974684 1.8348982 1.9490161
0.30899325 0.90037298 1.958863
0.31339845 1.1687186 1.9538593
5.4477348 1.9309496 1.957238
1.261263 3.1322303 1.9504032
3.476671 0.0043520629 1.9657269
3.5505309 0.018189386 1.9629543
4.2735 0.02068989 1.9636927
2.4546757 0.30819961 1.969312
1.2015462 0.83521819 1.9660015
4.3170643 1.054009 1.9602842
2.140111 1.1315287 1.9697566
4.5639348 1.5105056 1.9618468
4.6377521 1.5149045 1.9672282
5.4958448 2.027926 1.9658098
5.0480733 3.8339672 1.9693487
0.80500364 -0.031693161 1.9785676
3.2004039 0.20494235 1.9743054
1.3444098 0.23145768 1.9775963
0.32674006 0.32397431 1.973058
0.30981651 0.98533261 1.9788785
2.3656032 1.0851104 1.9787524
0.94378722 1.1102029 1.9791486
3.7455494 1.1876811 1.9767511
0.39378864 1.1995897 1.9763296
1.4981638 1.2049278 1.9722304
2.0554104 1.5314515 1.979291
5.3055272 1.5735949 1.9736078
0.52446294 1.8968331 1.9773321
1.9960172 2.0711808 1.9749267
1.4261214 2.1866422 1.978126
2.3390982 2.5914936 1.9768336
0.28362453 2.6127825 1.9787149
1.2396632 2.7246976 1.9784579
0.59148031 2.7980304 1.9796329
3.5003228 3.5271897 1.9771349
4.1424899 3.6321745 1.9784274
5.5678449 3.9249525 1.9757576
5.5631828 3.9361072 1.9720011
1.1477885 -0.015712246 1.985394
2.1886556 -0.01737836 1.9857085
1.978622 -0.0062194914 1.9880595
1.7675389 0.040778428 1.9898281
1.9576521 0.069546282 1.9852974
2.5368962 0.14650831 1.9842403
0.34860975 0.1566301 1.9884069
0.63206947 0.1694085 1.9859996
0.83800805 0.18782046 1.9819126
1.4716372 0.19732934 1.9872234
1.4263417 0.27319089 1.9825592
1.6362128 0.28158635 1.9809058
1.6282873 0.31081548 1.9884932
0.63937676 0.36898053 1.981662
0.68945396 0.42056948 1.9881096
3.9297824 0.44231051 1.987
1.2217319 0.53336471 1.9833212
0.85542905 0.54221541 1.9804339
0.99835837 0.54377502 1.9814386
1.9280324 0.55381715 1.9821637
2.3820574 0.55289561 1.986378
3.2411187 0.57444823 1.9894376
3.3129494 0.59029007 1.983676
1.7241069 0.69630837 1.9858532
2.9238272 0.77097201 1.989177
3.7013202 0.8273989 1.980722
2.968895 0.84930956 1.9850123
1.3777759 0.89488101 1.9836094
0.87213743 0.90524602 1.9887078
4.3095493 0.90698016 1.9814255
0.65306878 0.91586006 1.9814787
1.7733821 0.92458594 1.9871042
3.2367892 0.94865048 1.9879735
0.71309811 0.99087954 1.9885161
3.2844946 1.0749906 1.9807317
0.38193113 1.1134173 1.9855547
4.3182044 1.1514015 1.9877505
0.52168751 1.163775 1.9819686
0.31317675 1.1852388 1.9856286
0.8963474 1.1993766 1.9850819
3.0374568 1.2555317 1.9861197
2.962724 1.3648249 1.9869816
2.0127587 1.3870555 1.9853091
0.62685537 1.4228554 1.9854355
1.4207355 1.4842551 1.9843197
2.3908484 1.5004553 1.9853883
1.8943486 1.5436606 1.9870691
4.241724 1.5574096 1.9873886
4.2126379 1.5773828 1.9883206
3.5784407 1.5873677 1.9885581
1.4344198 1.6360624 1.9833066
5.0014186 1.6416547 1.9893572
1.4955912 1.6526998 1.989193
4.4061289 1.6926701 1.9859345
4.8223171 1.6941155 1.987525
0.65319455 1.7005521 1.9838932
1.3598542 1.7248408 1.9823897
4.4908009 1.7755282 1.981251
1.4195967 1.8254468 1.9856513
1.6892251 1.8738889 1.9890268
1.8628538 1.8706425 1.9897761
1.1541336 1.9042398 1.9850247
1.8964529 2.0283637 1.9821277
1.0294555 2.0849257 1.9855628
1.0643322 2.1149378 1.9867101
2.1289065 2.1239333 1.9888136
1.1098173 2.1723099 1.9853797
1.5905154 2.2348619 1.9887292
4.2486162 2.2458997 1.9897101
0.64061671 2.2735362 1.9896784
2.5516794 2.3155084 1.9859643
4.3727336 2.4422379 1.9891479
1.097775 2.4594445 1.9867637
4.4671702 2.48805 1.9897232
1.5094889 2.4912643 1.982826
2.9603992 2.5522113 1.9886332
1.3647804 2.5974269 1.9852898
0.66733056 2.6525044 1.9854097
1.5655987 2.6508021 1.9810283
3.1827958 2.6656089 1.9850979
2.0589633 2.6752844 1.9825571
1.0631702 2.7015676 1.9893038
0.32283908 2.7306962 1.983428
0.55316973 2.7844458 1.9851053
1.5291148 2.8174849 1.9800379
2.5572753 2.8172522 1.9847903
2.6681716 2.8265476 1.988714
4.9158573 2.8316684 1.9897902
0.75244081 2.8450618 1.987772
0.49084985 2.8795586 1.9868739
1.948967 2.9253163 1.9895229
2.8875043 2.937458 1.9814265
2.4441943 3.1462364 1.9882851
3.9578128 3.1512141 1.985203
2.2037125 3.2457161 1.9891427
5.8793287 3.5495114 1.9883816
1.2246777 -0.048153557 1.9925702
1.2472028 -0.039223582 1.9974871
1.8067684 -0.0035355985 1.9979787
1.6529231 0.0084248334 1.9947767
2.0301962 0.008459717 1.9997675
2.9692452 0.050029039 1.997443
3.3614967 0.069075316 1.9985352
1.0972919 0.12755358 1.9945681
1.2269081 0.12008825 1.9949453
2.3600199 0.13905314 1.9996855
2.3684161 0.14274246 1.9996579
3.60848 0.14269009 1.995152
2.9231331 0.15113097 1.9923422
1.8097671 0.17651406 1.9970236
0.45132953 0.1974287 1.9980834
2.3084176 0.19946137 1.9943211
0.55557573 0.23859563 1.9957721
3.3289123 0.245379 1.9944763
1.8873694 0.31429005 1.9931879
2.8818326 0.31745997 1.9906471
3.137742 0.31146705 1.9950101
1.9388773 0.3470338 1.9916201
3.4655807 0.39930612 1.9958427
2.3606513 0.4056415 1.996861
1.4554727 0.41406459 1.9909189
0.60849166 0.47418356 1.9906957
3.4763947 0.47599739 1.9985228
3.7643681 0.47091115 1.9976463
3.4227843 0.48438847 1.9925299
0.62014771 0.4965325 1.9941809
2.5358818 0.4915871 1.9999287
2.1186643 0.52902162 1.9956107
2.2797763 0.52710158 1.995985
3.1334431 0.52786678 1.9923501
2.3145618 0.53894472 1.9916694
1.9864545 0.55900276 1.9910069
2.4699345 0.55313492 1.9914494
3.5480065 0.56120759 1.9951024
2.9673691 0.6146363 1.9905941
1.2563592 0.62378305 1.9966486
0.66759652 0.65520078 1.9908929
2.0134044 0.6504221 1.9973071
2.4984777 0.6505512 1.9900239
2.7818408 0.67640972 1.9959116
3.7103298 0.67057043 1.9984477
1.6127782 0.69979727 1.998605
1.6409425 0.70100474 1.9969287
2.0827031 0.7195133 1.9962978
2.6208272 0.74965036 1.9975619
0.7387774 0.77795243 1.9945183
1.4979017 0.80324322 1.993052
3.4893076 0.81684184 1.9955897
2.6362982 0.8215515 1.9926746
1.8531191 0.8389709 1.9966953
1.897536 0.83610022 1.9989586
2.2494204 0.83011371 1.9911225
0.94904077 0.8603512 1.9927793
1.381605 0.91414917 1.9913697
1.5058503 0.91812503 1.9992967
1.7365732 0.91562712 1.9986846
0.3533572 0.95505786 1.9947295
3.8936734 0.95105755 1.9913113
3.3085213 1.018631 1.9946985
2.6292472 1.035457 1.9998648
1.7485023 1.0621766 1.9975185
3.3401089 1.0621799 1.9954269
3.0700614 1.0708128 1.9995699
1.2390262 1.0882628 1.9900951
3.635843 1.0801665 1.9914663
1.4372776 1.1164509 1.9928396
3.217222 1.1271348 1.9930246
1.3854046 1.137592 1.9926887
2.3686235 1.1965222 1.9955053
3.1759596 1.1926538 1.9985907
3.2580285 1.2086852 1.9958062
0.39665359 1.2312529 1.9908462
0.72937417 1.2380517 1.9944828
1.6376343 1.2536718 1.9934344
3.760839 1.2825112 1.9935722
2.5662944 1.3091177 1.9902203
3.9769192 1.3239152 1.9944816
0.32469061 1.3363338 1.9986207
2.6356239 1.3463427 1.9994957
0.35561007 1.3565391 1.9911869
0.40377098 1.3960718 1.9951203
2.6327064 1.3926622 1.9920566
0.94831038 1.4017777 1.9978914
4.2944274 1.407992 1.9928789
3.9535871 1.4240927 1.9951706
3.4866099 1.4388002 1.9925687
4.0712438 1.4637929 1.9998372
4.8292918 1.5112656 1.9954221
5.2726417 1.5285921 1.9977703
1.5362225 1.5460117 1.9926736
1.0332899 1.5507309 1.997874
3.8322048 1.5784179 1.9963036
2.3935826 1.5815897 1.9924619
1.2109761 1.5985832 1.9955552
3.7203188 1.6201894 1.9923711
2.2204583 1.659834 1.9971304
1.4219649 1.6600285 1.9971061
0.77884299 1.6873682 1.99193
1.713364 1.7082392 1.9949646
0.71851999 1.7286271 1.9949083
5.0910606 1.7224441 1.9955084
3.2314677 1.7579097 1.9910758
4.9690661 1.8953191 1.9988208
2.3843055 1.9054555 1.992676
2.0590229 1.9272288 1.9977624
1.7820351 1.937368 1.9984529
0.52532697 1.9411725 1.9926581
2.4408188 1.9539906 1.9939985
0.61750406 1.9647197 1.9981143
3.3178787 1.9661924 1.9949965
3.7040544 1.9767982 1.996237
4.7542262 1.9743301 1.9959891
1.8293827 1.9858333 1.9976609
5.4672122 1.9842778 1.990458
0.3133173 1.9947494 1.996515
1.1737639 2.0063272 1.996047
1.5466928 2.0434484 1.9944971
4.0707598 2.0437236 1.9910767
2.3819816 2.0582891 1.9967606
0.58245766 2.0625505 1.995522
3.0044444 2.069232 1.9979014
2.1282573 2.081346 1.9948843
2.1714616 2.0882392 1.9917867
0.38702625 2.1126676 1.9934027
1.0994873 2.1232038 1.9916048
2.4813414 2.1370864 1.9945412
2.1395323 2.1794076 1.9970784
1.0743008 2.1869187 1.9976115
1.5718979 2.1920166 1.9925029
1.6369939 2.1933603 1.9949117
3.1872184 2.2387729 1.9988987
3.2644355 2.2587166 1.9914713
2.570128 2.2694554 1.9978945
2.2659979 2.2710919 1.9924662
2.7476897 2.2939696 1.990474
0.70220637 2.3012757 1.9957807
0.5515449 2.3182807 1.9960268
2.5731165 2.3166308 1.9953222
3.0457098 2.3259377 1.9940379
1.4817621 2.3509164 1.9934402
4.356853 2.3835163 1.9964201
5.2259183 2.3891902 1.9961245
4.8349414 2.3935218 1.9964159
1.087341 2.4376969 1.9934633
1.4727371 2.4485192 1.995702
1.8620141 2.4431071 1.9973371
5.0677891 2.4476194 1.9921765
1.7955223 2.4849315 1.994678
0.72583902 2.5031843 1.9952962
1.2180111 2.5103583 1.9997151
4.8543601 2.5185599 1.999897
0.73864257 2.5414128 1.9953966
4.209898 2.5550737 1.9977565
2.0807824 2.58918 1.9987037
4.6334167 2.6003242 1.9958005
3.4981523 2.6198115 1.9974988
1.8109087 2.6499534 1.9948795
2.2157903 2.6411619 1.996686
5.4127274 2.6866317 1.9908111
3.1355619 2.6947732 1.9992723
4.1166925 2.7008376 1.9904037
4.7964997 2.7129407 1.9989374
5.3876576 2.7254386 1.990447
4.134481 2.7422285 1.9952893
4.8217759 2.7605281 1.9953771
1.8842165 2.7965741 1.9989009
2.8936307 2.7964926 1.9970505
4.9862857 2.7931581 1.9987743
0.73666704 2.8029776 1.9986901
0.81977367 2.8044839 1.9958131
4.8412437 2.804656 1.9958761
0.69819695 2.8533773 1.9965136
5.2820935 2.8694782 1.9927628
2.3492389 2.8873658 1.9967675
2.7246473 2.8848438 1.9945002
1.3581351 2.8944006 1.9939034
2.442137 2.8930993 1.9915893
3.394279 2.9030771 1.9914689
4.1325908 2.9279556 1.9992781
5.5253353 2.9371791 1.9972553
2.0724487 2.968626 1.9904013
2.4038503 2.9703751 1.9961169
2.4270315 2.9761887 1.9978898
3.4893904 2.9821973 1.9945514
5.051816 2.9814706 1.9944892
1.660597 3.0000272 1.9968414
2.6813803 3.0030508 1.9970844
4.2836504 3.016222 1.99894
1.7662519 3.0201783 1.991667
3.0358055 3.0277352 1.9952946
1.421524 3.0660605 1.9991863
3.2381079 3.115912 1.9957976
2.8755283 3.1372805 1.991704
3.7647114 3.1482663 1.9998238
2.0170555 3.1911201 1.9995811
4.2970634 3.2183094 1.994458
2.9477203 3.2669559 1.9972742
2.5609584 3.2871366 1.9970214
3.1970453 3.3060503 1.9937458
2.8623693 3.3342562 1.9902947
4.4641128 3.3490787 1.9970789
3.1439123 3.3530684 1.9959736
3.1543894 3.390131 1.9931011
3.2345328 3.4008775 1.9942727
5.3520737 3.449369 1.9969339
4.098525 3.4738965 1.9981282
4.4956441 3.4869499 1.9984119
3.8220358 3.5263577 1.9961615
4.2322617 3.5343542 1.998987
4.3961477 3.546401 1.9975448
5.4094257 3.6315045 1.9994073
6.0952406 3.6522903 1.9992847
5.0219369 3.6621141 1.9962101
4.7764883 3.6857557 1.9946809
5.9986229 3.7198286 1.9980853
4.9126644 3.745101 1.9969296
5.9090891 3.7953715 1.995389
6.0074215 3.9346809 1.9985018
3.0378599 0.028051019 2.0030274
0.81305951 0.034731954 2.0017872
2.4108853 0.037841469 2.0007231
3.031508 0.031166628 2.0065641
3.0650792 0.071949363 2.0099804
2.2094102 0.094704151 2.0038195
2.8084667 0.14874735 2.0037258
2.8396213 0.18079874 2.0025442
1.5961381 0.19688383 2.0039022
3.7452703 0.21090239 2.0077341
0.65733081 0.22148573 2.004432
3.1644931 0.22933131 2.0054758
3.6548495 0.23554045 2.0082712
4.2522364 0.25185621 2.0093887
1.8211088 0.2646881 2.0032568
2.1532969 0.2950826 2.000052
3.4489408 0.32077137 2.00611
2.473254 0.33312592 2.0057132
3.0805328 0.33185709 2.0076106
1.7955006 0.39670879 2.0021398
1.4486972 0.40897942 2.0037632
1.8243107 0.4213562 2.0013144
2.2689791 0.4228673 2.0050113
1.8156779 0.43592119 2.0045102
4.1697683 0.46704811 2.000792
3.5740352 0.47775578 2.0057621
3.5239036 0.49063337 2.0049562
3.3042455 0.52719736 2.0062721
4.3146052 0.5293864 2.0035021
3.5751758 0.54763049 2.0039093
0.48255503 0.55328596 2.0077844
1.5031534 0.56142843 2.0048087
1.6452947 0.56970602 2.0019467
2.7528806 0.61932546 2.0032511
4.0509553 0.63328934 2.0098054
3.2431114 0.66502059 2.0010126
3.9411449 0.70356798 2.0015607
4.0809436 0.73835444 2.0095119
3.15451 0.7427479 2.0003586
2.535135 0.75900084 2.001399
3.044811 0.79325235 2.0065675
1.5491471 0.81442934 2.0029559
4.3063307 0.81539273 2.0049913
1.1085106 0.86717629 2.0022032
1.5094558 0.8777287 2.0038769
4.136127 0.88336039 2.0061004
1.430572 0.92127383 2.0027056
1.9715421 0.93267071 2.0051804
3.5946143 0.93074107 2.0020251
0.3506124 0.94095206 2.0009987
2.591526 0.94859707 2.0045462
2.083189 0.95699799 2.0046761
1.5261983 0.99999559 2.0013463
1.4147737 1.0048862 2.0008526
2.3807523 1.0165095 2.0015488
3.5474036 1.0270469 2.0046351
1.9908721 1.0364224 2.003067
3.6863093 1.0415641 2.0016456
1.3580955 1.0541058 2.0012043
3.5397339 1.0645052 2.0025837
1.1776935 1.0769573 2.0037663
2.2916625 1.0915754 2.0097947
3.502424 1.0919549 2.0025826
3.9507656 1.1126152 2.0038021
3.5223696 1.1273618 2.0032251
1.5541017 1.1350155 2.0012922
3.5339098 1.1679101 2.0021706
2.002455 1.1882398 2.003886
2.1273665 1.1927011 2.0030489
3.2187486 1.2202003 2.000082
1.8927474 1.2470626 2.0025506
3.6503611 1.2662423 2.0020938
0.34116232 1.3284049 2.0071886
3.8646522 1.3244984 2.0020854
2.6573572 1.3326122 2.0005181
3.657969 1.333804 2.0021818
0.78086829 1.3450192 2.0021236
3.7105095 1.3543848 2.0014379
0.57898432 1.3687646 2.0042071
3.9553113 1.3716862 2.0055823
3.526679 1.4621294 2.0080662
3.5421846 1.4632006 2.0022132
3.7664268 1.4726053 2.0056059
3.7386339 1.5393921 2.0055399
4.5699105 1.5324172 2.0056348
1.5027844 1.549932 2.0024889
3.1892483 1.5654453 2.0065517
3.3073845 1.5660822 2.0000362
2.9261985 1.5754882 2.0025568
3.7935941 1.5927722 2.0018446
2.9189932 1.6099931 2.0011046
4.6403027 1.6082774 2.0000215
2.3297372 1.6173557 2.0051692
2.3178098 1.6253687 2.0011554
4.7110181 1.6286995 2.0032065
1.9489679 1.6326767 2.0032525
0.53132039 1.6484578 2.0038264
3.3828804 1.6425773 2.0046055
3.7786131 1.6543741 2.0030444
4.6329265 1.6611696 2.0075984
5.3638382 1.6768115 2.0061429
3.0123043 1.6997275 2.0082021
5.0007448 1.7005631 2.0089204
4.7817879 1.7249504 2.0082946
4.8358126 1.7289892 2.0022516
2.306994 1.7411436 2.0028656
3.1644199 1.766124 2.0079141
1.8503637 1.7715145 2.0079172
5.0538659 1.7704904 2.0000005
4.4922638 1.7846526 2.0021663
5.1564364 1.782729 2.0066016
5.1995411 1.7809488 2.004317
3.7654667 1.7978977 2.0044568
4.0535264 1.7959253 2.0048633
3.3147259 1.8034981 2.009424
3.4087534 1.8383927 2.0089731
1.5761486 1.8638057 2.0032091
1.6518031 1.8665806 2.0014148
1.8143265 1.8666795 2.0040154
4.5838299 1.8662294 2.0070705
4.5874491 1.8778259 2.0011935
1.6400727 1.8826078 2.0013385
4.3251123 1.9057168 2.0060661
5.3703599 1.91089 2.002696
2.9105291 1.9331659 2.001426
2.7117543 1.9934648 2.0079081
3.187942 1.9973594 2.0011723
2.3776252 2.0116177 2.0095525
1.6709387 2.0209837 2.0035896
2.8090973 2.0493174 2.006073
5.4321313 2.0467138 2.0097456
1.7267472 2.0915847 2.0035653
2.8719411 2.1157031 2.0046234
3.1967344 2.1667528 2.0040715
4.0028548 2.1610837 2.0090315
4.5342789 2.1734161 2.0059931
1.0581297 2.187305 2.0064461
2.0409477 2.1831713 2.0079615
3.1852574 2.2058411 2.0070493
3.2371943 2.229526 2.0000029
4.4314299 2.2261386 2.0011649
5.1737995 2.2380495 2.0058961
1.995579 2.261373 2.0055516
2.3416524 2.2607584 2.0039735
3.1299927 2.2638917 2.0035932
1.0752143 2.2794657 2.0002556
2.3349972 2.2895179 2.0069969
3.086205 2.2872906 2.0014076
2.1015961 2.2956181 2.0092947
3.8976493 2.3010702 2.0083892
0.62507504 2.3228173 2.0009189
0.47212309 2.3443537 2.0045559
3.2708824 2.4028401 2.0015264
4.9098043 2.4429564 2.0021908
2.0881851 2.4582071 2.008378
3.7055666 2.4608521 2.0079167
4.7784095 2.465971 2.0048563
1.0589328 2.4773026 2.009589
3.107933 2.4701047 2.0008774
1.4607536 2.5145793 2.0071702
2.7420158 2.5127892 2.0054994
2.9061291 2.5387073 2.0042906
2.1875231 2.544281 2.0096257
3.150372 2.5478549 2.0023367
4.1268954 2.5665164 2.0074451
2.2627802 2.5978518 2.0099177
2.605829 2.6065693 2.0041308
4.4882874 2.6088715 2.0017033
3.7927778 2.650063 2.0021064
3.908834 2.6587086 2.0092614
5.4279609 2.6785975 2.0020211
1.0924227 2.6845112 2.0027757
5.5035462 2.6850362 2.0095165
4.9648385 2.6907392 2.0040426
3.6989603 2.7098317 2.0082438
2.0443232 2.7145081 2.0091753
3.6599236 2.7256694 2.0002656
3.1304348 2.7356877 2.0081508
5.665103 2.7756991 2.0053511
1.3217497 2.7873449 2.0093782
4.1029172 2.7838445 2.0084562
3.5465639 2.8078322 2.0054436
4.0313573 2.801764 2.0080302
1.971324 2.81146 2.0035224
2.2999721 2.8220258 2.003114
0.30487168 2.8629327 2.0051656
4.3229446 2.8634295 2.005836
4.3568773 2.8641138 2.0003874
2.0995388 2.9109459 2.0073931
3.5502386 2.9276867 2.0052168
4.8087964 2.9290495 2.0043538
5.4880681 2.9279814 2.0059862
4.9136901 2.9507818 2.0099218
5.055747 2.9602613 2.0095682
2.4818847 3.0156641 2.0073228
1.4115072 3.0296602 2.0013847
4.4494386 3.0284815 2.0080936
5.7198901 3.0358458 2.0087345
4.4683394 3.0406857 2.0089431
5.6135359 3.043786 2.0009594
2.1752119 3.0560808 2.0084584
4.8839617 3.0946531 2.0081065
1.4587517 3.1210656 2.0061128
2.6222987 3.1342316 2.001291
3.6304905 3.1667757 2.0007806
5.8565626 3.1812139 2.0077806
4.973238 3.1986442 2.0047896
3.3729408 3.2010937 2.0044401
1.934989 3.2172246 2.0017731
2.3754504 3.2249746 2.0026135
5.1844406 3.2355928 2.0040464
5.8309765 3.254878 2.0090446
3.0092111 3.274591 2.0042119
3.5408993 3.2866206 2.0045812
4.5759068 3.2842441 2.0090559
5.2919602 3.2800593 2.0074124
5.4717026 3.2897906 2.0041161
2.6752179 3.2988176 2.0032542
3.7724817 3.2930083 2.0090241
3.9321809 3.2925773 2.0099173
4.1279283 3.3175359 2.0085328
4.1483798 3.3140049 2.0035398
5.9986277 3.3439445 2.0073621
3.1836951 3.3585815 2.0010159
2.8906844 3.393158 2.0058758
4.8103642 3.3993402 2.0082479
4.6988626 3.4066324 2.0008962
4.7147417 3.4026117 2.0085013
4.9398398 3.4196982 2.0051091
5.6167955 3.4391403 2.0050948
4.2580214 3.447125 2.0025482
5.5833077 3.4503427 2.0079417
3.5956297 3.471662 2.0058205
5.1463251 3.4913282 2.0001743
3.5927525 3.5309515 2.0079198
4.2424803 3.5344372 2.0087566
4.4281654 3.6239653 2.005312
5.8531313 3.6788044 2.0087776
4.8820572 3.7084017 2.0071414
5.0816813 3.8152399 2.0099442
5.4432087 3.8757501 2.0098426
5.5657301 3.9211073 2.0017114
1.5676057 0.039917126 2.0159538
3.3427448 0.04563427 2.0195274
0.46267873 0.058128253 2.012758
4.2988281 0.10026467 2.0123382
1.7187511 0.20099425 2.0102301
2.3946431 0.22695246 2.0181522
4.0258131 0.27677748 2.0143535
2.7042418 0.31803799 2.015595
4.0782247 0.35141182 2.0194242
1.4207218 0.52468562 2.0122752
2.0891516 0.58710319 2.0100954
2.8096828 0.63588625 2.0143991
4.2685733 0.7196508 2.0187411
1.1939611 0.73005396 2.0157804
3.8870888 0.75851464 2.0146148
2.6306319 0.77717662 2.0169151
2.5539298 0.83393067 2.0131764
2.5600207 0.96974313 2.0137525
3.031934 1.1256751 2.012881
3.8970418 1.1392229 2.0123544
3.8791142 1.1510029 2.012244
0.94990158 1.1922539 2.016057
2.5148647 1.26131 2.0131853
1.384999 1.2798311 2.0101063
1.3701804 1.3581399 2.01546
1.1399064 1.3773692 2.0115514
0.67085379 1.4312482 2.0131779
4.2830219 1.4304775 2.0121865
1.8423779 1.4458597 2.0140021
2.8673823 1.4632045 2.0149002
3.647454 1.5076276 2.0146165
2.2162457 1.5704033 2.0165963
4.5169168 1.6231978 2.0105209
4.7387543 1.6407557 2.0101318
4.2363024 1.6669257 2.0116358
3.0912416 1.7801501 2.0146523
4.4520226 1.7964103 2.0106552
5.003881 1.8462795 2.0121179
2.2057805 1.8818051 2.0101123
4.6482439 1.9125856 2.0140166
3.603806 1.9286786 2.0158308
4.6841664 1.9781083 2.0131223
1.6264524 1.9877471 2.0157104
5.0735579 2.0276446 2.0128067
2.880482 2.0596147 2.0178604
4.6072617 2.0777388 2.0148389
3.284688 2.1271729 2.0168982
3.8910904 2.1237445 2.018609
4.4941864 2.12081 2.0156987
1.5909315 2.1331081 2.0164549
5.3052115 2.1426897 2.0166442
3.4122608 2.1570115 2.0112255
4.8450994 2.1524448 2.0129411
2.4490774 2.1757774 2.0121942
2.3201957 2.2571797 2.0152884
4.1990099 2.2901435 2.0131078
4.9306669 2.3625407 2.0105405
1.3092183 2.4051828 2.0101256
3.2202196 2.4309292 2.01564
1.8329927 2.4531484 2.0147719
3.9654741 2.4750338 2.0193899
4.6737394 2.5178947 2.0191703
4.0092816 2.5214381 2.0121534
4.1287994 2.5293374 2.0189092
5.525147 2.5204058 2.0161223
1.6386189 2.5319414 2.0106077
4.2065029 2.5451355 2.0125713
4.4288435 2.5446291 2.010824
5.4171906 2.5477829 2.0124493
4.4295259 2.5789266 2.0131288
1.4321356 2.6161389 2.0102508
4.6566434 2.6162043 2.0116439
5.0371675 2.6353908 2.012136
3.4478166 2.6517878 2.0148742
5.4318266 2.6517925 2.0108738
4.9657145 2.7471414 2.0111973
4.5002236 2.8409605 2.0110619
2.2227421 2.8776894 2.0112927
1.7556689 2.8886452 2.0126088
1.9376702 2.8811746 2.0123634
3.8194978 2.9426389 2.0114815
4.7661281 3.063879 2.0111351
4.6006784 3.0863199 2.0165012
5.6088676 3.1175222 2.0175865
5.5327339 3.1477814 2.0113971
3.9601045 3.1506262 2.0143337
2.0669305 3.1625066 2.0109885
4.1865969 3.1817155 2.0123067
4.5554252 3.2041988 2.0135379
2.983907 3.2295961 2.0177703
4.1242557 3.2359157 2.0179343
4.633606 3.2403383 2.019357
5.1277347 3.3350096 2.0178831
2.8341649 3.3678379 2.0181134
5.3826423 3.3885679 2.0162151
4.6452341 3.3933182 2.0160861
5.634872 3.4166446 2.0163817
5.0464621 3.5053701 2.0129495
3.9673915 3.5316806 2.0118165
5.6733842 3.7383142 2.0134833
5.7930355 3.7553105 2.0178225
6.1311297 3.761888 2.0150189
6.0218387 3.7782278 2.018249
6.1687145 3.9593601 2.0197041
5.8851376 3.9964576 2.0188954
2.9546866 0.72213328 2.0223606
5.0951514 1.5340343 2.0206118
5.265368 1.8561076 2.0235047
0.7216171 1.9840375 2.0231943
5.1764946 2.0526786 2.0227928
4.2454095 2.1391449 2.0221257
5.4057097 2.2297683 2.0251722
4.8279433 2.3172812 2.0202103
3.4281566 2.3652673 2.021497
2.391484 2.3972168 2.0228961
4.9059248 2.4568152 2.0237494
5.2911139 2.4795957 2.0231342
3.9641275 2.6696076 2.0240231
4.8503237 2.8008614 2.0203037
2.6664326 2.9827342 2.0248344
2.8953481 3.1263137 2.0252268
5.0413127 3.1989489 2.0203469
5.8626976 3.2544565 2.0258296
5.7335901 3.4932728 2.0249817
4.8450379 3.5960197 2.0255835
5.1861248 3.6621466 2.02109
5.6462841 3.8798084 2.0297546
5.6391506 3.9308348 2.0211132
6.0761037 4.011693 2.0252523
6.1006021 4.0287995 2.0233846
5.7892122 2.8792744 2.0316286
