# .PCD v0.7 - Point Cloud Data file format
VERSION 0.7
FIELDS x y z
SIZE 4 4 4
TYPE F F F
COUNT 1 1 1
WIDTH 496
HEIGHT 1
VIEWPOINT 0 0 0 1 0 0 0
POINTS 496
DATA ascii
1.621159 3.1939383 0.053678751
0.28559214 2.9086633 0.069032371
0.59474391 2.9898295 0.068527222
1.8455176 3.2369289 0.067632496
2.5112667 3.3610091 0.060695916
4.3537698 3.7041574 0.069364041
5.9303589 3.9942641 0.068387359
4.8350687 3.7817535 0.071181923
2.8809776 3.413425 0.084371567
2.9067273 3.4122019 0.080788553
2.6131091 3.3743081 0.095297575
5.4438434 3.8934593 0.097883761
5.7889266 3.9597783 0.093068331
5.7517042 3.9606943 0.096563727
3.173538 3.4768615 0.10612315
3.6822832 3.5681577 0.10092881
4.1271992 3.6704278 0.10142136
0.55826664 2.9807448 0.11581311
2.0798407 3.2664504 0.11971134
0.83119333 3.0235386 0.12166888
2.5188291 3.3567915 0.12069085
2.8066633 3.4228349 0.12604013
5.9342389 3.9886918 0.12782079
5.9976912 3.9932532 0.12684062
5.0544953 3.8286114 0.13173854
2.4224849 3.3375044 0.14724675
4.2205372 3.680624 0.14186671
3.0472734 3.4500666 0.15006527
3.3176196 3.5053263 0.15995306
5.4653873 3.9215188 0.16278094
5.9468222 3.992003 0.1662232
4.0023918 3.6405654 0.1741398
4.2593484 3.6816797 0.17686155
5.2062526 3.8676057 0.17640364
0.36229187 2.9567714 0.18818149
3.2364783 3.495388 0.18522644
0.83367026 3.0321264 0.19102171
1.0428197 3.0887461 0.20393309
1.73156 3.208694 0.20738682
3.5710249 3.5467291 0.20692605
5.2362547 3.8777647 0.20490065
0.6429916 2.9955916 0.21315759
4.6388416 3.769825 0.21406469
1.4261925 3.1672902 0.22231215
1.9276123 3.2558427 0.22523981
4.7726636 3.7817626 0.2392894
5.6508813 3.9361935 0.23824769
0.52281719 2.9802623 0.24361062
6.218534 4.0412726 0.24703723
1.361189 3.1545429 0.25210598
1.9647226 3.2331791 0.25602514
3.4020755 3.533607 0.25566036
1.7951287 3.235436 0.26549676
6.1485052 4.0277286 0.26668158
0.52288729 2.9754 0.28066477
1.9001706 3.2330847 0.28696766
3.9589357 3.5962386 0.28878564
5.6399484 3.9289427 0.28142667
0.54776585 2.9754663 0.29668057
3.4173355 3.5081482 0.29134554
2.4486439 3.3543625 0.30633324
4.990612 3.8166699 0.30099034
5.4834208 3.9063716 0.30064595
2.5615065 3.3614483 0.31572556
2.7145038 3.4007874 0.31299752
5.7096844 3.9359918 0.31624442
2.6010797 3.3736591 0.32423538
0.52778625 2.9844236 0.33556962
2.8141077 3.3915553 0.33562392
3.9103985 3.6169143 0.33315444
4.3847904 3.7045097 0.34321731
6.0540299 4.0072389 0.34993577
2.2396634 3.3008223 0.35391676
5.1331162 3.8455348 0.35816532
0.44314432 2.9648786 0.36553717
1.0157553 3.0655432 0.36331695
3.6345329 3.565403 0.36883748
5.5664606 3.9235487 0.36243659
4.9990745 3.821661 0.37773913
5.3445644 3.8893099 0.37468135
5.2252669 3.8552923 0.38010448
5.566462 3.9164639 0.38731468
6.2378416 4.0608621 0.38978124
1.4786917 3.161684 0.39762431
3.3680561 3.5270419 0.3994239
4.4764237 3.7158418 0.39865458
0.92003882 3.0604725 0.40655887
2.110419 3.2984266 0.40714335
4.3089094 3.6905136 0.40023565
4.8721356 3.7952185 0.40186113
5.721189 3.9381108 0.40162092
1.8227825 3.2301798 0.41927755
3.5160265 3.5356417 0.41693354
6.2629924 4.046669 0.41314763
4.2125731 3.6658268 0.42663962
5.9235077 3.9732308 0.42928219
1.6685568 3.217628 0.43309093
3.7714281 3.5793648 0.43490732
1.3072937 3.1332808 0.4447996
4.956264 3.7993107 0.44585443
1.8914299 3.2420545 0.45412791
1.2808791 3.1265531 0.46185309
2.103493 3.2761993 0.46485043
5.3047462 3.89149 0.46885937
5.9937491 3.9832706 0.46382421
6.0302701 4.0162177 0.46291709
0.68298405 3.0176387 0.47628438
2.167531 3.2859216 0.4796946
2.133764 3.2960172 0.47278833
3.3042543 3.5181909 0.47761327
6.1603928 4.0453377 0.47179168
0.3325603 2.9434929 0.48476881
0.6382097 3.0028625 0.4881351
2.4621277 3.3548145 0.48702025
3.2741454 3.4918718 0.48471594
4.6995301 3.7613449 0.48043066
6.0276594 4.0150542 0.488832
4.6026697 3.7375698 0.49086237
5.8095479 3.966083 0.49788505
2.0790625 3.2681808 0.50243664
4.3447876 3.6999612 0.50291753
5.4910417 3.8943849 0.50990939
6.0985842 4.0135345 0.50564194
3.3450139 3.5101719 0.51564205
4.6226773 3.7511067 0.51046371
4.9606476 3.8361063 0.51843971
5.2263432 3.8514791 0.51466542
1.5697707 3.1878877 0.5250926
2.0347009 3.2697015 0.52956414
1.4882658 3.1699042 0.53824687
2.2187953 3.3037119 0.53700185
4.3150673 3.6884933 0.53357047
5.1539655 3.8439159 0.53876209
5.5829573 3.912941 0.53113133
5.9413953 4.0074983 0.53297657
2.1341269 3.295073 0.54342484
5.1264882 3.8427582 0.54285806
5.5401497 3.9100857 0.54840875
6.093401 4.0115166 0.54152638
4.174489 3.6534467 0.55970472
0.49429458 2.9827242 0.56492394
4.9405875 3.8130512 0.56742662
5.1000667 3.8432765 0.56339926
2.5751858 3.3705306 0.57939017
3.7402396 3.5807781 0.57161927
4.3104076 3.6750517 0.57092708
4.4492164 3.7138157 0.58296412
4.5146246 3.7155232 0.58636069
3.0977147 3.4726901 0.594477
4.4272895 3.6926103 0.59255767
1.594622 3.1757083 0.60017532
1.0223002 3.0866022 0.61879915
3.5159042 3.536252 0.6122576
3.6576538 3.5655699 0.61070305
4.0614371 3.6451082 0.61131597
4.9464931 3.8022499 0.61194199
6.2379069 3.9993949 0.61867923
0.50213069 2.9861913 0.62168354
1.5874238 3.1869164 0.63208067
3.0934513 3.4658108 0.63264173
4.6395278 3.7355342 0.63738275
3.3681037 3.5081758 0.64822936
0.70688832 3.0278444 0.6535061
1.8976924 3.2342291 0.65635258
5.4738908 3.9021015 0.65990436
6.0653186 4.0148988 0.65661287
2.2550247 3.300138 0.66957742
6.1037059 4.0250373 0.66813099
2.5959785 3.3679342 0.67290968
0.28035551 2.9250922 0.68657428
0.94366825 3.0559182 0.68386847
1.9240394 3.2293415 0.68239516
4.2600455 3.7085857 0.68788916
4.703927 3.7679272 0.68133312
4.9928236 3.8206835 0.68186843
4.069139 3.6438389 0.69268179
4.4443612 3.7215614 0.69207013
5.978364 3.9903827 0.69521719
0.80846822 3.0412483 0.70699048
4.1251726 3.6375947 0.70794374
3.9534779 3.6405978 0.70372468
5.3854322 3.8976836 0.70301324
3.8960943 3.6130233 0.71847355
4.8395634 3.8058295 0.71224588
1.6494745 3.1797361 0.72021937
6.1283975 4.040483 0.72668457
0.5615446 2.9788947 0.7393015
4.3657627 3.703413 0.73569363
4.6920133 3.7559886 0.73543429
5.5980449 3.9383698 0.73922431
1.943301 3.2599998 0.74605185
3.0861554 3.4512777 0.74772525
1.7509464 3.2145271 0.75563484
1.8223255 3.2316775 0.75298452
1.3744547 3.1370797 0.7660318
4.0502591 3.6414723 0.76301819
5.0009818 3.8119459 0.7737419
6.2064424 4.0327597 0.77926284
4.9578385 3.7946048 0.7968955
5.7206473 3.954823 0.79531312
0.60685939 2.9870901 0.80982327
1.3031256 3.1325951 0.8067981
1.4181523 3.1716857 0.80141866
3.1923304 3.4805417 0.80036557
2.2995172 3.3099208 0.81322348
1.6720699 3.2102771 0.83590293
2.3401444 3.320715 0.83905637
3.9923053 3.62397 0.83278286
3.0763011 3.4510374 0.85338366
5.0382495 3.8275304 0.85894358
2.784106 3.4084821 0.86071527
3.9768524 3.6206803 0.86131537
5.9697552 3.9995246 0.86166704
2.2596595 3.2928743 0.87709236
0.57682323 2.9872942 0.8832562
1.8382764 3.2191815 0.88346076
3.0605533 3.4493971 0.88560271
6.0069699 4.0089583 0.88897681
6.2661228 4.0529947 0.8947072
2.4176698 3.3176966 0.90668273
5.0812263 3.8310328 0.90311599
2.6586752 3.3840194 0.91251254
0.39598644 2.9660082 0.92484355
4.0752053 3.6600051 0.92557287
4.8846612 3.7966208 0.92335415
4.0503526 3.649168 0.9404732
0.61262584 2.9928098 0.95235682
0.65042841 3.0101585 0.95122302
1.6536584 3.1893439 0.95345938
2.708451 3.389698 0.95082009
3.1204431 3.4640875 0.95389545
0.57157218 2.9707842 0.96230471
0.65926933 3.0052934 0.96413732
5.1617889 3.8626375 0.96752417
5.5822153 3.9273882 0.96804976
2.3426974 3.3250775 0.99779296
2.3555722 3.3428044 0.99343669
4.0351605 3.6287875 0.99365389
4.4160399 3.7233315 0.99693596
1.8464251 3.2281232 1.0026902
3.7075903 3.5613036 1.001828
1.7748784 3.2178688 1.0194606
3.0831163 3.4703999 1.0101845
6.162374 4.0389891 1.0104171
0.26046431 2.8810854 1.023513
0.278759 2.9243774 1.0221784
4.1583943 3.6710143 1.0271455
4.7654266 3.7647047 1.0297421
1.2555366 3.1191907 1.03997
1.3673582 3.1493607 1.0365434
5.4172392 3.8918991 1.0322942
5.652451 3.9260674 1.0325
5.6493268 3.9535375 1.0305963
0.28057915 2.9186096 1.0457536
5.8646808 3.9786649 1.0498787
0.41271275 2.9590425 1.050703
1.8027698 3.2114582 1.0555688
2.0783217 3.2732997 1.0580205
2.7812529 3.3844185 1.0518129
4.4170399 3.7080216 1.0505495
4.656754 3.7407475 1.0508586
5.4169636 3.9035525 1.0589929
6.0115399 4.0090556 1.0565659
0.52905607 2.9944234 1.0744395
1.7134424 3.197432 1.0761553
3.9686384 3.633389 1.0736035
4.4076457 3.7162499 1.0740438
4.5074625 3.7253819 1.072943
4.9388614 3.8025756 1.0870293
0.92150152 3.0424523 1.0976151
0.43794042 2.965126 1.1092303
3.5248752 3.5356669 1.1013093
4.1559629 3.6863909 1.1178247
5.3896551 3.8986802 1.1173366
6.1333642 4.045156 1.1124181
4.7839561 3.8002334 1.1267049
5.9800811 3.9940057 1.1257948
1.244035 3.1266413 1.146695
2.2540781 3.2999802 1.1479892
3.5225842 3.5491166 1.1465908
1.0784893 3.08284 1.156801
3.0017891 3.4303436 1.1503526
5.8579912 3.9676738 1.1551119
4.1444287 3.6818933 1.165169
5.251472 3.8654571 1.169113
1.3117459 3.122097 1.1710266
1.6283339 3.1710839 1.1735744
2.5478451 3.3552451 1.1788394
3.2522049 3.4909477 1.175033
4.1234188 3.6542659 1.1796542
0.89658797 3.0748873 1.1819338
1.2466936 3.1258278 1.1899371
4.8996348 3.7911792 1.1849742
5.0933237 3.8435898 1.1885349
0.90021372 3.0532308 1.1938258
2.9026284 3.4204707 1.1902821
3.5766988 3.5504937 1.1942154
0.5402742 2.9782629 1.2021151
0.87658989 3.0563612 1.2041427
1.1406633 3.0993266 1.2097577
1.8138443 3.2068486 1.2093606
3.0845833 3.4856324 1.2179343
5.0717192 3.8223634 1.2103063
6.1661496 4.0316715 1.2159767
1.5499188 3.181983 1.2247708
1.7766464 3.2228551 1.2206191
2.5158114 3.3604898 1.22193
4.0661769 3.634016 1.2274023
4.367547 3.6907334 1.2282842
5.8067131 3.9776831 1.2269758
0.28385493 2.9391637 1.2350299
2.5900505 3.345829 1.2302383
2.1571898 3.3000326 1.2441633
3.335175 3.5205898 1.246542
3.953824 3.6091523 1.2482376
4.1291561 3.6334996 1.2402122
1.1853321 3.0894461 1.256129
1.107952 3.1013231 1.2536348
2.5894051 3.370626 1.2520481
5.7327495 3.9517016 1.2526327
6.0469403 4.0228581 1.2557467
1.4039507 3.1669497 1.2645508
0.87785304 3.0473256 1.270563
2.7280574 3.3906698 1.2758836
4.5318928 3.7160988 1.270416
4.738071 3.7581077 1.2877789
2.8763983 3.3961034 1.2967522
5.3429832 3.8846626 1.2939669
1.1371375 3.0875731 1.3047308
5.2464414 3.858242 1.3061273
1.2241486 3.0986252 1.3159162
1.0306767 3.0696974 1.3203468
1.5174972 3.167973 1.3256274
5.2345796 3.856051 1.3240726
5.956429 3.9936824 1.3205574
0.29401231 2.9359479 1.3325566
1.8647752 3.2147493 1.3378847
2.4945958 3.3182373 1.3375348
2.536015 3.3619618 1.3332393
0.47466129 2.9663811 1.3433462
5.6148663 3.9328761 1.3434218
4.3534799 3.696291 1.3563474
5.5364203 3.9180555 1.3507415
2.6489851 3.3621349 1.3620764
4.401186 3.6881576 1.3689126
6.0027051 4.0135393 1.368154
3.3383689 3.505486 1.3712883
4.7330141 3.765594 1.3725501
5.3296814 3.8875718 1.3720417
0.57571399 2.99335 1.381178
1.6774466 3.1908178 1.3878785
3.4683888 3.5390558 1.3810055
4.9499745 3.8078465 1.382628
6.2340136 4.0120034 1.3814493
5.913404 3.9928155 1.3955214
6.1488881 4.0399337 1.3965014
0.63262826 2.9869146 1.409109
3.1184993 3.4733891 1.4027846
0.58458847 2.9774218 1.4179544
3.277899 3.4982624 1.4171082
3.7637715 3.5979567 1.4181089
4.196733 3.6730537 1.41245
3.3322246 3.490766 1.4260736
5.7986283 3.9640899 1.4218448
5.9173012 3.9911857 1.4205049
2.2852619 3.3144779 1.4370943
4.1107912 3.6496758 1.4379733
0.50889057 2.994215 1.4486725
3.4959328 3.5252643 1.4486101
3.7965598 3.5960946 1.4468884
4.9202595 3.8005018 1.4529701
6.2316494 4.0076489 1.4564825
4.0564613 3.6417885 1.4694541
4.2321501 3.672586 1.4679334
0.86258018 3.0426617 1.4770182
4.1603527 3.663291 1.476606
5.6072559 3.9357076 1.4735935
5.7068272 3.9449582 1.4836335
6.0530944 4.0183487 1.4859886
1.3248587 3.1175704 1.4970207
4.6221514 3.7669525 1.4994955
2.5208595 3.3541636 1.5028163
5.5928731 3.9154015 1.5084203
0.73910791 3.017694 1.5128561
2.8868675 3.4046879 1.5178124
5.076633 3.84659 1.5131564
5.8318372 3.9771485 1.5116911
2.9088054 3.416347 1.5332905
0.79670805 3.0303826 1.5493547
4.6298428 3.7371101 1.5460206
2.6168163 3.3638468 1.5545899
5.7697549 3.9519482 1.5510215
1.2299436 3.1121492 1.5606606
4.085382 3.6492281 1.5638449
4.982089 3.8235698 1.5695117
6.0159612 4.0064883 1.5661536
6.0339384 4.0078506 1.5623132
2.6724792 3.3915019 1.5701672
4.516747 3.7221627 1.574946
5.4169054 3.9002056 1.5832127
2.6454103 3.375545 1.593151
5.7788625 3.9548454 1.5954717
5.8480668 3.9930944 1.6030083
0.48172534 2.9856997 1.6191177
1.4799274 3.150104 1.6172165
2.7886338 3.3945231 1.6228547
4.8041215 3.7873111 1.6227195
3.4181714 3.5353079 1.6374854
3.8890076 3.6073532 1.633389
5.0281005 3.8293757 1.6326143
3.4525223 3.5185571 1.6416622
4.8053951 3.793138 1.6458205
0.47134149 2.9767771 1.6597539
1.1639682 3.0941935 1.6595683
3.8903842 3.5900698 1.6540385
4.1447582 3.6459465 1.653057
4.4217682 3.697526 1.6531976
3.3467879 3.5088134 1.6775218
5.7933903 3.9751129 1.6711332
1.9944417 3.2446446 1.6801295
2.559411 3.3772311 1.6861556
4.0524154 3.6495371 1.6875618
4.1959958 3.6608338 1.6803566
4.7364712 3.7728777 1.6896483
4.9642968 3.8097959 1.6877193
5.5755963 3.9330506 1.6881448
5.1797724 3.8356581 1.6980301
6.027143 4.0326614 1.694816
1.8135005 3.2135887 1.7060711
1.8310084 3.2294049 1.7035553
2.3247397 3.3370113 1.7012533
2.4148993 3.3377271 1.7074566
3.108413 3.467021 1.7039733
4.9657254 3.8049016 1.7063483
0.65066296 3.0029597 1.7124296
0.84238875 3.0322022 1.7183564
2.6359794 3.3644958 1.7199627
5.2946844 3.8715725 1.711482
0.37170154 2.9587979 1.7274966
0.54506767 2.9818296 1.7225147
5.0228753 3.8462791 1.7283236
5.6950202 3.9569044 1.7239573
3.8251958 3.6019325 1.746384
3.9236393 3.6115527 1.7487226
0.23591834 2.9029293 1.7575064
6.1237006 4.0346603 1.7510264
1.0629005 3.0763497 1.7633184
1.9567485 3.2452116 1.7667328
3.7284958 3.5745845 1.7630609
3.9475675 3.6101508 1.7661384
1.5993865 3.196909 1.775056
5.0153728 3.8115816 1.773384
0.28271693 2.9365792 1.7808154
5.1985812 3.8497844 1.7867905
5.9981174 3.9976907 1.7864616
0.63717955 2.9923053 1.7928658
1.0753076 3.0831213 1.796025
2.5976651 3.355269 1.8082583
3.0788085 3.4634156 1.8013868
4.2101517 3.6676946 1.8084538
2.0278735 3.2677999 1.8109109
1.1350448 3.0893469 1.8250139
1.7084001 3.1939435 1.8212614
5.2241769 3.8563762 1.8248787
0.92303085 3.0574608 1.8371685
3.9430184 3.6259398 1.8378453
4.3461761 3.6950121 1.8397944
6.2412295 3.9974842 1.835809
1.1707709 3.1188388 1.8407989
3.4997056 3.5346041 1.8424563
3.9562421 3.6236262 1.841892
6.0971761 4.0144372 1.8421409
2.1432989 3.2898426 1.8516507
2.9762828 3.4341846 1.8570681
0.83514822 3.0307093 1.8606133
3.2969849 3.4960575 1.8691866
3.7032771 3.5923972 1.8663354
4.4826212 3.6976175 1.8725047
0.6530332 3.0202451 1.8832815
1.0740491 3.0801477 1.8892329
6.1594515 4.0343328 1.8841472
0.25934455 2.9569507 1.8919253
1.6947186 3.1986609 1.8969679
4.2894301 3.6822348 1.8992219
5.1899648 3.847888 1.8902071
4.6597371 3.7526202 1.9059224
0.61569911 3.0001307 1.9100776
0.28391004 2.8896184 1.92559
2.3960156 3.3304405 1.928906
3.3427386 3.5030155 1.9200218
0.91350675 3.0468221 1.9381216
2.2441096 3.3009081 1.9311557
4.5547419 3.7255549 1.9333801
4.8936014 3.7893476 1.9390574
1.1813804 3.1139317 1.9443929
5.7521653 3.9738216 1.9504654
