# .PCD v0.7 - Point Cloud Data file format
VERSION 0.7
FIELDS x y z
SIZE 4 4 4
TYPE F F F
COUNT 1 1 1
WIDTH 113
HEIGHT 1
VIEWPOINT 0 0 0 1 0 0 0
POINTS 113
DATA ascii
4.3118157 0.5267964 0.063665867
4.3319631 0.90317261 0.076003939
4.3339815 0.11721092 0.12441912
4.3346157 0.24375278 0.15517375
4.307734 0.81056446 0.15299276
4.3231254 1.2288098 0.1606015
4.3168025 1.1380529 0.17801139
4.3524847 0.16636962 0.20272192
4.3322859 0.18953249 0.23846656
4.3147502 0.7147606 0.297149
4.3395901 0.28931919 0.31676537
4.3078885 0.75024897 0.35567832
4.3284049 0.43429661 0.36858207
4.3428016 0.11318836 0.37491405
4.3162203 0.66865587 0.37336671
4.3223853 0.58464766 0.38687372
4.3303924 0.7281341 0.40760547
4.3366795 0.1226742 0.41727161
4.3280106 0.14006618 0.41908425
4.3240047 0.58421469 0.42049485
4.3207598 1.0810299 0.43569058
4.3394246 0.27024454 0.45002037
4.3236356 0.18669599 0.47016978
4.3234301 0.35527974 0.50918192
4.3228092 0.77614164 0.50798941
4.3342443 0.33183146 0.51493818
4.3005204 1.4879048 0.52607167
4.3314414 0.8844775 0.54271823
4.3037453 1.1982442 0.55095601
4.3093362 1.4109453 0.55669165
4.3116722 0.80484527 0.57817239
4.3407335 0.066977039 0.5901382
4.3260922 0.40919435 0.59440005
4.2971678 1.436918 0.6870122
4.3266921 1.1384032 0.69598478
4.3165264 0.72197646 0.7039274
4.3253102 0.82337224 0.7196601
4.3537178 1.5111367 0.71454871
4.3004808 0.92710066 0.74530733
4.3272305 1.0298175 0.74683303
4.3083544 1.1402949 0.75134659
4.3103595 0.4110741 0.77916861
4.335742 0.39238065 0.79546487
4.3632011 1.5045726 0.79373646
4.3389854 0.40526795 0.80744696
4.3364301 0.87060404 0.80524051
4.3388572 0.31852978 0.818681
4.301795 1.1588511 0.8136785
4.3154812 1.2990985 0.85919762
4.3270459 0.67141086 0.86769521
4.3184853 0.31237879 0.87030244
4.3138986 1.4556252 0.89571309
4.3119602 1.287935 0.92242718
4.3359761 1.5213947 0.942222
4.3311849 0.10111663 0.96136034
4.3050475 0.55672026 0.99666691
4.2945981 0.85317171 1.0023373
4.3228941 0.83924043 1.0271597
4.3010364 1.4376633 1.0331764
4.3095636 1.4561732 1.0365602
4.3119664 0.52348685 1.0845778
4.3118339 1.3087802 1.0967458
4.3182988 1.4206451 1.1267669
4.3069305 1.2277184 1.2029604
4.349124 1.5057025 1.2026627
4.3305593 0.85864437 1.2446098
4.3375239 0.19820213 1.264699
4.3589368 1.5183628 1.3066065
4.3176293 0.76953983 1.3119476
4.3118057 1.2004461 1.3105959
4.3384252 0.083214685 1.3334436
4.3346381 0.41553992 1.4270402
4.3354387 0.073573008 1.4529243
4.3341188 0.12360108 1.467383
4.2992935 1.3664578 1.4690663
4.2921143 1.4014072 1.4678632
4.3438754 0.11342266 1.4802176
4.310338 0.36738259 1.4930936
4.3163676 0.55364746 1.5076536
4.3553157 0.19307563 1.5117292
4.3239784 0.29328194 1.5160615
4.3165021 1.0068758 1.5148189
4.3326006 0.087601587 1.5586163
4.3245916 0.29883906 1.5597526
4.3199897 1.1129928 1.5559045
4.3106337 0.96303451 1.5745384
4.3141842 1.3457686 1.5764409
4.3108983 0.27943128 1.5804756
4.2977848 1.2868526 1.5827202
4.3343759 0.075334385 1.6083653
4.3145132 0.8657515 1.6033564
4.3155813 0.9455483 1.6010153
4.3286996 0.52694207 1.6257274
4.3204393 0.21925873 1.6595094
4.341321 0.4777233 1.6542801
4.3284726 0.34951651 1.6711767
4.328825 1.5257316 1.7091461
4.3198214 0.7498309 1.7324948
4.327457 0.47663069 1.745947
4.3096333 1.229336 1.7497361
4.3048129 0.32887655 1.7689563
4.3211007 1.1336362 1.7669877
4.3124809 0.70276523 1.7717981
4.2962761 0.6647647 1.795891
4.3142476 0.59348905 1.8053257
4.3323512 0.31155774 1.8423018
4.3045983 1.467465 1.8424208
4.3138366 1.1087732 1.8533955
4.3230333 0.17217314 1.8600185
4.3199444 0.88722014 1.8766317
4.3394532 0.11265507 1.8923607
4.3001628 1.2196454 1.9120793
4.3031611 1.4036527 1.9440756
