# .PCD v0.7 - Point Cloud Data file format
VERSION 0.7
FIELDS x y z
SIZE 4 4 4
TYPE F F F
COUNT 1 1 1
WIDTH 770
HEIGHT 1
VIEWPOINT 0 0 0 1 0 0 0
POINTS 770
DATA ascii
0.46041697 1.875105 -0.03213878
1.7109311 0.14069176 -0.022777975
2.8795235 0.18386152 -0.020235181
1.5187784 0.23869267 -0.021390781
0.42439073 0.26885417 -0.026034489
1.0035688 0.37365556 -0.020721197
1.6037772 0.8897469 -0.026370347
1.9807992 0.97558415 -0.025764391
1.0754322 1.4063476 -0.0216555
3.227242 1.467748 -0.022962198
2.0964277 1.5602944 -0.025905222
1.7542225 1.699457 -0.022973031
0.37187439 1.7746594 -0.024457365
2.0339556 1.8491427 -0.022079915
1.4768888 2.2008767 -0.020124614
0.64404178 2.3132472 -0.02493903
0.42824292 2.7343187 -0.022959113
2.1284482 3.255291 -0.024482191
2.6829484 0.023841068 -0.015131027
0.33290935 0.037341326 -0.013060525
3.3816752 0.0473997 -0.019419581
0.33973134 0.096313804 -0.019975692
2.5329814 0.093184024 -0.017362416
1.0473753 0.14795089 -0.012217671
3.4225757 0.149627 -0.012933344
2.2153659 0.19163185 -0.017602161
3.9409585 0.21163204 -0.01214388
0.65609282 0.42844671 -0.011059284
0.59988606 0.55462146 -0.013090402
1.9768853 0.56967545 -0.014461756
1.0660229 0.6020757 -0.016348153
1.4023595 0.63806611 -0.010635018
1.4233232 0.67861098 -0.016858175
0.978163 0.75224596 -0.016720504
3.000236 0.78722435 -0.015477389
2.7564251 0.82852173 -0.013438508
2.7474303 0.83359438 -0.01560311
0.33650792 0.84206057 -0.019582793
4.1922064 0.86847496 -0.012326211
0.76719481 0.87686801 -0.015574887
2.6334102 0.8795346 -0.011144772
3.4656422 0.91884625 -0.013984621
2.5817292 0.93866408 -0.015800342
1.6122839 0.96534133 -0.011926711
1.3392477 0.98137629 -0.016445056
0.44280809 1.0477883 -0.01153028
1.8656054 1.1005847 -0.016149491
2.3139384 1.2812529 -0.010696813
3.3792377 1.3670239 -0.01869306
1.3478826 1.4088064 -0.012168214
0.50179559 1.4175918 -0.019734338
0.30648383 1.4253898 -0.014387518
1.3626002 1.4225676 -0.010156482
0.39194047 1.4686453 -0.010806844
2.667846 1.5051521 -0.015631095
0.6312902 1.5415834 -0.016913831
2.0359597 1.5854155 -0.016910255
1.6988127 1.6045727 -0.013544202
1.0719142 1.6261908 -0.01430276
0.57089478 1.690262 -0.014543429
1.2701129 1.6985042 -0.012480363
1.3013061 1.6947261 -0.018929571
0.59589934 1.7236322 -0.019359916
1.2751524 1.722976 -0.01196143
1.4744116 1.7475287 -0.011174664
0.97312772 1.7582362 -0.011657506
2.7067778 1.7606826 -0.010921761
0.6838339 1.8169516 -0.01559779
1.7941307 1.8196639 -0.016441017
5.0400929 1.8467628 -0.018854752
0.40417022 1.8726577 -0.014658898
3.0505977 1.88243 -0.010095716
1.8640971 1.9067961 -0.016310975
0.70111507 1.9396175 -0.013376564
1.1394147 1.9434973 -0.016229674
0.50453961 2.0646653 -0.011317179
4.5582228 2.10219 -0.01218158
1.6248429 2.1451516 -0.018601313
0.39458644 2.220264 -0.018259406
3.7517135 2.2650466 -0.012044132
4.7226009 2.2887769 -0.010467201
2.7103693 2.3005395 -0.011558101
0.39720881 2.3173966 -0.015632033
4.1933374 2.3894858 -0.013310909
2.1517253 2.3946304 -0.017907038
0.51240647 2.4237256 -0.01201652
1.9232261 2.4332814 -0.012352705
5.5361452 2.4427304 -0.010615841
2.6904707 2.4872093 -0.013155311
2.4094429 2.5448198 -0.013658494
1.3046612 2.5830131 -0.014905632
2.824739 2.6530108 -0.019093469
0.44749838 2.6897907 -0.012397468
3.9667563 2.6818881 -0.017220467
3.6108186 2.7098141 -0.014482975
1.1253215 2.7306452 -0.010508507
3.5897121 2.7614551 -0.012909397
1.1326662 2.7877679 -0.011554435
2.7549832 2.7816248 -0.012911141
0.35143614 2.7967958 -0.011047438
1.2642974 2.7985721 -0.015559733
1.2700064 2.8029165 -0.016311064
1.8196452 2.8498421 -0.010812506
3.21911 2.8583961 -0.014802739
1.8789146 2.8803577 -0.011058912
3.3663843 2.8996592 -0.013921946
5.3264313 2.9226317 -0.013115242
0.77975941 2.9547253 -0.014517918
1.2808939 2.9624305 -0.010996148
4.1271453 3.0756607 -0.012774915
2.8207569 3.2680421 -0.011338443
4.2118692 3.3197904 -0.016618252
5.359623 3.3111176 -0.015332356
2.7408328 3.3692122 -0.01749377
3.7073309 3.4608617 -0.010071456
5.7281489 3.9264994 -0.014493495
2.7199559 -0.015498519 -0.0087859482
2.5340488 0.039632291 -0.0059597939
4.2747703 0.047456548 -0.0031036586
1.0850753 0.050179124 -0.00035637617
2.2190962 0.064117 -0.0089633167
2.5090945 0.0648081 -0.001498282
3.6896584 0.064837918 -0.0010691285
0.85981166 0.08098954 -0.0086806864
2.3378518 0.12672696 -0.0019350499
3.6602929 0.16671935 -0.003637448
0.48172349 0.17800626 -0.008654058
1.3238511 0.17027745 -0.0060541779
1.8665469 0.20958322 -0.0013548583
1.0697242 0.21790451 -0.0071540028
0.5807721 0.22456986 -0.0076365918
2.3144472 0.22245041 -0.0072236955
0.66958725 0.25804695 -0.0031108558
3.0680468 0.25850713 -0.0087418109
1.5401002 0.26817337 -0.0096829534
0.659136 0.30395907 -0.0028470755
1.9610546 0.30749074 -0.0011738688
4.2150927 0.30321276 -0.0039205998
0.87284005 0.31552312 -0.0042496473
0.80577999 0.34412187 -0.0028062761
3.0836699 0.34797817 -0.0053963214
1.1687797 0.40098953 -0.0027412176
2.4330456 0.40333188 -0.0036474615
1.7475107 0.41504341 -0.0017397255
4.2265916 0.45747972 -0.0040672272
3.0200179 0.47235966 -0.0043393373
3.4464755 0.48073864 -0.0025891215
0.65892893 0.4970547 -0.0052699149
0.70587331 0.51910251 -0.0051503778
1.0320849 0.51382053 -0.00067062676
1.721657 0.52304286 -0.0044859052
1.7579324 0.5437699 -0.00032867491
3.1667929 0.54135048 -0.0022034198
2.355211 0.56161171 -0.0089673996
0.77569932 0.57431799 -0.00057530403
2.903383 0.57303274 -0.0099910498
3.3643868 0.59707111 -0.0048816353
1.2539642 0.6205523 -0.0011347383
1.9396932 0.62706792 -0.0051016957
3.5804224 0.63687706 -0.008009389
0.30968767 0.65846276 -0.0056599677
0.76802009 0.65942717 -0.0090061724
2.5055869 0.67202944 -0.0058490485
3.7620792 0.68076837 -0.0037487745
1.533573 0.7061078 -0.0036513358
1.6985767 0.70589161 -0.0046985447
1.789223 0.70857799 -0.0050735325
2.99472 0.7235862 -0.0024155676
4.3289428 0.72777486 -0.0020131767
0.70549744 0.75885177 -0.0087611377
3.5537207 0.79439235 -0.0035067797
3.0041707 0.81107348 -0.0035452247
0.84714437 0.82464445 -0.0013808757
0.96352363 0.82415301 -0.0071088374
2.3496153 0.84167093 -0.0076852888
1.2801214 0.8517679 -0.0099814832
3.327508 0.85444427 -0.00042559206
1.7445303 0.862993 -0.0062565804
1.8801074 0.86914253 -0.0065811872
2.4639685 0.86940241 -0.0060586333
4.0368719 0.87712824 -0.0071199238
1.581332 0.88470209 -0.0066832751
3.8497343 0.90714335 -0.0033164471
2.9685991 0.91453075 -0.008509174
2.6375556 0.93590677 -0.0097645819
3.0581477 0.93076825 -0.0058318228
2.2792628 0.94972003 -0.004469648
0.83351165 0.96722627 -0.00038436055
4.3277149 0.96101582 -0.0088182539
2.5786762 0.97262871 -0.0096105486
3.6998363 1.0079318 -0.0043797642
0.59104091 1.0115709 -0.0046724975
0.45998365 1.0244144 -0.0023759007
2.5324736 1.0364764 -0.0048705339
3.3885181 1.0358857 -0.0063841641
1.0088391 1.0420955 -0.0035192817
1.2586125 1.0496757 -0.0031640828
1.8007386 1.0545144 -0.0080330521
0.45771092 1.0633525 -0.0041116923
2.1610088 1.0723935 -0.0012770444
4.1557074 1.0980633 -0.0038763583
0.57976466 1.1063437 -0.0039048493
0.38497585 1.1239953 -0.0049691945
0.65877891 1.1698656 -0.0096692145
1.4064162 1.213817 -0.0093963742
3.1866438 1.2156332 -0.0055792481
2.8022866 1.2587693 -0.0079432577
0.98071218 1.2974821 -0.0068353415
2.8615983 1.2936465 -0.0081849545
2.1308959 1.3093553 -0.0028867424
4.1933722 1.3133068 -0.00033152103
2.1910324 1.3533198 -0.0073087513
4.1125593 1.3553455 -0.0065982938
1.2104808 1.3642302 -0.0034255981
2.7007585 1.364313 -0.0075470209
2.4208927 1.3752246 -0.0023465157
0.39484751 1.3807534 -0.0064326823
0.47249514 1.4251155 -0.0021100342
1.3922874 1.4670635 -0.0008033514
1.1314546 1.4733359 -0.0064486563
3.193377 1.4886981 -0.0080398023
0.42172647 1.5525787 -0.0077709854
3.6878324 1.5664003 -0.0083406419
2.0297482 1.5706992 -0.0092526823
2.2937627 1.5832998 -0.0046378374
0.33360231 1.6099038 -0.0079237372
0.39828885 1.6051359 -0.0020845085
0.63651925 1.6016831 -0.0063106418
1.1499032 1.6036698 -0.0049386024
0.33719349 1.6130283 -0.00800322
3.1458781 1.6224346 -0.0026761889
4.751143 1.6380703 -0.00098375976
2.1166611 1.6434292 -0.005880475
3.6280527 1.6429826 -0.0048754364
0.86472011 1.6699721 -0.004248023
1.4966716 1.7153231 -0.0034200698
3.4847884 1.7174271 -0.0097872317
0.43941623 1.7275137 -0.0007494241
3.2194707 1.7310756 -0.0027301759
0.3074494 1.743533 -0.0026576668
2.8005443 1.7539549 -0.0092788339
3.4874196 1.7548978 -0.00018694997
5.1059103 1.7565519 -0.0061738044
2.2371478 1.7715838 -0.0019652843
2.4661207 1.7814571 -0.0090266168
2.5736272 1.7887052 -0.001868248
0.6730839 1.8112438 -0.0097927302
2.2062001 1.8430949 -0.0010814816
3.8727555 1.847993 -0.0032940805
3.659852 1.8665165 -0.0039635003
2.7069271 1.8845099 -0.0005132705
1.6502959 1.9610614 -0.0035798401
4.4403162 1.9672214 -0.00075113773
0.29129821 1.9772619 -0.0091943741
1.6275272 1.9770538 -0.0021427423
4.8639894 1.9736565 -0.00033840537
2.6074116 2.00488 -0.0043893158
0.67209065 2.0375686 -0.0044756979
1.4663284 2.0377145 -0.0090740919
3.6473625 2.033433 -0.00032010674
1.0146061 2.0860319 -0.0010199249
1.4943815 2.1038427 -0.0014870614
5.450623 2.1068144 -0.0028253943
0.29327235 2.1117225 -0.0050150007
4.0962725 2.1168804 -0.0067287982
4.8426595 2.1320629 -0.0049629658
0.99445248 2.1608486 -0.0043833554
2.9952092 2.1782279 -0.00015501678
4.07584 2.1915278 -0.0068908334
0.3427422 2.2036977 -0.0028517991
0.76079518 2.2149158 -0.0092978328
2.6162899 2.2159009 -0.0035743415
0.54911059 2.2385073 -0.00069820881
0.5480386 2.2525153 -0.0024873614
4.6179633 2.2549763 -0.0066974759
1.0335605 2.2828422 -0.0070396066
3.6468589 2.3195014 -0.0093278885
1.28984 2.3360128 -0.0027432293
2.3309379 2.3469887 -0.00045745075
0.67028159 2.3650618 -0.0039377809
2.3938255 2.3708324 -0.0099399984
1.3389088 2.4073453 -0.0014237165
3.5502927 2.4012513 -0.0038061738
2.3580351 2.4218388 -0.008200109
1.0834285 2.4386988 -0.0085461289
1.7356055 2.4564595 -0.0036482364
2.3773224 2.4629383 -0.0092586577
4.1228948 2.4775076 -0.0078785121
5.6316152 2.4751196 -0.0093572885
0.61622071 2.4800057 -0.0093460381
2.8440883 2.4954205 -0.0041708946
1.346118 2.5000162 -0.0061836094
1.4888394 2.5086713 -0.0069973618
2.9708393 2.5155377 -0.0019659251
4.8464098 2.5357852 -0.001229614
1.5733831 2.5410209 -0.0022104383
2.9201732 2.5539927 -0.0026594996
1.7939432 2.5609851 -0.0019233674
0.40182459 2.5727444 -0.0033761263
1.6361539 2.5830674 -0.0018445253
3.3455119 2.5819631 -0.0055947304
5.5994697 2.6045852 -0.0042100102
2.4343417 2.6341763 -0.0011635572
5.0764985 2.6364708 -0.00025811791
2.5950894 2.6689229 -0.00028297305
1.8697469 2.687325 -0.0026536733
0.75370854 2.6986141 -0.0082508177
1.9926322 2.7044363 -0.0018760264
1.7002728 2.717021 -0.0047412217
0.56639773 2.7678819 -0.0033452511
5.1874037 2.7656684 -0.0018648952
2.0413649 2.7806144 -0.0045026392
4.6210203 2.7922807 -0.0062196106
2.7194777 2.8126302 -0.00036919117
4.0167041 2.822103 -0.0036757141
0.32705301 2.8396931 -0.002965048
1.2136087 2.8382316 -0.007351324
1.6558661 2.8418612 -0.0059836358
2.1589205 2.8895154 -0.00072902441
5.8057203 2.8811202 -0.0042279661
3.2334404 2.8970299 -0.0047327131
3.2981029 2.9048872 -0.0041563362
4.3683963 2.9021921 -0.0041823387
2.0880003 2.9212494 -0.00016777217
0.56722426 2.9440165 -0.0035868734
3.8483405 2.9525366 -0.0032420456
3.6014667 3.0339541 -0.003543824
1.3450768 3.0495095 -0.006847918
1.8263234 3.0664015 -0.005516693
1.3080788 3.0929589 -0.0057749152
1.3817648 3.0989046 -0.0087109655
1.9996057 3.1263652 -0.0047572851
3.89538 3.1296506 -0.0036954284
5.1235838 3.1477013 -0.0030578971
3.4085979 3.1614618 -0.003629759
2.6606441 3.1716304 -0.0025006831
4.3747106 3.183568 -0.0032213181
1.7140448 3.1910701 -0.0090109259
2.0192366 3.1923184 -0.0015423596
2.8750837 3.1998396 -0.00065389276
2.9266126 3.2020383 -0.0028005093
2.4522984 3.271019 -0.0098144561
3.0121572 3.3596978 -0.0070629269
4.7166662 3.3785229 -0.0061284304
3.1281967 3.4139209 -0.002582401
3.1496565 3.4350309 -0.0022574365
3.4514384 3.4398746 -0.0044375956
5.7754235 3.4362578 -0.0012629777
5.6306233 3.4930272 -0.0008495003
4.7526217 3.5066614 -0.0091473758
3.6654351 3.5795741 -0.0029778033
5.6079721 3.637804 -0.0005723387
4.4174891 3.6955509 -0.0026546568
6.0392032 3.7197866 -0.0011422038
5.1419177 3.7398067 -0.0048304498
4.8958921 3.7645159 -0.0022345781
6.0159993 3.7947135 -0.00037950277
5.7222157 3.9526768 -0.0085565299
1.0960647 -0.05363781 0.0030547082
2.5481267 -0.052256033 0.00063982606
0.72849721 -0.037459806 0.0066023916
1.6842421 -0.034763083 0.0093290359
2.1756725 0.0053974837 0.0045312643
2.3421154 0.032004401 0.0098121017
2.8928862 0.042530298 0.00046366453
4.2190919 0.053936645 0.0024632663
2.652297 0.10873282 0.0062963963
3.2757568 0.12303171 0.0034532398
1.7710153 0.13903755 0.0082249045
3.8327703 0.13252804 0.0072506815
3.5935059 0.15928182 0.0064480901
2.0902519 0.19914263 0.0034410506
3.2886128 0.22693327 0.0011250824
3.7634194 0.22107264 0.0060962141
3.8514638 0.23446357 0.0021160245
2.1056676 0.24786666 0.0023417771
1.0580369 0.27375254 0.0055550933
3.3521173 0.33321601 0.0090636164
3.8475332 0.33220857 0.00054010749
0.715446 0.34303975 0.0089420825
1.1863729 0.34562278 0.0023246706
0.62643361 0.35871547 0.0035113841
2.490798 0.39206654 0.0093709528
2.6732495 0.39781976 0.0047427416
1.9524271 0.4311716 0.0027751178
2.9511626 0.44867229 0.0060392469
3.3156934 0.46949005 0.0015358627
3.5180714 0.46538472 0.002769649
1.9095502 0.48621076 0.0099157244
2.6905639 0.48270679 0.0047353506
3.7457862 0.48647791 8.7365508e-05
4.0067468 0.49655622 0.00073622167
1.815285 0.50145429 0.00081323087
0.33316791 0.51557672 0.0019525737
0.53400606 0.52934986 0.0063788891
0.77469897 0.55531853 0.0073462576
1.9377334 0.55983591 0.0020089149
3.7916334 0.55431569 0.0096212029
1.1285069 0.58069426 0.0014535338
0.84623218 0.61877614 0.009208411
3.2491076 0.63190883 0.0027406961
2.005424 0.64003044 0.0010016114
0.80241817 0.66219097 0.0072771162
3.6887531 0.66551423 0.0084854662
0.87379849 0.69411469 0.0088283718
3.2455714 0.71100575 0.0046782196
3.887743 0.73742425 0.0075516701
3.2030401 0.74932152 0.0016412288
1.5046812 0.75435138 0.0068044364
1.6163856 0.75114584 0.0090293735
3.1001372 0.75745618 0.0034045279
0.78798789 0.78832084 0.0032026172
3.5873656 0.80495399 0.0051615834
3.6826258 0.83998162 0.0018222481
3.3062401 0.85078621 0.0031346232
3.9862318 0.88065481 0.0074584186
1.5847313 0.92762101 0.0058643371
3.8235457 0.92452729 0.0081663728
3.1064591 0.93635583 0.0078828484
2.206857 0.94316471 0.006241262
2.2888942 0.95218742 0.008573994
2.6220601 0.96667314 0.0081337988
0.43060762 0.99697816 0.0055730492
0.37732142 1.0075372 0.0057095438
2.8021097 1.0012727 0.0079164207
3.0742762 1.019776 0.0043220222
3.7483041 1.0233141 0.0030964762
1.6647818 1.0814695 0.0030922741
3.6697624 1.0927842 0.0023378432
3.3145723 1.1459496 0.0067997426
2.8040667 1.1541079 0.003227815
1.2442298 1.1600889 0.003156662
1.9404912 1.1629782 0.0026390254
2.1375291 1.2035843 0.0091301203
0.42929685 1.2223763 0.0012293011
2.7077174 1.2342259 0.00033831596
0.93907964 1.2433791 0.0058010221
4.2822642 1.2452281 0.0055123419
2.3122017 1.2590079 0.008280009
3.7322745 1.3718002 0.0017443597
2.2074676 1.384818 0.0015389174
1.7574148 1.3917022 0.0080213696
3.489495 1.4395891 0.0088956654
0.68483269 1.4476291 0.0048068017
1.8862841 1.4468855 0.0088226497
1.3706131 1.4505191 0.0036450624
1.7015227 1.469098 0.0081774294
2.506232 1.4765947 0.0071300715
1.9106035 1.5739944 0.0079372823
4.4283285 1.5777062 0.0034221709
3.6345925 1.5895708 0.0059234053
3.8138685 1.5946603 0.004197523
0.98683679 1.6097728 0.0025440753
1.2504678 1.6097835 0.0045906305
0.43221056 1.6213949 0.0094513744
3.672565 1.642944 0.0020151436
2.1562109 1.6572547 0.0022231787
2.4555266 1.6504331 0.0021257699
4.7627039 1.6506153 0.0011425912
1.8245112 1.6639954 0.0073312521
4.0778027 1.6966211 0.00048342347
4.3542619 1.694091 0.0060201883
1.7545068 1.7066083 0.0082919002
2.5254726 1.7093992 0.0085857064
2.6762228 1.7192448 0.0099877119
2.8162098 1.7108405 0.00051631033
3.3271008 1.7185993 0.0080684125
0.82452947 1.7223035 0.00053137541
4.7072301 1.7441392 0.0041365921
4.9370975 1.7483177 0.0047522336
2.8111913 1.7567594 0.0038176775
4.9118152 1.7679139 0.0099421293
4.9669461 1.7778778 0.0061272979
1.2985427 1.8098116 0.0033410043
0.47457516 1.8502971 0.0017959923
3.1996465 1.8562933 0.0045035183
5.1344914 1.8568252 0.0064544529
4.3087301 1.8653594 0.0071857125
4.9048853 1.8813976 0.0043962151
3.9103713 1.8940915 0.0096565932
2.3062069 1.9374908 0.0045009553
5.1153498 1.9478773 0.0091120005
3.664844 1.9688607 0.0050088465
1.0447797 1.9825624 0.0099692941
3.0541518 1.9848899 0.00041386485
1.3569138 2.0009317 0.0023732334
3.2086165 2.0272279 0.0029687881
5.3408213 2.0216036 0.0027169287
5.3845153 2.0321884 0.0073785782
0.66428941 2.0522656 0.00016444921
2.8890791 2.0610328 0.00019282103
5.0116115 2.0892081 0.00014312565
1.4719664 2.0942569 0.0028428584
5.2949924 2.1544557 0.005145371
5.372283 2.1679826 0.0048019439
1.5425113 2.1724715 0.00044038892
3.2026176 2.1749988 0.0073120743
2.7690237 2.1948066 0.0030594021
4.2778382 2.2033958 0.0058304369
4.0685134 2.2192497 0.0078810006
3.5277874 2.2593122 0.0038705468
2.5358901 2.2661576 0.0018875003
4.5391893 2.2704134 0.0055014789
1.9769125 2.2836528 0.0034004003
1.4625432 2.2981997 0.0030702949
3.1143305 2.3139997 0.0010175705
2.5574772 2.3294425 0.0046695918
3.7282362 2.3294168 0.0068057775
4.7294364 2.3494296 0.0067780614
2.3170052 2.3545189 0.0016457438
2.7551613 2.3526745 0.0010117441
3.2024789 2.3517618 0.0064903498
3.1756368 2.3622227 0.0097698569
3.4989386 2.3825855 0.0038927495
4.1925449 2.3906212 0.0028090328
1.3045454 2.4020462 0.0038874596
4.0817699 2.4079833 0.0045232177
1.1124424 2.423882 0.00092872977
4.877111 2.4223866 0.0096773952
5.5754724 2.4201627 0.0056867152
3.9846501 2.4693084 0.0051016808
1.0506773 2.4791684 0.0076389164
5.3612041 2.4713316 0.0075709075
5.5539346 2.4914622 0.0039934963
5.2653127 2.508595 0.0028969795
4.2918129 2.5263224 0.0030891597
2.1611829 2.5315304 0.0078273118
2.8584361 2.5408149 0.0051268041
3.1375456 2.5402551 0.0033487082
4.9980116 2.5488596 0.0050771981
2.2695422 2.5726209 0.0001322031
3.0448105 2.5803084 0.0050187409
5.3709068 2.5837436 0.0066442192
2.1471601 2.5956097 0.00464122
1.692924 2.6009192 0.003382057
4.7446675 2.6052461 0.0064565837
2.0599978 2.6213441 0.0041414946
4.1627131 2.6267719 0.0005440414
3.3647671 2.6330209 0.0037702322
2.3694212 2.6425815 0.0030248016
2.7107058 2.6607308 0.00060066581
5.1901011 2.6906195 0.0052897185
2.1682177 2.7096767 0.0022348464
1.1565826 2.7133904 0.0038840771
1.5011461 2.7111397 0.0018648058
1.6007309 2.7342963 0.0084892064
3.6634915 2.7439241 0.0050717741
5.3622799 2.7439704 0.0024436563
4.7981114 2.7629857 0.0045514852
4.0923338 2.7752361 0.0024627745
1.1915953 2.7846828 0.0048938841
2.3954847 2.8051372 0.0038970411
3.5398161 2.8265166 0.0074278265
1.7699685 2.8392615 0.0080864727
1.2742871 2.8427792 0.00081144273
2.1496706 2.8456163 0.0034202486
4.6052461 2.8436899 0.0052537918
0.27337638 2.8521662 0.0020914823
4.9823742 2.8552723 0.0097687989
0.42773688 2.8601494 0.0076207668
5.0030017 2.8670478 0.0081619471
5.6344967 2.8606997 0.0079666674
4.3323045 2.8823614 0.0078834593
5.5113564 2.8808317 0.0039677024
2.0680442 2.9027052 0.0021878034
0.54456991 2.9314184 0.0083265305
3.8944817 2.9355154 0.0024936795
3.9570446 2.9415169 0.0041316897
4.6566825 3.0058422 0.0091475546
5.774858 3.024919 0.0072644651
2.1933298 3.0684276 0.0025818199
1.0502297 3.0772943 0.0037745535
3.3633454 3.0771575 0.0072401762
3.7664316 3.0770564 0.0065807104
3.4098842 3.0870662 0.0023302287
4.0096049 3.0815582 0.0079752356
1.5222868 3.1246719 0.0068331063
3.857141 3.1671829 0.0055471361
3.0954418 3.178371 0.0033738166
3.237294 3.1830912 0.0083120763
1.8231457 3.2103243 0.000689134
3.6538365 3.2252417 0.0079352707
2.6719213 3.2379093 0.0070836544
5.501729 3.2300777 0.0015883595
3.4359436 3.2553482 0.0063589066
4.0564442 3.2633791 0.0059438497
4.7431498 3.2668848 0.0081964731
4.4817295 3.2777567 0.0095949918
2.6508837 3.2947631 0.0081058294
2.9406054 3.3175416 0.0097751319
4.3805509 3.3154845 0.008754313
4.0652828 3.3311925 0.0085804164
5.9144788 3.3367472 0.0097792
3.2829187 3.3591275 0.0081429034
2.7766776 3.364614 0.0025051534
4.3677397 3.3660107 0.002181679
3.9852962 3.3893666 0.0060737878
4.273982 3.4471879 0.0079979151
4.8319168 3.4419985 0.0037294924
4.0217834 3.5275354 0.0069886446
3.5085289 3.533515 0.0052538812
4.3525319 3.5377455 0.0023730844
5.4239535 3.6027055 0.0047294497
5.4536076 3.6808267 0.0062145889
5.6215591 3.8312135 0.0037265867
6.2091713 3.9234691 0.0060585439
2.2669706 -0.026212022 0.012696251
3.6040204 -0.0033007413 0.017658323
3.1895859 0.018285558 0.016679734
1.1377335 0.1801956 0.016906902
3.5464714 0.23106614 0.013645113
3.9220977 0.26213223 0.01682359
0.42484784 0.29982543 0.015957654
0.60108858 0.32852548 0.010928348
2.4929729 0.41833532 0.011072159
2.7474437 0.43041265 0.010381028
1.5086944 0.49338102 0.010778189
0.6035167 0.52707022 0.013525411
3.8281345 0.57582474 0.01519376
1.9658165 0.60045832 0.010817453
3.2419229 0.62411118 0.017489403
2.8008962 0.70192975 0.013403803
3.9000216 0.74007827 0.012854546
1.4488696 0.81758732 0.010831952
1.1231806 0.83455616 0.010864258
2.5674803 0.99908197 0.012411222
0.8155973 1.0135152 0.011433482
2.7629449 1.0256964 0.017390549
3.7436457 1.0888004 0.012697875
2.7936397 1.0910935 0.011169255
3.6210558 1.0959032 0.013715118
1.6718383 1.1943194 0.010131836
2.1801679 1.2105122 0.013325453
2.8004434 1.2222866 0.011521101
2.8948905 1.2886738 0.015583172
4.0322905 1.4578139 0.011072218
2.1168602 1.4967732 0.015730485
3.1033618 1.5029202 0.010370463
3.442054 1.507305 0.01478529
3.0753236 1.6554338 0.019054145
4.4890652 1.6544281 0.010002464
5.0396671 1.6626835 0.010114461
3.6764848 1.6752602 0.010021061
2.881367 1.6844325 0.018136218
5.0879407 1.7250423 0.010080352
2.9788918 1.751395 0.011185706
4.3148804 1.8017089 0.018436104
0.41616547 1.8214453 0.014098585
5.3554354 1.8245544 0.017766193
1.9211743 1.8328587 0.012432337
2.164665 1.8788322 0.014932677
4.2092142 1.8946699 0.010341361
5.210372 1.9350873 0.012960434
2.2470074 1.9505211 0.011833996
3.8059347 1.9783815 0.011449561
5.060575 2.009881 0.016076803
5.4402432 2.0378714 0.01573123
5.463367 2.0756974 0.01243794
0.91073787 2.1109204 0.011685789
4.054666 2.142736 0.010752469
4.1358852 2.1686068 0.015980065
0.27147621 2.1969142 0.010214716
3.4090872 2.1995335 0.010456786
3.2802052 2.2133245 0.010502994
4.8341556 2.2796426 0.014465451
3.7101352 2.2995505 0.016458556
5.2893171 2.3554826 0.01798512
5.0538998 2.3683167 0.013784215
5.5556126 2.3739676 0.012733608
2.7081559 2.464262 0.013081148
4.7758613 2.4864917 0.01294522
4.1791248 2.605113 0.016403049
4.7071261 2.6767392 0.012617856
5.6591158 2.7343507 0.01420635
5.2320271 2.7647095 0.01894775
3.5417893 2.7897954 0.012905657
2.9098675 2.7963753 0.018828854
3.4024603 2.8132892 0.015913486
4.8265319 2.8367524 0.01198718
2.2933092 2.8507667 0.010290235
3.8927574 2.853909 0.012227327
1.7925912 2.9091568 0.013057113
3.9863234 2.9080272 0.016116902
4.8439784 2.9012151 0.013838485
5.2654223 2.9048166 0.018346608
4.1043119 2.9309678 0.012311265
2.0512688 2.9939713 0.01888293
2.0212049 3.0001688 0.013578907
5.5331154 3.0041122 0.012787625
1.5871284 3.011375 0.015216187
4.5201735 3.1272192 0.010587916
5.2937994 3.1619568 0.01594314
3.7192955 3.1993642 0.016295716
5.8162112 3.2044897 0.019866318
5.180563 3.2613544 0.012147412
3.6475832 3.312448 0.011266485
4.4420962 3.3355999 0.012914002
2.6406662 3.3968554 0.010409474
5.4533701 3.4137077 0.012148008
5.7939444 3.4139495 0.011450514
4.8964095 3.4431152 0.014045179
3.9622841 3.4662614 0.013171658
5.5521898 3.4613872 0.01459232
5.1246314 3.4935374 0.011442125
3.8942442 3.5642848 0.0134027
5.211679 3.5820603 0.017721429
5.755794 3.658668 0.016266763
5.3827729 3.6897693 0.010536045
4.8901997 3.7117581 0.014466494
5.501493 3.7420268 0.012306556
5.3628888 3.7638087 0.013894498
5.9681029 3.9123759 0.015351474
5.9812026 3.9774246 0.013109431
6.0115185 3.9716129 0.012105659
6.1937666 3.9747024 0.012490615
0.97942638 -0.059052311 0.022989437
1.3799742 -0.052921474 0.027536154
2.7517874 -0.0077455044 0.024308085
2.6081049 0.83688921 0.02578114
2.4447567 1.2851266 0.023622289
4.3133922 1.4480687 0.026919439
4.976418 1.5048008 0.025601655
5.0627093 2.1208849 0.025790289
4.4698038 2.1554809 0.027800485
4.2886744 2.2243562 0.024132028
1.5977993 2.3990312 0.0205708
3.1330943 2.4873261 0.020896271
5.6868362 2.5538607 0.022429794
4.322022 2.5668769 0.027929723
5.7338305 2.9514484 0.02185145
3.2555544 3.0021019 0.022650704
1.2744372 3.1195574 0.027625576
3.7296021 3.1249008 0.020397261
1.3154228 3.134551 0.021663293
1.4186935 3.1599355 0.02950713
5.8808765 3.1685443 0.026955307
5.8608441 3.2116504 0.02426894
4.9258447 3.231739 0.024298847
3.3336844 3.510438 0.026061594
3.934226 3.6102562 0.024211913
5.0556664 3.8159599 0.02528806
5.7742801 3.924315 0.028293625
2.3529427 -0.0037566721 0.030655637
3.9917192 -0.0047315806 0.037966818
0.33299777 0.60757434 0.039829135
0.30263302 1.2655554 0.033317372
4.3219266 1.3371077 0.039392859
0.29134956 2.0721564 0.035245612
2.8659182 3.3968616 0.035466909
6.0153341 3.4223828 0.037553981
4.282784 3.6809235 0.039998055
5.5233722 3.9314284 0.03238973
5.6885819 3.9450183 0.031564131
3.718224 -0.009553045 0.042848408
4.2053704 0.024709731 0.048493326
4.3116884 0.52609491 0.047688514
4.8405209 1.5198327 0.04650718
5.3676472 1.6999658 0.045420945
1.0906199 3.0790834 0.04004854
1.7771813 3.2273288 0.043241948
2.5942705 3.3750477 0.045045912
3.2625413 3.496223 0.04185915
3.5059278 -0.014983803 0.052008033
4.3222661 0.45351893 0.050297409
4.3337188 0.60754025 0.054631919
5.5492315 2.1716757 0.050551862
4.3239088 3.6941543 0.054630369
5.577261 3.9198923 0.053357244
5.7324729 3.9594393 0.053052992
5.9815516 3.970448 0.058193266
