# .PCD v0.7 - Point Cloud Data file format
VERSION 0.7
FIELDS x y z
SIZE 4 4 4
TYPE F F F
COUNT 1 1 1
WIDTH 65
HEIGHT 1
VIEWPOINT 0 0 0 1 0 0 0
POINTS 65
DATA ascii
4.7677999 1.528443 0.084464461
4.7871585 1.5196099 0.10286227
5.1191721 1.5169666 0.13388523
4.3828292 1.5013967 0.16790906
4.8124433 1.5274069 0.17657474
4.9808292 1.5329778 0.19344348
5.216197 1.5344739 0.20179117
5.0565147 1.513903 0.22717005
5.0378485 1.5418386 0.2318272
4.4209361 1.5201994 0.25013909
4.9808421 1.5235609 0.26674154
4.8042088 1.5266154 0.30515802
5.2256002 1.5232936 0.31062609
4.7686849 1.5285378 0.3335163
5.01055 1.534857 0.3372761
4.8839326 1.5435002 0.3662613
4.515543 1.5077451 0.38841069
5.0434146 1.5385671 0.45979983
4.7772465 1.519639 0.47238225
4.5110369 1.512823 0.4841333
5.1351948 1.5265154 0.48509282
4.6722078 1.5252197 0.49277097
5.1325068 1.5453664 0.5053497
5.1682367 1.5110981 0.54921055
4.5307312 1.5018655 0.56025177
4.5265169 1.5286711 0.68631327
5.1604109 1.5333157 0.68791252
5.1665907 1.5346878 0.71878272
5.2398267 1.5485414 0.71333742
4.8636627 1.5066967 0.74505937
4.7010679 1.5306427 0.77049428
4.4037619 1.5074525 0.80797517
5.0079641 1.5392992 0.90555489
4.5135083 1.5386267 0.99400485
5.0635271 1.5194002 1.0135131
5.2261162 1.5216823 1.0267345
4.7846127 1.5137433 1.043772
4.8811193 1.5394759 1.0459393
4.8557796 1.5308893 1.0781344
4.6723347 1.5191894 1.0859177
4.7676659 1.5272661 1.0919011
4.7398162 1.5295306 1.105617
4.9870386 1.5409516 1.1372384
4.4073529 1.5053678 1.201423
4.449399 1.5109233 1.3797913
4.5455151 1.5302454 1.4493638
5.141757 1.5045919 1.4779514
4.7325039 1.5186249 1.5143522
4.6627736 1.5198717 1.6072674
4.9943337 1.5515443 1.6091542
5.0581803 1.5053403 1.6152841
4.8938341 1.5346863 1.6103264
4.3632855 1.5195857 1.6270376
4.4380336 1.5093352 1.6316164
5.1004081 1.518325 1.6324272
5.1544309 1.5555686 1.6512473
4.9060163 1.5250949 1.6753027
4.7279434 1.5471365 1.7209218
4.4069357 1.4879851 1.7654152
4.5366197 1.5234238 1.7796311
4.5007215 1.5195965 1.8437266
4.8124599 1.5224103 1.8517256
4.5397058 1.526708 1.8850944
4.7063646 1.531541 1.9332864
5.2350359 1.5201699 1.9457462
