# .PCD v0.7 - Point Cloud Data file format
VERSION 0.7
FIELDS x y z
SIZE 4 4 4
TYPE F F F
COUNT 1 1 1
WIDTH 1530
HEIGHT 1
VIEWPOINT 0 0 0 1 0 0 0
POINTS 1530
DATA ascii
0.89938128 3.142555 0.58680856
2.7088828 3.4644341 0.58450824
5.8811297 4.0040417 0.58778369
0.73647726 0.11606699 0.59628052
4.7951946 3.8090351 0.59569001
2.0721951 0.37877128 0.6031459
2.7521887 0.50756216 0.6060648
-0.017258614 1.0519197 0.60520869
4.2926121 1.4916565 0.60403973
4.7012343 1.5166097 0.60178536
4.1450157 3.7003744 0.60392505
2.3240724 -0.013333514 0.61168718
0.006192565 0.23079482 0.61554539
0.0052409172 0.79143643 0.6162492
-0.024850875 0.85929602 0.6121394
-0.012967646 1.3453467 0.61779267
4.2247677 1.5037823 0.61860436
5.3425407 2.4581773 0.61919063
1.6781311 3.2602239 0.61393964
0.76152921 -0.033115476 0.6234926
0.71138155 -0.025660641 0.62326646
0.090280533 -0.014772981 0.622621
2.3792584 -0.012788296 0.62419748
1.4145359 0.23278981 0.62188512
4.0009551 0.82462835 0.62946188
3.986824 1.1530666 0.62391073
5.2688613 2.2253542 0.62382913
1.0805004 3.1476431 0.62204123
1.3581463 3.1917477 0.6244334
2.98119 -0.015776835 0.63924921
1.0378273 0.16104802 0.63857675
3.3352821 0.6289407 0.63995183
4.3378625 1.4963825 0.63803428
0.00019544363 1.6675498 0.63773602
2.2537889 3.3621774 0.63303262
5.9351516 3.9217105 0.63576478
5.5188632 3.9371972 0.63209987
5.7717762 3.9797597 0.63303989
0.025784314 -0.023187242 0.64710528
0.85238886 0.13267139 0.64201134
2.4050579 0.4172157 0.64823329
-0.014605641 0.55760968 0.64771503
-0.008233726 1.0819683 0.64519852
4.7541518 1.5154622 0.64437205
5.7199869 3.4305034 0.64614511
2.4499276 -0.029659592 0.65140617
0.40562415 0.02570799 0.65482432
1.8266277 0.3273955 0.65471625
2.716501 0.48447043 0.65605712
2.8914077 0.51336414 0.65774894
-0.0022834241 1.0293114 0.65600246
-0.01412347 2.6249249 0.65650189
5.5719428 2.9716973 0.65933734
1.7461739 3.2612386 0.65225941
1.8339391 3.2940738 0.65281308
0.4046877 -0.04934454 0.66992575
1.7145693 -0.031794615 0.66302127
0.93822336 -0.029876709 0.66231793
3.2128043 -0.029710799 0.66357607
1.3835945 -0.016345739 0.66820806
-0.00017303228 1.2903395 0.6683749
4.1256118 1.4781988 0.66732007
4.9444933 1.4966564 0.66821271
5.4508152 2.6586847 0.6658271
-0.022018045 2.7201636 0.66997713
0.18645465 2.9948132 0.66245121
3.6423345 3.6082439 0.66703188
4.9103336 3.8305752 0.66750169
5.659245 3.9408112 0.66402936
2.5873804 -0.0065338537 0.67715287
1.3914961 0.24349195 0.67117465
3.0396144 0.54516727 0.67763424
4.004282 0.62076777 0.67027295
5.5828681 2.9850175 0.67933059
1.2844484 3.1914723 0.67604059
1.9082956 3.2937224 0.67177808
2.2902148 3.3776052 0.67052341
5.7710195 3.4884071 0.67264777
3.9804311 3.6590309 0.67893654
3.9978771 0.3194057 0.68669921
3.0354617 0.55452663 0.68473393
4.8275843 1.4809892 0.68970037
5.4963799 2.733417 0.68241435
5.5328465 2.8589213 0.68663019
5.5262733 2.8845766 0.68452203
0.7724092 3.1055272 0.68484515
5.767395 3.5065985 0.68878406
5.8292389 3.6524203 0.68590963
1.4229482 0.25445297 0.69548714
4.8004384 1.4873767 0.69407791
5.0688224 1.6988573 0.69438571
-0.018930674 2.4174759 0.69778329
5.9230046 3.9002819 0.69224614
0.40733385 0.027742267 0.70474768
1.6163111 0.28712511 0.70343471
3.6495328 0.66467434 0.70633489
4.329186 1.5031366 0.70310313
-0.012577683 2.3485675 0.70395356
0.25868714 2.9938169 0.70693964
1.1157473 3.1600595 0.70608622
1.7492142 3.2502441 0.70677322
2.5758739 3.4016292 0.70207608
3.7396817 3.631412 0.70425695
3.8672528 3.64219 0.70717847
5.0316472 3.8269031 0.70874333
5.4961982 3.934845 0.70998412
0.5842855 0.075441286 0.71125126
1.1590186 0.17842826 0.71276218
2.520843 0.45650101 0.71891737
2.7319295 0.4911142 0.71311367
0.0017786622 0.79094082 0.71780151
4.1532369 1.4860017 0.71757585
0.0073082447 1.4960904 0.71134859
0.0021095872 1.5246954 0.71755338
1.2815855 3.1901107 0.71982664
5.7262802 3.3653071 0.71316451
2.9179692 -0.031834066 0.72240031
1.7571793 -0.022259384 0.72662842
1.9861038 0.34605509 0.72765708
3.9813266 0.6730665 0.72823179
0.0030176044 1.1269927 0.72904098
5.1118569 1.8198929 0.72218359
1.963793 3.3067992 0.72656643
2.3233752 3.3544531 0.72478449
3.0722454 3.4917116 0.72407246
1.5020268 0.25587922 0.73089457
1.6784651 0.30118603 0.73954314
4.3497438 1.4934001 0.73533553
5.100101 1.8189378 0.73870766
5.113184 1.8302867 0.73394084
5.1185875 1.8496671 0.73171628
0.99828184 3.1405776 0.73155218
3.4331472 3.5642974 0.73313057
5.4821734 3.9312005 0.73847741
0.079907537 -0.033670463 0.74416411
0.59067094 -0.027579807 0.74583256
4.0171027 0.11823079 0.74651778
2.0536258 0.35743958 0.74144471
-0.024384081 2.6811182 0.7472716
2.5416741 3.4103251 0.74247158
3.2621963 3.5311804 0.7405712
4.1446476 3.6880851 0.74962574
5.7309361 3.9550996 0.74707586
5.9894414 4.0057325 0.74421912
1.0544176 -0.017272137 0.7551471
-0.013886392 0.54430097 0.75889772
4.538341 1.5014174 0.75953162
5.1108961 1.8082311 0.75706595
-0.0022711158 1.8755779 0.75784898
4.2694397 3.7127414 0.75437486
5.8195496 3.978003 0.75246274
1.0842355 -0.028084591 0.76277232
3.2379887 -0.020016678 0.766334
3.775589 -0.0068043172 0.76480895
2.6974797 0.46674579 0.76208413
2.7029274 0.49973822 0.76495808
2.9672234 0.52821648 0.76360548
3.8307171 0.69748819 0.76938713
-0.0020182431 1.3654263 0.76118833
0.0011513829 2.2239482 0.76118392
-0.0020931065 -0.026224084 0.77261555
0.43524587 0.048445746 0.77252573
0.79864872 0.10066003 0.77753079
3.9979262 0.42577314 0.77205485
3.5444989 0.64235055 0.77105266
5.3920932 2.4958971 0.77955413
2.3720782 3.3802009 0.77356154
3.3514454 3.5626268 0.77945352
4.9804049 3.8184106 0.77430516
1.5825465 -0.038997166 0.78903174
1.1000948 -0.012632579 0.78173733
0.71191967 0.10235488 0.78798389
2.5301952 0.44600385 0.78713524
3.0380704 0.55600202 0.78572524
5.0647831 1.6939025 0.78281724
4.4132509 3.7315738 0.78093779
2.7167282 -0.016958155 0.79046357
0.33854258 0.021198735 0.79631054
1.8684618 0.33299613 0.79529953
-0.0011457205 0.36296144 0.79178703
2.1537657 0.38856614 0.79881847
2.8474052 0.50057179 0.79636085
0.0045245886 0.89475924 0.79063714
3.9863706 0.92045516 0.79742157
3.9727426 1.0720935 0.79622102
4.7837071 1.4886627 0.79357958
4.8186989 1.5023651 0.79929066
5.0674539 1.6788156 0.7908361
-0.0080474615 2.1207869 0.7989434
-0.013367057 2.1991861 0.79018354
5.9432778 3.9174514 0.79773939
5.6854854 3.9316721 0.79816568
5.65975 3.954215 0.79621112
5.9197092 3.9956355 0.79013896
1.8088479 -0.029034458 0.80657482
2.2473645 -0.015461266 0.80340183
3.7517881 -0.0015705153 0.80120087
1.4156467 3.224036 0.80409443
1.5457838 3.2284501 0.80199254
1.6479638 3.2585695 0.80890453
5.6904006 3.3479919 0.80608106
5.7278347 3.3800492 0.80142415
2.6847541 3.4307668 0.80814624
3.9598603 3.6487556 0.80007172
4.8492918 3.8191316 0.801175
5.1907496 3.859565 0.80552757
0.71312034 -0.030414261 0.81070459
2.5870428 -0.016149588 0.81722176
4.0157785 0.16611654 0.81052423
1.77423 0.30545825 0.81872249
-0.0070554316 0.344603 0.81712437
4.0057278 0.39135778 0.81956565
-0.027142495 1.99823 0.8178606
5.661036 3.1757557 0.81257188
2.292165 3.357209 0.81045592
4.7913246 3.7999282 0.81658554
5.1867633 3.8503718 0.81894815
1.0624315 -0.021100998 0.82097781
0.34043396 0.01846461 0.8258158
-0.0058190525 1.1135538 0.82860851
0.88271952 -0.03777539 0.83138382
1.7049015 -0.016008206 0.83284593
0.98385 0.14253083 0.83102632
0.95297647 0.15192837 0.83375168
5.0869555 3.8538115 0.83334208
0.18112957 -0.0021357015 0.84396636
1.7767432 0.28236592 0.84935093
1.2799182 3.1896336 0.84856617
0.52440012 -0.044187926 0.85993624
3.8687248 -0.012330011 0.85156453
1.9880505 0.3418864 0.85003757
3.9875922 1.3336725 0.85777247
-0.013841987 2.3749704 0.85422814
-0.011496991 2.4717374 0.85481799
5.5089564 2.8414016 0.857072
1.0418751 3.1468294 0.85186946
2.6661484 3.4376068 0.85019648
5.1221681 1.8266964 0.86993623
-0.0032633245 1.9226377 0.86212707
-0.0066549778 2.4434404 0.86333835
5.6306615 3.1070244 0.86515915
1.4224716 3.1969979 0.86572659
0.75723767 -0.044345185 0.87509263
1.4574666 -0.032184161 0.87599874
1.8549707 -0.032990448 0.87404084
1.7350926 -0.021875888 0.87485135
1.8458376 -0.019621864 0.87610161
3.8694735 -0.013086639 0.87503469
4.0362935 0.12119624 0.87989783
2.5503798 0.45869029 0.87468386
-0.0062351823 1.5164919 0.87227392
5.1178331 1.8300781 0.87711489
2.2088363 3.3556614 0.87079895
2.7818673 3.4536588 0.87043011
0.35905415 -0.034638755 0.88687873
3.1166701 -0.033615634 0.88456798
0.86978126 -0.021573424 0.88530552
0.01050514 1.2557781 0.88145864
3.5840135 3.5925701 0.88567245
5.3102088 3.8994713 0.88199997
0.060100377 -0.04480394 0.8909744
-0.0032681525 1.6307006 0.89194715
-0.0044979751 1.7886953 0.8989079
0.0026135445 2.5173242 0.89918935
0.058548748 2.9698045 0.8926028
0.67335069 3.0651317 0.89940524
1.0364894 3.1378522 0.89028788
1.1817847 3.1934853 0.89262223
5.6566081 3.9427366 0.89038348
0.25517291 -0.034315467 0.90549684
1.9442246 0.34761059 0.90316129
2.1673048 0.38334209 0.90492868
4.340775 3.7137706 0.90168476
1.3521961 -0.034132302 0.91102707
2.9211996 -0.017223299 0.9102931
3.9987602 0.35645843 0.91256213
-0.0064364672 1.8212986 0.91075563
-0.013350755 2.5457535 0.91758394
1.9732711 3.3240385 0.91805625
2.1590505 3.3515899 0.91675317
2.7359419 3.4363866 0.91862118
4.9983988 3.8390801 0.9134258
5.2549887 3.8652894 0.91202927
5.8562884 3.9787745 0.91637325
0.10623902 -0.056926779 0.92223144
0.89425361 -0.034671739 0.92744708
1.4180105 -0.035371788 0.9218272
3.9881587 0.16919178 0.92688751
4.0012379 0.48991573 0.92198586
3.03931 0.57639778 0.92246401
4.0145717 1.3615291 0.92243564
-0.025034904 2.4084558 0.92338407
1.1707658 3.1541915 0.92981279
1.2102511 3.16715 0.92436266
1.3256532 3.1999686 0.92668235
0.78178644 -0.03828869 0.93582404
0.37506491 -0.029218681 0.93467116
0.0058010221 2.586314 0.93416476
1.1917685 -0.032252528 0.94893265
1.3567635 -0.030619867 0.94591713
1.6138225 -0.0367245 0.94555283
1.9858253 -0.012205787 0.94565272
1.4107158 0.22789893 0.94040906
4.7839355 1.4996202 0.94363284
4.890326 1.4982862 0.94164491
4.3025889 3.6935577 0.94419289
5.6449604 3.9489136 0.94092178
3.0153995 -0.018380791 0.9593631
0.22518826 0.021597534 0.95522332
1.0752517 0.16858593 0.95302212
1.7813506 0.31656775 0.95614779
-0.0043642819 1.3570406 0.95546865
3.9813051 1.4156387 0.95913255
5.0790186 1.7260909 0.95888197
-0.010221422 2.9034333 0.95266342
0.67715871 3.0639241 0.95409703
1.1726215 3.1683285 0.95351303
2.9694147 3.4758146 0.95253396
0.46435118 -0.047456972 0.96967936
0.79467845 -0.025054246 0.96929276
2.2003598 -0.027484357 0.96507645
0.19272238 0.0082626641 0.9693222
2.4382379 0.44115555 0.96122634
3.0008326 0.52241343 0.96399283
4.4792275 1.4830306 0.96211147
-0.014802426 2.6127591 0.96068025
4.087451 3.6680603 0.96738756
5.9468117 3.9533277 0.96736336
1.1460097 0.18952286 0.97384322
3.9946542 0.85717243 0.97180808
5.3558679 2.3976545 0.97990596
1.2770337 3.1852515 0.97434413
3.3864489 3.5488238 0.9783932
4.3281484 3.7211797 0.97241151
4.6946459 3.7805161 0.97812223
0.0285514 -0.046177432 0.98167551
0.78662765 0.11415276 0.98677027
4.0074916 0.4733389 0.98122036
3.1372626 0.5668335 0.98782265
3.3510976 0.61337751 0.98291099
5.1994543 1.9858055 0.98962975
5.3319817 2.3652904 0.9810797
5.5404382 2.8679817 0.98499644
3.2628024 3.5239739 0.98631525
3.4223094 3.5455945 0.98368514
4.6909995 3.7791564 0.98293614
1.8774328 -0.020030707 0.99961948
2.9841113 -0.019377321 0.99136591
3.6684709 -0.016052946 0.99905562
3.7678609 -0.01705236 0.99306619
2.0900941 0.35550302 0.99446011
4.6149092 1.4917557 0.99657989
2.3418097 -0.032424025 1.0091745
2.6759109 0.4832058 1.0007164
1.1952884 3.1638877 1.0069677
1.9989958 -0.023663789 1.0171127
2.8460076 -0.013654657 1.0198479
0.24958706 0.013286725 1.0197521
0.012092948 0.19249833 1.012252
2.2803204 0.40484154 1.0188766
4.4545302 1.4739299 1.0187211
5.3787618 2.4659979 1.0170394
0.21190345 2.9943628 1.0103372
2.6736543 3.415122 1.0138075
2.9547248 3.4588561 1.0101072
5.0526876 3.8242095 1.014346
5.9595513 3.9283714 1.0174024
5.8091636 3.9709563 1.0186431
2.8460505 -0.019122466 1.0213113
0.92705858 0.14249679 1.0276468
1.2075572 0.18181261 1.0216913
3.0780473 0.5602451 1.0245819
3.9949207 1.2426071 1.021998
5.1070471 1.7844503 1.0230414
5.2946877 2.2455335 1.0212827
5.3752494 2.4719033 1.0202898
2.4570558 -0.0029305741 1.0342109
-0.0037079751 0.27597862 1.0333233
0.0041436553 0.41971034 1.0378792
4.1569381 1.4858994 1.0351747
4.5022244 1.48032 1.0394868
-0.0071257353 2.5628257 1.0354388
3.6607714 3.5899701 1.0322818
3.9922056 0.048558399 1.046911
4.0040503 0.065089077 1.0428551
1.8726399 0.30490902 1.0415022
0.055556536 2.9629745 1.04953
3.9202724 3.6462862 1.048185
3.9180193 3.6542938 1.0432134
5.2856846 3.8733826 1.0497849
5.198792 2.0611782 1.058061
5.519074 2.8553886 1.0560392
0.65199709 3.0529525 1.0537726
1.9723091 3.3128934 1.0514387
1.0053984 -0.013439901 1.0632904
3.4346001 0.61433893 1.0695996
1.6947911 3.241327 1.0677241
2.6172519 3.4215956 1.0648271
2.8067656 3.461777 1.0610225
2.2911935 -0.027103879 1.0766237
3.5506802 -0.018290661 1.0728028
1.2549658 0.21474391 1.0707875
-0.0069670677 1.3309283 1.0746679
5.1767354 1.9296958 1.0797628
-0.01277867 2.1176488 1.0784389
0.16997135 -0.033604354 1.0890377
0.4351036 -0.032009244 1.0801759
1.7643867 -0.038529813 1.0837276
2.9498923 -0.028619736 1.0880741
0.0060046315 2.0334985 1.0801624
0.011402726 -0.055476606 1.0985028
1.097441 0.18245608 1.0902365
2.7937908 0.50364226 1.0989717
0.016201198 1.3399296 1.0931306
-0.0022190213 1.3505936 1.0959951
-0.015215784 2.1398103 1.0920683
1.5826824 3.2312002 1.0981531
2.621516 3.4309978 1.0927047
4.0481548 3.6606262 1.098121
4.7496753 3.7793698 1.0981928
5.7078357 3.9489508 1.0964012
2.4222693 -0.010732524 1.1063216
3.8201122 0.69832098 1.1010524
-0.014516324 1.1298251 1.1077629
4.3022699 1.4901416 1.1019783
4.5463457 3.7543828 1.1090732
3.990994 0.73646772 1.111384
-0.019326895 1.5472422 1.1159352
-0.01711899 2.2321484 1.1117311
4.1596546 3.703202 1.1104125
5.8150845 3.9655609 1.1144049
5.9614234 3.975924 1.1194214
1.0436776 -0.045656815 1.1285057
1.298191 -0.025369994 1.1281619
1.4767975 -0.026565336 1.1267
2.9442482 -0.0090590119 1.129115
4.0036297 -0.0064729825 1.1218318
1.0359524 0.15240675 1.129635
3.9963632 0.32163545 1.1263113
0.0037657022 0.33386359 1.1230115
-0.0096033216 0.49423802 1.1293474
3.9688849 1.4097559 1.124692
-0.015941799 1.786459 1.1240916
5.1528015 1.9047647 1.1238549
5.3132739 2.3701153 1.1270663
-0.019293427 2.8978934 1.124594
0.099550009 2.9935591 1.1292121
5.7374048 3.3498135 1.1220133
3.3453174 -0.051339254 1.1377373
4.0134606 0.47052222 1.1302171
2.8036277 0.49889147 1.132593
3.4668474 0.64699829 1.1358082
4.3441296 1.4871495 1.1311893
5.7932711 3.5601671 1.1339667
4.5280056 3.7413805 1.1392281
1.0324715 -0.030410193 1.1481991
1.5837934 -0.037797526 1.1473277
1.7679155 -0.033528417 1.1425703
0.081048429 -0.020195 1.141187
2.2348616 -0.021054141 1.1437817
0.71957755 0.085047841 1.1494631
1.0222307 0.16187903 1.1495342
1.3029966 0.18904617 1.1427106
3.4078679 0.60978377 1.141463
4.006175 1.1711481 1.1417019
-0.017040551 1.488667 1.1486087
0.88790214 3.1209438 1.1406919
2.723949 3.4428561 1.1479145
3.5743575 3.5857456 1.149745
4.880877 3.8293681 1.1495397
1.1187629 0.16069835 1.1553826
3.1375024 0.57389468 1.1543853
0.0020542145 0.77679574 1.1512091
4.3241048 1.4920306 1.1518738
-0.0027571321 1.9763172 1.15264
5.2253532 2.0916333 1.1580633
-0.01519686 2.4152575 1.1514548
-0.010761619 2.4363124 1.1504912
0.014732778 2.966872 1.1580973
0.67391598 3.0750299 1.1534878
4.5999498 3.748229 1.1585625
5.9185758 3.8652024 1.1500853
0.20182127 -0.06660869 1.1647956
2.3455231 -0.023263238 1.1652939
3.7727013 -0.0010219738 1.1676781
3.7776513 0.0017495677 1.160296
0.92184854 0.13587436 1.1676172
1.08488 0.18311626 1.1631118
3.9912415 0.19217342 1.1622651
1.4260355 0.23492947 1.1612393
2.4877951 0.44517255 1.1682171
2.6925216 0.48758262 1.162047
2.7183216 0.48458534 1.1674889
3.9974184 1.4201117 1.1641295
-0.010904402 1.693244 1.1656977
5.4296236 2.5933409 1.1668328
0.77386558 3.1009555 1.1616629
5.0461936 3.8524811 1.1602783
5.115242 3.8552246 1.1611314
0.0023222566 0.45557922 1.1756824
2.986866 0.53748274 1.178723
3.1062543 0.56521976 1.1731502
-0.0098470747 1.8412135 1.1798302
0.006842196 2.6488452 1.1747233
3.3947034 3.5505211 1.1781025
2.5676188 -0.03506548 1.1811594
3.2456632 -0.022671804 1.1815209
0.80761182 0.13977027 1.1842357
3.9968257 0.19000006 1.1860495
2.1517646 0.38474649 1.1838331
5.0247979 1.5073802 1.1826771
0.2528699 2.9942038 1.1811607
4.6370702 3.780612 1.1885866
5.9084702 3.9926872 1.1881244
0.41941649 -0.049605712 1.197333
0.61648726 -0.039247617 1.1987752
3.6816134 -0.024850264 1.1935354
1.6345601 0.28244859 1.196167
0.0096304417 0.46848762 1.1902915
2.6950316 0.47416705 1.1919641
5.4581385 2.7083704 1.1931398
0.40783864 3.0359182 1.1906437
2.0071862 3.3043904 1.1916138
5.7323179 3.3635654 1.1996498
3.4008327 3.5473349 1.1955118
3.9487062 3.6571374 1.1972765
1.0373255 -0.042843036 1.2048382
0.99879801 0.16713655 1.2052063
1.1288645 0.17767534 1.2093738
2.5569608 0.4397952 1.2091095
4.9340005 1.5016038 1.2047191
5.4084191 2.5532253 1.2012248
1.2908467 3.1924899 1.2033352
4.5172648 3.7297335 1.2083604
4.8028955 3.8125246 1.2039403
1.0144945 -0.030768275 1.2185297
0.47305381 -0.021494724 1.2194881
3.8621259 -0.0061730295 1.2147856
2.4241798 0.42647642 1.2121336
4.0077405 0.74184132 1.2184821
2.8245523 3.4622858 1.2104563
3.4712436 3.5578408 1.2136222
0.91658783 -0.04852251 1.2250109
0.19885123 -0.031795189 1.220029
0.83458865 0.120545 1.2256235
1.7793567 0.29866797 1.2299111
2.3271151 0.40364504 1.2255493
3.9831595 1.3622839 1.2255539
0.0065289736 1.5338376 1.2294767
4.0426445 3.6776092 1.2272791
4.3666291 3.7105913 1.2281682
5.0656829 3.854568 1.2266684
3.4241493 -0.024550691 1.2337183
0.2416814 0.0038737431 1.2341211
3.9967704 0.32324824 1.2346042
3.9960885 0.85945934 1.2309015
-0.0066314638 1.0664458 1.2354784
3.8395262 3.6121647 1.2358906
4.6457739 3.7726371 1.2374179
0.14142078 -0.028302178 1.2435073
0.26970023 0.0071096122 1.2416112
1.7178087 0.30617082 1.240482
0.0037498474 0.82926559 1.2480112
5.1055274 1.8224041 1.2445641
0.0051681995 2.021147 1.2444869
0.31798708 3.0101676 1.2449229
0.94906652 3.1131825 1.2454809
3.8855491 3.6211193 1.2458301
3.8700242 3.6427557 1.2428458
4.2396474 3.7057393 1.2440031
3.8455029 -0.024583124 1.2524136
-0.00033342838 0.26171163 1.2522273
3.3475406 0.61646634 1.2535264
4.112947 1.4952936 1.258948
0.68837619 3.0810382 1.256284
1.7008307 3.2426715 1.2542554
2.1388237 3.3263569 1.2544484
3.7745619 3.6159649 1.2574446
4.4437237 3.7304888 1.2546926
0.44041264 -0.041159436 1.2600996
0.23781782 0.0078157485 1.2675498
4.0112181 0.3030771 1.2689897
3.8031693 0.69625646 1.2683244
1.6976936 3.250335 1.2667549
1.8255568 3.2841561 1.2600071
3.8356652 -0.01874578 1.2762141
-0.015072972 0.26268485 1.2744814
3.5543275 0.65979475 1.2793827
2.4345851 3.3901398 1.2761209
3.7941275 0.68633646 1.2804035
4.0036378 1.4328539 1.2880126
-0.0029845536 1.5884254 1.2801983
-0.015283227 2.6822815 1.2859001
1.7695637 3.2626624 1.2811413
0.16725796 -0.046510749 1.2929366
-0.001222074 0.052272201 1.2935357
1.931462 0.34291217 1.295593
2.326581 0.40574241 1.2986786
2.4948766 0.44369727 1.2943981
4.007226 0.56246245 1.2987523
3.9993401 0.64210486 1.2949097
3.9905128 0.96249384 1.2952887
-0.0065048635 2.3468204 1.2945827
0.9730618 3.1426487 1.2934493
0.87224209 0.13091013 1.3023037
1.8904238 0.33214051 1.3028128
2.74734 0.50655574 1.3003197
-0.0053343177 0.55366153 1.3009249
4.0074606 1.1815507 1.301254
4.5403004 1.4858844 1.3006841
3.9397545 3.6483629 1.3011791
0.61142564 -0.038174331 1.3187838
0.87803185 -0.035756022 1.3113062
1.8406794 -0.039780974 1.3110188
0.77141988 -0.028125644 1.3191413
1.8589594 -0.027955152 1.3189368
3.7452545 -0.019224539 1.3195097
3.9534922 -0.019517325 1.3165505
5.1921411 1.9673095 1.3122462
5.2163672 2.0585151 1.3137497
5.535953 3.9511952 1.3171014
-0.012247264 -0.0421395 1.325985
0.82673812 -0.030288763 1.3264898
1.4677155 -0.023849547 1.3280238
-0.0044771731 1.1717558 1.3251414
5.0810103 1.7144263 1.320429
0.50701571 3.0544081 1.3274875
5.736166 3.3892119 1.3246992
3.1727147 3.5008571 1.3217189
4.5466752 3.7499964 1.3204567
5.3941388 3.8961983 1.3234907
0.35112828 -0.039556727 1.3379281
3.3266521 -0.019885913 1.3346198
3.5297341 -0.015514463 1.3386519
-0.0018526018 0.41589105 1.331314
0.019493818 0.59229356 1.33263
3.5847416 0.65507549 1.3313237
3.6124659 0.66307878 1.3371937
4.2057443 1.4941378 1.3393517
5.2534285 2.1499531 1.3381981
0.10792565 2.9860954 1.3385185
2.2872701 3.3441749 1.3302673
3.1204839 3.5021329 1.3301003
3.4496853 3.5653627 1.3333116
3.4678905 -0.031535417 1.3491986
2.3498981 0.41139853 1.3478608
0.0043433309 0.91467303 1.3471352
3.9940863 1.1789565 1.3451953
4.0964661 1.4856713 1.3444817
-0.018308342 2.6102843 1.3483254
5.6786718 3.2237103 1.3427331
2.2858863 -0.036192998 1.358992
3.9532609 -0.01118961 1.3535426
2.2399502 0.38920152 1.3501118
4.0060124 0.49342489 1.3581507
4.2718091 1.4812353 1.3555616
5.1896811 1.9688628 1.3564358
1.9498906 3.2844672 1.3542811
5.7333145 3.3784688 1.3517764
5.741271 3.4636295 1.3527999
0.4975422 -0.032290809 1.3634599
2.5341825 -0.039044566 1.3652242
3.8345723 -0.031622067 1.361356
3.4883068 0.62890595 1.3658258
3.9968438 1.2488515 1.361392
0.64705944 3.096324 1.3660519
2.143194 3.336241 1.3669007
2.7141404 0.47903949 1.3772649
5.1214471 1.7672684 1.3784055
5.710248 3.3548727 1.3705962
0.016730785 -0.042029902 1.3807614
0.20960152 -0.039639786 1.3869872
0.92585874 -0.030526228 1.382826
1.8634231 0.30581069 1.3888705
3.4666026 0.62797207 1.3810188
4.9419255 1.4985549 1.3878293
5.4688392 2.7029958 1.3807082
2.0141594 3.3000495 1.3853106
2.0940206 3.3288512 1.3866767
2.5271833 3.4132142 1.3852835
5.1440048 3.8629699 1.3827744
5.4677215 3.9218521 1.3836175
2.0256371 -0.03089352 1.3944826
2.5361671 -0.023657724 1.3974177
2.3228881 -0.013990402 1.3910457
3.6728611 -0.018142536 1.3919554
1.3758481 0.21689656 1.3950222
0.0031862259 1.0832956 1.3974509
3.8372135 -0.0090233758 1.4088683
1.0768214 0.16560167 1.4069184
1.4115959 0.24978867 1.4097475
1.612329 0.26471397 1.402514
2.4753058 0.44348079 1.4058361
3.7604799 0.6884594 1.4072858
-0.014474154 2.1535189 1.4034426
0.9519701 3.1090598 1.4071285
1.1579776 3.1628299 1.4091018
2.8378906 3.4595389 1.406454
3.664814 3.5901806 1.4093181
3.7205596 3.6108007 1.4043968
5.842782 3.6296372 1.4058545
0.51172388 -0.042988181 1.4114888
3.1429052 -0.014899768 1.4107568
1.2627319 0.19294983 1.4166741
0.00021624565 0.25405401 1.4157584
1.7929294 0.30652493 1.4130634
3.7326884 0.69119149 1.4132757
-0.021174818 2.4705706 1.4127693
1.9550424 3.2835898 1.4110764
2.4311168 3.3770294 1.4123126
1.8739626 0.323266 1.4216527
4.0057364 0.55224317 1.4257327
-0.021947116 0.7419526 1.4245336
5.452682 2.6530514 1.4264784
5.5095725 2.7931228 1.4283954
3.0423462 3.4944971 1.4233279
3.6029301 3.5755718 1.4261025
5.8484478 3.652961 1.4239744
0.46602362 -0.044909514 1.4325546
4.0043411 0.22997871 1.4328078
0.0088846684 0.4084453 1.438552
3.9740281 0.5524112 1.4315106
3.9653926 0.72370613 1.4399923
-0.010164171 0.90581745 1.4303159
4.2634377 1.4929378 1.4380124
5.3948069 2.4761825 1.4384613
2.0674927 -0.034669042 1.4461329
2.592432 -0.031210244 1.4484413
0.62821567 0.096355259 1.4461085
-0.018012226 0.94666618 1.4477074
4.9507399 1.4825635 1.4465803
5.4169478 2.5515342 1.4486781
0.040859699 2.9800355 1.4419111
1.2641175 3.1684346 1.4447429
2.3493142 3.3664272 1.4435589
2.4556277 3.3853035 1.4413983
4.0911064 3.6632152 1.4458663
5.8729639 3.7134955 1.4408852
4.9172268 3.8177552 1.4417505
2.0720181 -0.022309847 1.4595647
3.6708217 0.66279286 1.458955
3.8376288 0.72589654 1.4589564
4.0117841 0.83692867 1.4522243
-0.0038634837 0.84022373 1.4588614
4.9454951 1.4947348 1.4565034
-0.010044873 2.2490745 1.4572986
-0.0062811673 2.5461805 1.4561938
3.5526814 3.5735102 1.4554124
5.1350899 3.8584201 1.4513211
5.7113776 3.9642725 1.4537488
1.7407217 -0.025996506 1.4693661
1.2382882 0.19387329 1.4678279
2.7509067 0.49877536 1.469584
0.0033111572 1.3068573 1.4689426
-0.026561648 2.512465 1.4672754
-0.02317968 2.7343898 1.4639659
1.5596547 3.2129455 1.4690803
0.15944588 -0.05987303 1.4725037
0.004414916 0.26237735 1.4735137
5.1132102 1.8127089 1.4791912
-0.012557834 2.3277881 1.4784582
5.4352498 2.600812 1.479403
5.6163673 3.0555856 1.4756347
0.63620508 3.087584 1.4729822
0.78141248 3.1076622 1.4747217
2.5143929 3.3893025 1.4722874
3.6688895 3.5916624 1.473175
5.094697 3.8500245 1.476984
3.7923837 -0.001223579 1.4801857
2.8016803 0.50358701 1.4853908
4.0140252 0.8463794 1.4880229
-0.0025619864 1.4360895 1.4884031
5.2188978 2.1334965 1.4868731
0.44939846 3.0482948 1.4848608
3.4870985 3.5567589 1.4848915
4.9254661 1.4853408 1.4945625
0.34650093 3.023375 1.4957883
5.9529219 3.9541578 1.4918671
1.226204 -0.054977924 1.5054162
0.41004473 -0.048577204 1.5002021
4.013576 0.064165249 1.5057174
4.0056324 0.34360993 1.5015494
0.0070323348 0.63505048 1.501794
1.2807624 3.1809092 1.5004188
5.6619487 3.1818044 1.5035019
2.7725196 3.4384229 1.5076717
3.6028128 3.5755792 1.5007204
1.4565769 0.22509116 1.5109916
4.0260968 0.2671347 1.5147446
1.7636452 0.28588492 1.5156832
4.0067334 0.67749256 1.5128109
4.6816435 1.4839697 1.5128831
5.0682926 1.6872499 1.5156622
0.9669975 -0.04141587 1.5251932
2.5919242 -0.013139926 1.5237222
2.6215594 -0.015928723 1.5246263
4.0007334 0.72062498 1.5295062
5.0188298 1.520282 1.5279864
5.9166374 3.8584838 1.5279716
0.35934353 -0.044944674 1.5314384
0.28564608 0.019554511 1.5342555
4.0161872 0.074208483 1.5303053
-0.034394711 2.6445229 1.530179
5.6226392 3.0917888 1.5360441
1.1704876 3.1652842 1.5359002
5.7873478 3.5221882 1.5380998
5.0864305 3.8363709 1.5324061
5.8957295 3.9732852 1.5391346
2.2821226 -0.033524007 1.542028
2.1976817 -0.027948916 1.547901
2.649333 -0.025321484 1.5414112
0.58749115 0.069760934 1.5446217
4.0021639 0.65340793 1.5483472
5.2360034 2.140995 1.5437801
5.7240553 3.3354621 1.5449924
0.34553879 0.010103002 1.5567267
-0.010056913 0.049674302 1.558344
4.0026999 0.47254151 1.5553963
3.3784616 0.61185783 1.5542293
3.4130318 0.61460078 1.5584559
-0.019372523 0.94526201 1.5500919
5.1926188 1.9966416 1.5524971
-0.008587718 2.3864353 1.5596162
-0.021351665 2.7676048 1.5543413
5.5088964 2.7898481 1.554672
0.48085892 3.0373912 1.5580598
0.86602461 3.0964658 1.5536827
5.641645 3.1607552 1.5524815
2.0285075 -0.042739213 1.5617566
3.7849817 -0.014139779 1.5690054
3.3110271 -0.0081671625 1.5670897
1.8652818 0.30200011 1.5635759
0.0095276833 1.7115221 1.5664374
5.5696449 3.0034895 1.5616155
0.49241656 3.0373623 1.5606831
5.6419449 3.1576285 1.5605532
2.2659552 3.3452249 1.5650562
0.88672388 0.13385957 1.5791374
3.9855452 0.17980626 1.5709829
4.0015397 1.4223516 1.5759529
0.11136973 2.9788098 1.5746123
1.0406588 0.15495232 1.5830846
3.1735442 0.57659763 1.5809238
3.4758697 0.63372606 1.5886594
3.9954 1.4615633 1.584371
4.625546 1.4849155 1.5887855
5.4089451 2.5297716 1.5887579
5.4950438 2.7956266 1.5877182
4.1128006 3.6930885 1.5898018
4.9264698 3.8268447 1.5807277
1.6489935 -0.030158132 1.5964127
0.67738569 0.082916141 1.590544
1.259223 0.20449099 1.5961484
2.5931158 0.45199603 1.5926636
3.7704086 0.67422122 1.5992794
-0.0091364384 0.86678654 1.5935599
5.1838932 2.0048137 1.5941725
5.5538836 2.9307451 1.596465
5.6307821 3.1555326 1.5991569
3.2503383 3.51531 1.5963751
4.7392311 3.7809162 1.5978361
2.0497353 0.34176672 1.6012723
2.5226841 0.44672275 1.60525
0.0072516799 0.5755043 1.6047587
3.9492517 0.72398692 1.6036173
3.1479666 3.5111785 1.6069585
4.7230878 3.7760057 1.6040192
3.9935403 0.67420071 1.6189777
4.6949849 1.4693582 1.6197053
4.4330287 1.4919734 1.6137069
5.1190791 1.7821329 1.6130368
0.18241519 2.9827101 1.6115355
0.34426326 3.0229301 1.6160443
1.773504 3.2592335 1.6165029
2.0192974 3.3084972 1.618058
2.1414146 3.338093 1.6124468
2.8885691 3.4454508 1.6176492
4.7755046 3.7781465 1.6143545
4.7943339 3.7806864 1.616213
0.01026094 -0.051591739 1.6249207
3.0094163 -0.021719381 1.6277405
1.044715 0.16633829 1.6259489
-0.021176606 2.3258767 1.62922
5.5345016 2.8698165 1.6201372
5.0224118 3.8147864 1.6228263
1.1892658 -0.058517411 1.639901
0.63905418 -0.038039565 1.6374496
3.989687 0.010527551 1.6356585
0.49500549 0.026110172 1.6322254
1.5737748 0.27063599 1.6343936
3.987042 0.55276555 1.6342974
0.0014900565 0.93910915 1.6397682
5.323751 2.3218627 1.6301121
5.4400368 2.6806097 1.6300056
0.62877226 3.0564053 1.6345392
3.2459455 3.5121632 1.6385292
5.2227249 3.8595703 1.6391395
5.6996694 3.941113 1.6325672
0.80872858 -0.031071417 1.6425774
2.6541476 -0.024762757 1.6416594
3.6312227 0.65550834 1.6452781
0.00028288364 0.99207515 1.649243
-0.013714969 2.2731726 1.6401339
0.62709761 3.0527825 1.6409124
0.81119239 3.083184 1.6443646
1.7423561 3.2617955 1.6480446
2.0520647 3.3139522 1.643778
3.3021564 3.5296981 1.6447361
4.8671865 3.7900085 1.6448283
2.9881287 -0.043207914 1.656123
3.8892112 -0.014343739 1.6567478
1.4222056 0.22519764 1.6559758
2.8215501 0.49039227 1.6557144
0.82899249 3.0860553 1.6510193
5.6977005 3.2967114 1.6587149
5.7766671 3.9619966 1.6521456
0.79073858 -0.048107244 1.6637567
0.9794302 0.14357659 1.6671541
1.2790997 0.19477049 1.6652498
3.6409101 0.66069335 1.6614833
2.6970344 3.4082007 1.6652256
4.6625638 3.7532828 1.6630831
5.6198196 3.9276848 1.6696076
1.5323653 -0.045763224 1.674145
1.6016667 0.27368402 1.6793783
2.5821204 0.44316685 1.6738539
-0.021263123 2.7658877 1.673594
5.6956949 3.3253355 1.6781566
5.8920245 3.7625601 1.6775565
0.070223331 -0.042927995 1.6875982
5.3828921 2.5220354 1.6841736
-0.016113907 2.9489267 1.6882372
0.64502871 3.0722027 1.6873389
1.4295032 3.2005775 1.6863499
5.9119558 3.8368366 1.686702
2.6442678 0.46319705 1.6991107
3.0976682 0.56446362 1.6937603
-0.0040092766 0.6509279 1.6969291
4.3020501 1.4926751 1.697062
0.74348986 3.0911174 1.6904196
1.4931971 3.2183325 1.6950192
1.518096 3.214165 1.691558
1.7798419 3.2662203 1.6907442
2.6357217 3.4197502 1.693851
2.6659784 3.4159827 1.6998223
2.8477998 3.4440122 1.6978827
0.43443924 -0.043074459 1.7041942
3.0493045 -0.029045455 1.7089241
3.7046032 -0.01355388 1.701485
0.25829774 0.0071192831 1.7021816
4.0038981 0.30026254 1.7038889
0.002368629 0.51334262 1.7001299
-0.0073659718 0.6123783 1.7066746
3.984036 0.80764496 1.7050869
4.0024166 0.97867531 1.7057406
-0.015053749 2.3688352 1.7037311
-0.009808898 2.6346512 1.7010856
0.8109473 3.1018479 1.7009199
4.8062792 3.7932987 1.701167
5.4560981 3.925004 1.7008113
1.4721079 0.23659346 1.7199738
2.0429652 0.34099692 1.7157185
-0.0022359788 0.63114697 1.7127696
4.0062099 1.4861336 1.7151099
1.7868035 3.2809527 1.7139035
4.58602 3.7623365 1.7149788
1.5727341 -0.041132987 1.7234641
1.7993891 -0.027873874 1.7234186
0.17159194 -0.019811012 1.7276732
0.32016236 0.0322752 1.7213595
1.2762392 0.20050561 1.7222939
1.6789095 0.2819007 1.7224411
3.3876047 0.61097002 1.7277391
-0.0034070611 2.0913801 1.7274208
-0.0095894933 2.9197855 1.7206318
2.9114575 3.4570222 1.7220808
5.8161874 3.563369 1.7282184
0.5548501 -0.057877049 1.7383795
0.88910162 -0.040731519 1.7398965
3.8792105 -0.013534762 1.7337312
1.6515656 0.25934592 1.737408
2.5506947 0.45554191 1.7368566
1.4015543 3.2096748 1.7360935
2.6757092 3.4286003 1.7371895
4.368536 3.7198713 1.7397281
4.6497645 3.7565062 1.7375813
0.15227735 -0.023917183 1.7470118
1.7970743 -0.01832027 1.7451303
0.91415834 0.13822132 1.7450686
2.3463128 3.3456452 1.7411091
5.819108 3.5844595 1.7425088
3.7541604 3.6081383 1.7446148
5.1039443 3.8391104 1.7431344
0.89729106 -0.041466981 1.7571033
0.86894524 0.12554699 1.7584509
-0.0032837093 0.62377924 1.7545044
0.0070319176 1.3537462 1.7573886
4.5455222 1.493546 1.7525811
5.0085711 1.5709703 1.755227
5.2023306 2.0627253 1.7583649
0.23894376 3.0115058 1.7593791
1.6905315 3.2431159 1.7528323
3.8769064 3.6206677 1.7525835
3.9521437 3.6444409 1.7581407
3.5739336 -0.034069195 1.7645667
2.8566542 -0.02365765 1.7649317
1.2374287 -0.019308321 1.762759
1.0546808 0.13845748 1.7679129
3.9993997 0.43453377 1.7697464
0.45408255 3.0474679 1.7610819
5.4130092 3.9068871 1.7685095
0.38258225 -0.051209599 1.7736114
3.5551872 -0.021152735 1.7774595
3.5225954 -0.019751966 1.7768161
-0.0036537051 2.2864671 1.7796609
0.31208062 3.0051658 1.7702545
2.7013407 3.4119496 1.7793629
3.8168726 3.6102023 1.7719648
5.3223758 3.8695056 1.7729361
5.1840811 3.877527 1.7749555
5.9758277 3.9716258 1.7748194
1.6658988 -0.043613173 1.781625
0.62972057 0.075373262 1.7859893
0.0069270134 0.35570934 1.7814865
2.8554974 0.51837206 1.7813946
-0.014528096 1.1488698 1.7867768
0.00037330389 1.4182541 1.7844708
4.9254613 1.473022 1.7810483
1.2386477 -0.056344107 1.7902734
0.014786124 -0.035029657 1.7940874
0.71094763 0.095306441 1.7902431
4.7976675 1.4986558 1.791743
5.0963063 1.7495179 1.79287
3.3095622 3.5488346 1.7928174
4.5672674 3.7485118 1.7929869
5.6149049 3.936358 1.7935059
5.751677 3.9524145 1.79264
5.7335238 3.9601307 1.7920041
0.56751406 0.043233797 1.8078952
5.6218863 3.172092 1.8077559
3.1947141 3.5034618 1.8080122
5.834579 3.9513288 1.8045599
0.53438127 -0.041170411 1.8195524
1.1262295 -0.039077625 1.8102376
2.9305012 -0.027127028 1.8106194
3.1214523 -0.020821095 1.8144081
2.9117966 -0.018809982 1.8165438
-0.015146911 1.3783588 1.8139608
1.680851e-05 1.3939445 1.8131006
4.2669377 1.4571915 1.8103852
4.2086067 1.4756384 1.8137908
-0.010675192 2.520083 1.8124878
-0.0070167184 2.8026166 1.8174491
2.7966881 3.4519179 1.8137937
5.7686214 3.4895313 1.816973
5.8294725 3.6569142 1.8172593
1.628952 -0.051266097 1.8264141
1.3833212 -0.042778574 1.8266053
2.3955524 -0.028745994 1.8223779
0.72445059 0.086203486 1.8258283
2.74038 0.48947114 1.8262069
-0.00069406629 0.99366444 1.8215063
3.9807744 1.4004362 1.8216195
-0.017673731 1.4633894 1.8235154
5.2508154 2.1509492 1.8255363
0.33988172 3.0101664 1.8248858
0.98898149 3.1035545 1.824338
5.6370044 3.1673691 1.8260069
1.2529854 3.1804221 1.8214035
1.4107528 3.2011712 1.8242128
1.7064135 3.2298324 1.8230343
4.1853061 3.6701088 1.8280327
4.505435 3.7302372 1.8281174
0.20345509 -0.016397141 1.8364806
4.0102711 0.33708113 1.8369162
4.0040426 0.41038936 1.8304939
2.6313238 0.48066384 1.8300142
-0.016901523 0.65924764 1.839468
5.0795345 1.6600726 1.8391523
-0.0077358186 2.4753165 1.830375
0.2304436 2.9981799 1.8369405
1.5264287 3.2216008 1.836863
3.168071 3.511112 1.8395715
5.4051046 3.8923869 1.8337991
3.7580657 0.67199409 1.8417456
-0.010351568 0.70746803 1.8448155
4.0077791 1.4865448 1.8414311
5.2996774 2.2987757 1.8471577
5.5318904 2.8771288 1.848346
1.091861 3.1416979 1.8467963
5.6948204 3.2760332 1.840728
1.913183 3.2957747 1.8495517
2.4673812 0.44812399 1.8591597
3.0212779 0.53683347 1.8549945
3.9937224 0.60204536 1.8536029
5.6791062 3.2523272 1.8517773
5.462656 3.891521 1.8513255
1.3057901 -0.04019893 1.8622429
1.347819 -0.036399856 1.8637977
3.961431 -0.01568009 1.8620203
0.6856724 0.096383065 1.8601193
2.1419349 0.35106421 1.8672743
2.6619382 0.46018201 1.8632281
4.0006328 0.74431318 1.861546
-0.034289241 2.1701763 1.8692269
3.4466195 3.5457327 1.8672702
0.015331388 -0.064824067 1.8795164
1.4584637 -0.030819111 1.8758688
0.13660496 -0.029796831 1.8701611
1.7533271 0.30956683 1.8774035
3.7645788 0.6687488 1.8797181
-0.0066918135 0.67232227 1.8772731
-0.012528032 0.6823867 1.8729117
0.0096717477 0.88939124 1.8796859
4.0320697 1.4737754 1.87128
5.2592249 2.1903334 1.8706362
4.3693671 3.7159667 1.8769393
5.9311233 3.9908638 1.8754704
3.6119351 -0.016411312 1.8852811
1.9420795 0.33168438 1.8859234
3.0123248 0.54405177 1.8803291
3.351588 0.58620739 1.885958
-0.003893435 0.72921985 1.8896966
4.5547886 1.4631624 1.8824675
4.9102168 1.4751477 1.8826768
2.6132751 3.3776548 1.8817568
2.6028392 3.3996181 1.8845732
3.3159688 3.5256073 1.8824162
4.5916576 3.7419536 1.8886185
1.1453679 -0.058769219 1.8927152
3.4480033 -0.032456651 1.8937335
2.6177742 0.46435738 1.8916709
3.9933176 0.93005711 1.8932152
3.990952 1.0428548 1.8915775
4.2019749 1.4771628 1.8956735
4.0156426 1.4967072 1.8902295
-0.011771202 1.5885534 1.8924856
5.0906563 1.7591407 1.8908594
5.1156774 1.7781837 1.8987114
0.61567509 3.0635571 1.8956296
5.6349134 3.1116087 1.8933649
1.332637 3.1832354 1.8936243
1.8147733 3.2697387 1.8988497
2.7162933 3.4261534 1.8969345
3.854125 3.6249363 1.8948598
0.20942491 -0.060718872 1.9020536
1.328097 -0.039789058 1.9058444
2.3029037 -0.029680595 1.9011614
3.1309152 -0.012037084 1.9008918
3.5121551 -0.018280014 1.9071434
4.0045118 1.3498485 1.9004681
4.0026655 1.397085 1.9090345
4.398314 1.485353 1.9071105
1.1802979 3.1498661 1.9009192
3.2102416 3.4971638 1.9062536
3.2738378 3.5072834 1.9015372
5.1713648 3.8584476 1.9033883
1.3138793 -0.032397792 1.9133563
3.0379307 -0.036727995 1.9196987
3.1373348 -0.03019122 1.9180322
2.6408808 -0.019420527 1.9124825
3.0504634 0.52960753 1.9117181
5.2241378 2.0382891 1.9146838
5.2167692 2.0487659 1.9188917
5.4544935 2.6815233 1.9125779
0.21025246 2.9936674 1.9179161
1.0347294 3.1311958 1.9121852
1.1869181 3.1468358 1.9108925
4.0052509 0.096006662 1.9220967
1.0849732 0.16382068 1.9257534
4.0029793 0.27663106 1.9219017
-0.0020575821 1.3492997 1.9262233
5.2630038 2.2050781 1.9216764
1.3720244 3.1896765 1.9207013
2.2342792 3.3484406 1.9221432
2.6118228 3.4247711 1.9214196
-0.011838764 0.54077923 1.939465
3.505569 0.63754427 1.9392447
3.6168594 0.66744882 1.9326541
-0.018442303 1.8088131 1.9391913
-0.0053804219 2.0320697 1.9351921
0.31875443 3.000984 1.9369895
1.2719972 3.1838686 1.9326117
5.2928743 3.8895473 1.9332247
5.5491042 3.9218683 1.9357409
0.38354689 -0.067671381 1.9449244
4.0062757 0.16364878 1.9406283
1.8577476 0.3018209 1.9457617
3.7172432 0.66816896 1.94683
0.01179719 1.2255683 1.9427891
-0.017486811 1.9548419 1.9402714
0.076337099 2.9570863 1.9430149
1.5988708 3.2159455 1.9440379
2.7972088 3.4533024 1.9423261
3.2041216 3.5056138 1.9484508
3.1798079 3.5146108 1.9401052
4.2549343 3.6897247 1.9439926
3.8069634 -0.012743063 1.9582357
3.9737501 -0.019062698 1.9543529
1.0279335 0.074999601 1.9565446
2.4865422 0.12479538 1.9568748
2.5507011 0.20654455 1.9552686
2.7406611 0.21182609 1.9561133
2.6375549 0.38040623 1.9518495
5.3136244 2.3017247 1.957819
0.13905931 2.9711125 1.9554884
0.54657054 3.0419893 1.9567893
1.7703047 3.2730932 1.952188
5.2664495 3.8852177 1.9570436
0.40785235 -0.047419503 1.9687502
2.7941115 -0.020251185 1.9601052
3.4230645 0.074924082 1.9646015
2.1018846 0.087011561 1.9604518
3.3625228 0.13939124 1.9663653
3.6111498 0.15279961 1.9662726
1.9268243 0.18824813 1.9684734
2.6127496 0.22191772 1.9638739
1.7583568 0.25735798 1.9685392
2.2956448 0.38357669 1.968493
0.12645721 0.39117366 1.9616656
1.5232785 0.41833681 1.9675803
3.9069991 0.48665231 1.96772
2.6278501 0.62839329 1.969702
2.8751221 0.6993733 1.9696946
3.8782048 0.71611166 1.9601486
3.4205024 0.80591768 1.9654405
2.4435968 0.94205135 1.965663
1.0032133 1.0954535 1.9683337
4.526825 1.4840662 1.9652107
4.9372921 1.4935524 1.9605858
3.8926144 1.5578189 1.9693158
3.8242941 1.5913196 1.9679422
-0.01568681 1.9069073 1.9643056
5.2684989 2.1694555 1.9692016
5.5218191 3.9154549 1.9651489
2.7933595 -0.0042654723 1.9728358
0.45244479 0.020813853 1.9760206
0.57070887 0.034114391 1.9736938
3.2557456 0.036028415 1.9746101
2.6145141 0.043296412 1.9720027
3.0822027 0.058123216 1.9754231
2.0671422 0.061568022 1.9772613
0.34569818 0.07942082 1.9761348
0.75525784 0.088729903 1.9784558
0.42185515 0.098120868 1.9790342
2.9114463 0.10209979 1.9710598
1.2755964 0.12350234 1.9751003
1.0615458 0.13051009 1.9790065
2.9662123 0.14330205 1.9700441
3.8223243 0.15954798 1.9779367
2.5830891 0.19144654 1.9789259
3.8124642 0.19666997 1.9710796
3.7754483 0.21260414 1.9734559
2.6913133 0.24416465 1.9761322
-0.0059894621 0.27416909 1.9714715
0.77470112 0.30262277 1.9705994
0.82990968 0.30761519 1.978008
2.8064156 0.31908035 1.9726508
2.8760102 0.31825966 1.9727347
2.3421226 0.33510524 1.9777889
1.1642787 0.34158713 1.9735715
2.7228408 0.35062763 1.9774485
0.82146513 0.36549699 1.9706593
3.0209918 0.37008929 1.9797904
3.0397985 0.44868302 1.9714861
0.24017775 0.46055311 1.9792674
1.95716 0.56368977 1.974365
1.4191197 0.58257949 1.9795971
0.99812067 0.59172088 1.9794242
3.1426337 0.61098385 1.9714544
1.4653122 0.64281839 1.9755099
0.7539829 0.6689952 1.9702868
0.88898492 0.66120422 1.978476
1.1177111 0.67290163 1.9767988
1.5608342 0.68256074 1.9770145
1.6366684 0.74635148 1.9747503
2.220588 0.77666789 1.970984
3.2467775 0.80020106 1.9705706
2.7304699 0.82981586 1.9724801
2.3458502 0.834387 1.9734871
1.4789375 0.85681635 1.9734077
3.3000083 0.91112489 1.976068
3.5827036 0.96457893 1.9750729
3.3147483 0.97575659 1.9765961
3.7214842 0.99106437 1.9763916
-0.013780534 1.0144768 1.978678
3.5697689 1.0696549 1.9741359
1.4373138 1.139395 1.9776413
1.0644053 1.1590097 1.9777496
2.8337834 1.1705203 1.976711
3.2913373 1.1930146 1.9707854
0.86743033 1.2100744 1.9767306
0.47777951 1.2391605 1.9781227
0.31660426 1.3359575 1.9746718
0.61002791 1.5950971 1.9764745
1.1136206 1.6158824 1.9762707
5.0637808 1.6759408 1.973021
4.5488467 1.8687696 1.9796271
3.8788152 1.9790952 1.9798052
2.8578897 2.0417371 1.9750886
1.3574774 2.2688971 1.9776323
3.3502355 -0.025923997 1.9855835
3.4648471 -0.022097334 1.9850821
1.9620299 -0.017027646 1.9803762
1.4795266 0.066633821 1.9831617
2.883893 0.073852599 1.9810462
3.5027418 0.087462977 1.9812305
1.3609341 0.10695317 1.982089
1.0242161 0.12669507 1.9843168
3.0194561 0.1353848 1.9856813
0.87781179 0.15554029 1.9873009
3.9836044 0.16354665 1.9820228
2.3162484 0.28231552 1.9813435
0.98935997 0.30025876 1.9821279
3.7951655 0.30955192 1.9841919
3.3699765 0.31678197 1.9879243
1.5732563 0.32788438 1.9809084
2.6462388 0.32707354 1.9846873
3.0333936 0.33733884 1.981693
0.73687947 0.34218255 1.9893486
1.6171286 0.35259297 1.983187
1.755811 0.36124212 1.9866536
3.0477977 0.36981162 1.9840908
1.9127605 0.39131683 1.9876957
0.27040899 0.4289614 1.9859941
0.82982886 0.42344564 1.9805009
3.3793988 0.44029617 1.9854157
1.1440879 0.48651785 1.9867074
2.3640585 0.49989963 1.9833803
3.7110195 0.51371276 1.9873245
3.6155553 0.52700692 1.9811223
1.4210745 0.54279011 1.9847465
2.8486369 0.55122477 1.9849088
2.7240901 0.59190315 1.980947
0.17716807 0.60825479 1.9804807
2.341805 0.6125111 1.9870846
2.3947561 0.63343471 1.981333
0.88554192 0.64075673 1.9801729
3.8429065 0.69327986 1.9803596
3.9586358 0.6956203 1.9822536
0.0020124316 0.7008577 1.9824305
1.6697104 0.70688301 1.9890537
0.24892873 0.71320486 1.9814615
0.73353493 0.72761416 1.9876046
2.1610899 0.72893941 1.9823577
2.4476552 0.72844326 1.9863613
2.9671104 0.72600836 1.988395
2.6026552 0.73156595 1.9847517
0.058279812 0.74860358 1.9831212
1.4805517 0.76711774 1.9864266
1.1936371 0.7828241 1.9860163
3.6468625 0.78241283 1.9830148
0.73413956 0.79819465 1.9895451
1.3060905 0.80553061 1.9877501
2.9460166 0.80356622 1.9851172
2.1145453 0.83768994 1.9820383
2.2728186 0.83383852 1.9849155
2.8539336 0.8495549 1.9817064
2.5073466 0.8548106 1.9819171
3.2218714 0.87571579 1.9836931
0.80671608 0.94298393 1.9815407
2.0693588 0.94936544 1.9839017
0.46624035 0.98346168 1.9877875
1.1892326 1.0184515 1.9895654
1.7550521 1.0318632 1.988049
1.9608073 1.0520473 1.985533
0.46144414 1.0680645 1.9811201
3.173737 1.0607867 1.9892337
2.7217565 1.1005325 1.9818962
2.7765121 1.1454282 1.9896309
3.513145 1.1522343 1.9881322
2.2540281 1.1706655 1.9842391
1.730408 1.2264123 1.9849124
0.36424428 1.23263 1.9838665
3.1005898 1.2879708 1.98893
4.0001407 1.3131294 1.9817541
2.2761874 1.3369677 1.986733
2.9059634 1.3441718 1.9895644
2.0095165 1.3533883 1.9806712
2.2900493 1.3528743 1.98489
3.2557988 1.3768866 1.986609
1.3334423 1.3866172 1.9854655
1.5361669 1.4034207 1.9855003
3.1555378 1.4307249 1.9853873
1.0764397 1.4409482 1.9807606
0.26249391 1.4512808 1.9809361
1.5803015 1.4572327 1.9826076
1.1039737 1.4684045 1.989938
4.7286901 1.4884188 1.9802265
3.582778 1.4905257 1.9867771
4.3274632 1.4999197 1.9867914
4.5857711 1.5092583 1.9859829
3.9674945 1.5303326 1.9869752
4.3167553 1.5446224 1.9871557
-0.0069822669 1.5735075 1.9818439
0.8282733 1.5867569 1.9857938
4.6965909 1.5891981 1.9885211
2.3013058 1.591063 1.9814312
2.3854606 1.592473 1.987622
2.4877865 1.5987349 1.9822323
1.7471037 1.6042237 1.9899225
0.99316967 1.7150879 1.9815187
2.7845094 1.751827 1.9812064
3.4020939 1.764708 1.9891741
4.509572 1.7655518 1.985069
2.4547596 1.7750969 1.9818282
0.81183386 1.8210108 1.9840336
1.9348788 1.8323047 1.9888451
2.7955303 1.8377917 1.9802611
3.4135635 1.8929079 1.9887698
5.0802469 1.899507 1.9840858
2.2783172 1.9068377 1.9888337
0.043162405 1.913348 1.988147
2.1610377 2.0064454 1.9891083
3.0240488 2.0250287 1.9881315
1.4476281 2.0326252 1.9894154
4.0734997 2.0520439 1.9870698
2.5672538 2.0696747 1.9802895
4.0278211 2.0864339 1.9860885
0.72820675 2.0932951 1.9873977
4.4949512 2.0914237 1.9855664
0.36377966 2.1231403 1.9877574
1.0417342 2.1216397 1.9816802
2.1116691 2.1510313 1.984961
0.27953583 2.1784656 1.9848881
1.1781189 2.1706419 1.9864466
3.1667445 2.1926224 1.9804068
1.3996533 2.2013812 1.9815097
3.2783418 2.2025185 1.9855711
1.326593 2.2558825 1.9873886
4.8626599 2.2776906 1.9860334
4.9776726 2.3101273 1.9849136
2.8276029 2.3678784 1.9892287
3.4941847 2.3662987 1.9864068
0.14220941 2.3797801 1.9882121
-0.021031111 2.4291143 1.9878635
5.254272 2.4238446 1.9896758
0.40053612 2.451674 1.989783
1.4057316 2.4762919 1.987864
2.7520051 2.607033 1.9820538
1.4537097 2.6463628 1.9859562
0.65664172 2.7050376 1.9875894
4.9462032 2.709358 1.9854991
4.972579 2.8347468 1.9874978
2.1921244 2.8404348 1.984405
4.4576058 2.9479938 1.9867351
0.3104738 2.984868 1.9851801
5.5891337 2.9990602 1.9864941
5.4881148 3.1122098 1.9888263
1.3775357 3.1866663 1.9868345
5.1504006 3.2016413 1.985405
5.1830387 3.3518088 1.9882452
5.7042336 3.9539909 1.9803832
1.4541336 0.0084845424 1.9920824
0.92749763 0.16555578 1.9937086
1.0722423 0.20307037 1.9924564
0.5649749 0.26879179 1.9990864
0.38817632 0.35847548 1.9912243
3.2159591 0.48066145 1.9935863
2.707541 0.49697918 1.9948342
0.97873843 0.53279424 1.9938531
1.4942291 0.59495002 1.9959795
2.3187253 0.59250826 1.994909
0.21949571 0.61046642 1.9922729
2.0116916 0.64839524 1.9939611
3.2580452 0.64927006 1.9982643
2.1687386 0.66878784 1.9919431
0.60638106 0.69532681 1.9953794
1.6252418 0.72045803 1.9916823
2.4829454 0.76844817 1.9964905
3.3062439 0.76650357 1.9946337
2.7615304 0.81404692 1.9971335
3.1242731 0.84136158 1.9931209
3.5656781 0.84489149 1.9941549
3.9458508 0.8410399 1.9937391
2.9442377 0.85307425 1.9972165
1.6735146 0.86291856 1.9907227
3.0787287 0.86281544 1.9905782
1.8906775 0.94739503 1.9975371
2.8541076 0.94299227 1.9903162
1.3278255 0.99440449 1.9943256
1.1109085 1.0093405 1.9924097
0.43996894 1.0147564 1.9947782
3.4077065 1.0297785 1.9969122
3.1303084 1.0522325 1.9903905
1.3568255 1.0655534 1.9947224
1.2919192 1.0826945 1.9909539
3.8051867 1.0964513 1.9959798
3.0633359 1.1317286 1.9914081
1.6566994 1.1702855 1.9909251
1.3204305 1.2179582 1.9922132
2.2084329 1.2313895 1.9956071
0.52945578 1.2420654 1.9980233
0.55408406 1.2664709 1.9945741
1.5893362 1.296886 1.9952879
1.2640381 1.3356707 1.9931033
0.90847945 1.3498366 1.9943514
3.3035197 1.3485975 1.9901347
0.41758287 1.3542833 1.9958978
2.72665 1.3786871 1.9962192
0.031005919 1.3895447 1.9959137
0.079377115 1.3847065 1.9961987
2.7967737 1.3855314 1.9948182
3.7827482 1.4577892 1.9980335
4.5846767 1.5385044 1.9989424
2.7734416 1.5416229 1.9900448
3.8929372 1.5564504 1.9955564
3.0379176 1.5758224 1.9960897
0.57645869 1.5985785 1.9960237
4.1076961 1.62782 1.9988067
4.9308562 1.6478655 1.9991596
0.66801178 1.6513267 1.995266
4.9531379 1.6511016 1.9955103
1.271185 1.6646843 1.9943457
3.2695098 1.665303 1.9953692
4.6623254 1.669826 1.9950168
2.1933982 1.6716399 1.9928992
4.6443105 1.6784263 1.9992192
2.4871631 1.6876876 1.9949248
3.1913824 1.6984348 1.9997783
2.541316 1.705857 1.9928422
4.9755259 1.7136834 1.9943497
1.5936308 1.7410181 1.9920013
4.0279579 1.7432411 1.9946089
2.2819073 1.7802403 1.9944973
2.4924564 1.7889185 1.9937961
0.71850252 1.8184533 1.9943836
1.2672875 1.8218329 1.9935963
3.3213758 1.8212471 1.9949074
0.55397451 1.8479741 1.9950793
