# .PCD v0.7 - Point Cloud Data file format
VERSION 0.7
FIELDS x y z
SIZE 4 4 4
TYPE F F F
COUNT 1 1 1
WIDTH 1509
HEIGHT 1
VIEWPOINT 0 0 0 1 0 0 0
POINTS 1509
DATA ascii
1.666051e-05 1.0227705 0.16293046
5.1228743 1.821152 0.72865403
0.56063944 1.3133699 2.0040827
1.797927 2.9981105 2.0028214
5.6073856 3.1061711 0.0064348648
0.01027204 1.705338 0.64315546
3.9506593 0.0047740075 1.3771192
3.4377682 2.4878078 1.9902431
5.8929286 3.6727507 0.001520389
5.4335351 3.3165591 0.016552744
2.1817076 2.2940824 2.0060067
0.33740708 1.7965688 2.0094922
1.8948637 0.98458344 2.0107925
2.3901982 0.0080644246 0.10098401
3.6831205 3.606823 0.35901865
0.65628862 3.1287036 1.4649434
1.5671569 3.2564242 0.79307288
4.4554276 3.7448344 0.19646852
5.2381682 2.0962605 1.1619413
1.2851934 0.76828218 0.0052812072
0.7878204 -0.0060409131 1.6861115
4.4791603 3.7451515 0.3605867
0.17318937 2.1267328 0.0098957522
0.83886033 -0.0017814592 0.56406397
5.7907362 3.5026228 0.67926776
3.5026584 1.9728225 -0.0016911855
0.73615026 0.77317441 2.0024137
1.738022 0.0072489539 1.491986
0.95702684 1.9653341 -0.012990643
0.0024482915 2.3870397 0.70277721
1.2980251 3.2168591 0.96570122
5.526639 2.7961898 1.551919
4.5196724 1.7834315 1.9917078
0.20168573 3.0284922 1.6042801
0.39516503 0.61989558 0.0059586451
4.0159149 1.5067203 1.8505268
5.6825733 3.1865046 1.4970363
3.991971 0.077363923 0.35414138
1.7965664 0.0074010808 1.7460738
5.7987552 3.4991102 0.48365512
1.2289497 2.2133801 -0.017296955
2.5864935 2.4979305 -0.0100068
2.1075764 3.3475544 0.14839974
0.0054147262 0.82955635 0.73169583
5.5910916 3.3019936 2.0074012
1.1944517 3.0714543 -0.013085756
3.0403202 0.47726303 1.9901342
4.5751052 1.5072683 0.40994939
0.55416447 -0.0055065588 0.29622293
2.7537274 0.52502877 0.6240654
4.9454041 1.5080911 1.970068
3.7402883 -0.00030396626 0.52396315
5.46948 2.6585736 1.4250265
4.8558035 2.7058787 1.9968259
5.8168139 3.5603051 1.1239241
4.0254483 2.2746048 2.0121038
4.0034466 1.2644804 1.3728036
2.7151449 0.50424707 1.3954862
3.3073711 1.8659714 0.017056778
3.7906137 1.4811255 2.0072887
4.886385 3.3119855 0.016617967
1.7273597 3.2665112 1.8141327
3.0653603 3.5175319 1.4125464
2.1966 0.29193106 0.0060596713
2.5994811 1.1336094 0.00019461765
0.9282496 1.3618996 2.0167634
0.057553466 -0.0048776781 0.91297215
2.049659 0.3740043 1.6204822
0.88620234 0.0013524485 1.762225
1.7947506 3.293422 1.6073599
3.5202255 3.4111352 -0.0047450941
1.7197254 1.4905382 -0.0022728844
5.8695807 3.6490602 0.0034915635
1.7190253 3.2816942 1.2576768
0.44468752 1.0625092 2.0066648
3.5087025 2.3915639 1.9867333
3.9380934 1.3404704 -0.012086025
4.9856801 1.4838849 0.5083791
5.485652 3.5184093 0.0065705525
3.62606 0.6839745 -0.0023564596
4.2717843 1.5073428 1.4471916
3.8111234 0.21962111 1.9925473
0.01513096 0.2336178 0.33043423
3.7352009 0.70929247 1.4299474
2.0957456 0.38981879 0.49724379
3.4619107 0.0035443017 2.0084932
2.2560358 3.3822141 1.9123513
1.616228 0.31384623 0.72300076
4.7147641 1.7357174 0.0062802541
2.7859812 0.52550793 0.58839375
3.9957643 0.20401029 1.2077097
5.5875897 3.4497023 1.9980056
2.8404613 1.5440627 2.0179574
5.1642675 1.9096044 1.1295058
4.4134541 2.2105668 1.9946356
0.0074411295 0.87299347 1.261511
2.0398419 2.0276577 0.023562454
2.1939909 1.5460459 0.0027596892
0.080437325 3.0020242 0.27730417
2.6398964 3.4442723 1.0545571
0.39850056 1.9497432 -0.0046987091
5.4236221 3.4876087 -0.023659011
3.1037374 0.59152454 0.26390928
1.0257845 0.11815706 1.9778124
1.3003415 3.2221975 0.1812
5.0892506 1.7298863 0.96623224
1.197686 2.0695848 -0.011212367
2.2868447 2.5503809 -0.0050748046
0.0062414897 1.6324582 1.2863512
2.1520181 0.39033142 0.60395873
1.1155704 1.0521704 2.0046806
3.020647 0.55527043 0.59540164
0.43956167 1.612064 -0.015083958
0.64685589 3.0955956 1.6331979
4.0069499 1.334731 1.9925166
2.2403219 0.41761646 1.3689687
4.0009937 1.1450861 0.2928229
5.6414294 3.0899508 0.11707592
4.0295625 3.1182489 1.9961568
3.9942861 1.2258413 0.058111161
3.1632278 1.4585221 1.9945947
0.11491033 0.013198012 0.019532559
0.017571637 2.064743 1.2464606
1.7856414 -0.0016740782 0.36510748
4.0043354 0.67085022 1.5655113
2.8733823 2.4002039 1.9915475
2.1708837 0.70391184 2.0080307
2.1149712 2.0575223 2.011353
2.8048785 0.52107692 1.1506782
0.48925561 1.906208 2.007648
1.1617212 2.0123057 2.0203004
5.0373631 1.9763952 2.0053139
5.0780048 1.6965132 1.5233566
0.29634857 0.86302775 2.0175626
1.2383189 3.185266 2.0011225
2.5944057 2.6814146 1.998275
5.7113905 3.3772614 2.0170166
3.6972625 2.6077487 2.0061865
0.58021337 -0.0035977217 -0.0023056592
4.8130546 1.506857 0.43962136
3.9823129 0.003088356 0.61260372
2.6321502 0.51085627 1.8481576
4.2212176 3.653326 0.020562243
2.7945578 1.7822702 1.987125
3.9015217 1.5789506 2.003912
2.97612 1.6112745 0.014440297
1.4720559 2.6324186 -0.011913124
1.0213202 0.1996147 0.12618412
3.0135825 0.57194358 1.8980459
-0.0056558801 2.7802637 1.4590173
0.0057780524 0.26842993 0.63486397
4.5867143 2.5502241 1.9993
5.6573877 3.1753724 1.8196535
1.6998124 3.2854095 0.60478693
5.4642148 2.6470768 0.08665289
1.1233062 0.0019547779 1.8326644
4.9700985 2.4055088 0.0023193611
5.2821856 3.875699 0.45721889
5.7778077 3.9591999 1.7787526
0.0063521345 2.4331536 1.5580355
0.010709325 0.51164055 1.2072861
0.34842244 0.0025675946 1.359998
2.8703334 3.4711277 1.6874802
3.4182215 3.5686059 1.1669649
5.2240834 2.0653989 0.17400956
1.111992 1.5112274 1.9977659
1.1915519 3.1861467 0.92141974
0.26377362 2.766227 0.018854713
0.81090599 0.98793525 1.9943035
1.6394019 0.78518963 1.9898255
0.11910652 3.0352793 1.1218334
4.9334998 1.4859117 1.7907315
1.7704542 2.104495 1.9927541
3.3695185 0.34311914 2.0080106
3.3472743 0.00055987772 2.0089748
4.6708565 3.7821414 1.2247481
1.234918 0.004560105 0.0057001179
0.87772781 1.2186445 -0.0046364903
4.0379047 1.7647324 2.0012248
3.208739 3.5451679 0.44239929
1.815485 2.170414 -0.0079483474
5.4853873 2.7181296 0.14395712
1.3045255 3.2171991 0.31401849
5.2665925 2.1561136 1.3415176
4.072494 3.6731563 1.0862454
2.3943524 1.6259044 1.994884
4.2642498 3.7182789 1.231779
5.6623688 3.1630287 1.5543089
0.41617689 2.6538358 1.9922614
5.1292858 3.8501558 1.7300246
0.95186776 0.1847651 0.85429114
5.3582597 2.4567082 0.61960697
4.1712923 1.9753537 2.003026
3.9131844 1.5494815 -0.0071485844
1.0719211 0.069098756 -0.00027192169
0.27789065 0.15968344 0.0065274141
3.1431427 0.8478353 -0.0019286666
3.7702568 0.014461532 1.1910757
5.0710077 3.0259116 0.0087189991
3.4204946 0.28851444 -0.0018450082
3.0689902 -0.0020546247 0.13409199
0.72180271 3.1273093 0.54678446
3.6265204 3.5945327 1.4148139
0.37960571 -0.0050991038 1.7957891
3.0466664 1.6045716 2.0038352
1.1366729 3.1902516 0.69761974
1.4503009 3.2379584 1.6776007
3.8428488 -0.0088098496 1.2760712
0.010855393 2.8517873 1.8118323
-0.0019059295 0.34374696 0.15004021
3.5927951 2.863575 0.0024775274
-0.0012012019 1.1101108 1.2466798
5.6082201 3.0089781 1.9817371
2.9107347 0.64606571 0.009241567
3.4581008 2.6691029 0.0056094979
4.4454827 3.7534511 0.23240997
1.6342335 0.31380376 1.2157642
5.328135 2.3737798 1.1282959
2.0289369 3.3327579 1.1821696
4.7861853 1.6973134 -0.017073963
1.6770921 0.9016335 2.004688
2.7412696 0.51882952 1.8443195
4.0101862 0.8568328 0.20458136
-0.0055733016 2.5025215 0.29441634
2.9025278 1.4820802 0.0065723811
0.71069515 0.003964758 0.83288985
0.71095526 0.11955906 0.26548567
0.26737842 0.048893441 1.2631941
-0.003623517 2.8143375 1.5490681
0.4315502 0.0019850964 1.7263222
2.6547804 1.6279827 -0.0052119419
0.76879424 0.010746315 1.3413094
1.4141809 1.1688412 0.00745844
0.007563212 0.010524063 0.25967637
3.4100392 3.5650368 0.96727717
2.9111462 3.4714925 1.6072568
0.083140284 2.1977787 0.0010047122
5.7172933 3.3314681 1.6703115
2.1543691 0.41227695 0.81766474
2.9924936 3.4948287 0.94191903
1.87139 0.0072466191 0.044550247
0.93390483 2.2683661 2.0028439
2.3218136 0.007352598 0.63451344
5.2232742 3.7763929 1.9975002
5.6934872 3.8535941 1.9976904
4.8090458 1.4906626 0.70361143
2.6375966 0.41173932 1.97096
-0.00080976437 0.65018225 0.14566125
4.4064035 1.5033116 1.9164077
0.78302765 2.0046954 0.0032865214
3.0412099 0.59482324 0.93992609
3.944531 3.6592684 1.0363872
0.92023522 3.1731746 0.57841003
4.9589891 1.4920319 1.4561994
1.1892586 -3.2081643e-05 0.97136599
2.4881923 1.7753328 -0.0070251697
5.4200678 3.9010606 1.3099921
4.7199473 3.7856243 0.049835309
2.819232 3.4805276 1.8032839
3.9872689 0.82672471 1.7207431
1.5429004 0.29990754 0.34204602
5.6643267 3.9336133 0.50570923
5.5528002 2.8765988 1.6166204
3.5460467 0.0036073476 0.28610271
5.4664631 2.6477418 0.35252744
0.53145456 0.0042750789 1.8417062
4.610827 3.7768984 1.7023568
0.99764162 0.20323114 1.2256038
1.0921376 2.4485011 1.9928308
1.193501 3.2004983 0.94498318
1.0053116 0.47876158 0.0052212523
0.0054624365 1.4821446 1.4960196
5.0173335 1.582996 1.7640052
4.3272271 3.702738 0.93213189
1.142265 -0.017077206 1.9153379
5.2113805 3.8591664 1.9800855
0.49265087 0.070026025 1.6537175
0.64632607 0.23951459 0.0062361215
5.591392 2.9689033 0.65489888
2.0926414 2.5207219 2.0130401
1.8631792 0.33735684 1.4083459
0.08010944 0.00034563729 0.38233879
3.0066466 0.0037915334 1.6509391
2.6223378 2.2038548 0.0010675804
4.7480378 3.7884917 1.5913379
0.5442974 2.3154483 -0.007686282
0.2393399 0.045789987 1.2557217
1.2751 0.23957397 1.7424816
2.2093551 2.8315864 -0.008404783
0.01856794 2.0754979 1.0820247
1.7194642 2.1655762 0.0031546089
3.8838286 0.74922132 0.59554636
1.1916169 0.80271024 -0.010335842
0.01222028 -0.015005619 1.901639
1.4339958 0.25060299 0.54779154
1.539178 2.4300101 -0.014539837
0.001129196 2.2941208 0.22925083
4.6517344 3.199276 -0.010328162
0.37090516 0.0085764593 0.25827539
1.8188133 2.0093973 -0.0123621
1.0545317 2.1647894 1.9831603
5.1661716 2.9508228 0.011644732
2.0539415 0.38195911 0.41715136
4.1914992 3.3524864 1.9926933
1.4801024 0.57917184 2.0186877
1.5716528 0.2924411 0.45802873
1.4049317 2.5560315 2.0024414
0.0088883601 0.93405169 0.80352539
3.0991521 0.58992559 1.7113304
3.0360844 2.0537694 1.991526
1.7236559 2.2198989 2.0160949
5.8121481 3.9746573 0.18199354
1.5698205 -0.0042011617 1.7461355
5.9231853 3.8206141 -0.0090008881
4.9421897 3.3297009 1.9944426
3.8610241 1.271391 0.0099637276
0.031993814 2.9978456 2.0050616
3.719352 3.4817529 0.0055286754
4.0857048 2.0731075 1.9907222
1.477293 0.10675099 2.0047326
0.8049444 3.1291423 0.17381418
0.85211569 1.0368266 -0.027944954
-0.014960969 0.99207282 1.5624442
2.4059277 0.43763226 0.66693395
4.7785521 2.5297506 2.0109632
2.0693407 0.0084207505 1.4823133
0.35485134 1.2985013 -0.0034277139
-0.011986597 1.2062874 0.33644673
3.0373025 0.57068181 0.70241672
0.0012465791 1.0114343 0.01000247
1.522421 1.6784765 2.0076985
1.4735893 3.2381608 0.32787824
0.19625613 0.010300161 1.241954
1.7901181 2.2851567 -0.0030865457
2.5892723 0.014413343 1.5466362
4.7953258 1.7864993 -0.0034462118
3.5822437 3.072242 1.9943019
0.92318434 0.0078340247 1.4050908
3.6664844 3.6195714 0.65548247
2.3769965 0.007615719 0.6470452
4.0221834 1.3727735 0.93278682
0.015377307 1.5773139 1.2361646
2.4982913 0.56160527 -0.0023547374
2.1607049 3.3543696 1.244854
-0.00066885469 0.40234554 0.80981547
4.7597747 3.5186327 0.011057447
2.8435585 0.0071680802 1.0429162
5.8667159 3.6320388 1.3951519
-0.0024397029 1.1199332 0.6562767
4.7162366 3.7858682 0.97023755
2.074358 2.4699044 -0.0014722489
2.5827351 2.6232388 0.011341544
0.11975688 2.534945 0.010599575
3.0439494 1.9991794 -0.012907314
5.281538 2.1816092 1.9723101
3.8663297 -0.00060528115 0.87513381
2.4927363 3.4179914 0.26861012
5.8536448 3.647954 0.67501378
2.7075169 3.2828279 -0.0020404328
2.2117398 3.3217978 -0.0076719406
5.5622826 3.9549561 1.3031412
1.0985453 2.1836033 0.01113824
0.049128488 1.5737163 0.013873256
4.3465714 1.5025041 0.64725459
3.6093791 3.6068258 0.16966391
5.4741559 2.7008517 0.14174172
4.0106983 0.7560451 1.2348093
2.8297002 3.4830298 1.0504578
1.2806314 1.706314 2.0003579
2.1218383 3.305264 -0.008897623
0.00040089287 2.1597624 1.079478
5.3444424 2.3475502 0.47070053
5.8425698 3.5902944 1.7322155
5.2556729 2.7805433 2.0006654
3.9793925 0.14972961 0.47660854
2.9696536 0.75526255 2.0043244
4.0210342 3.663929 0.24777201
2.964505 0.17242806 1.9916095
2.549633 3.4396496 1.3750349
5.0718818 3.858309 1.147038
0.74833089 0.14183293 0.52746511
4.4137416 2.9908328 1.998099
1.9667947 3.323149 0.28950018
1.9901073 3.3335593 0.48489642
0.16553529 2.4151638 -0.0017780979
1.0223339 0.19591275 0.34204352
5.2332244 3.6635926 -0.014076775
3.0092928 0.54106808 0.070891932
0.48414412 1.2864597 1.9878583
0.72244698 0.13031209 1.8468437
3.3328094 3.5734885 1.781625
3.4651549 -0.012067224 1.372732
5.7430019 3.3447247 0.27908507
1.4435912 3.2264915 0.85704714
2.7636552 0.013905627 0.1831789
5.4883251 3.9009893 1.8378814
4.3104267 2.3566489 -0.0029668408
3.3253269 3.5529749 1.6337322
4.3627343 1.8276521 0.010429084
1.8524693 -0.006338472 0.89681298
3.6746421 0.30009755 -0.01556228
3.5443833 0.39676911 0.0049826666
3.0330975 0.36607254 2.0014143
-0.0039691119 0.31772456 1.0521804
0.095282651 3.0068517 1.9359393
3.9729805 3.6713536 1.1853808
1.2311333 3.1987631 0.91586417
4.7030706 1.4823707 1.6293175
3.9572515 0.13653706 -0.0042792116
0.012737475 0.97251576 0.3465808
1.310956 0.0082611647 1.9358063
5.8725443 3.6554949 1.4130481
5.2129273 3.2451675 -0.010598646
0.20071115 0.031627346 1.8582302
4.0021362 0.077670366 1.0657337
4.0100083 0.35727918 1.8571301
1.3056117 3.2201393 0.66735524
4.1540446 2.9500489 1.9977933
1.8064055 -0.0026985814 0.8292889
3.0797849 0.5793767 1.0422145
0.13092221 2.4244025 1.9966551
3.1800046 2.2202337 1.9822512
5.1409478 3.8605559 1.1478986
3.8446946 0.71979165 0.1385323
5.5080299 3.12288 1.9829249
4.8162327 2.6381044 0.009274805
5.5749569 3.93152 1.9220423
0.27842021 3.0302894 0.69965702
3.9936063 3.6534455 0.0019332465
4.4412894 1.5068395 1.6229711
0.24740505 0.053070601 1.0412756
4.7922821 1.4930332 0.80308771
1.9362905 3.3122249 1.992058
5.4951415 2.9625022 -0.009785885
1.8967539 0.30891714 2.0205412
1.0433732 0.20616809 1.6463572
3.2285609 2.260674 0.015012128
1.0477257 2.2003517 -0.014584578
3.7653744 -0.003221621 1.0166247
4.8938427 2.4674523 0.01887211
1.6010718 0.30995491 1.6990212
3.2167003 0.50816631 2.0120113
1.8969784 -0.0087273084 0.27838519
5.467977 2.6568611 0.66435564
3.5895813 0.66916907 0.30172163
0.010462116 2.3352857 1.7790391
5.3930316 2.494951 0.094530314
-0.010331769 1.589808 1.122486
2.0002885 0.11462463 0.0078998217
2.4904268 0.61793196 -0.00037955231
3.3798442 0.46653113 2.0043125
0.33263594 2.286468 -0.01347782
2.6903474 0.27534997 1.9965857
4.2538457 2.6576219 2.001986
3.4122162 1.7907164 1.9952731
4.5299611 3.7464845 1.8157606
0.013312525 2.4683509 0.056997865
2.8725629 0.93749863 0.0030638357
0.0087541901 2.9442539 0.94611037
4.9341412 3.1800423 -0.025054978
4.0254593 0.28410539 1.5356579
0.081103913 3.0096908 1.9911884
3.9979734 0.32856771 0.70713186
5.3467865 2.4792845 0.0034994739
0.00773879 2.5246415 1.8279223
-0.010783729 0.12137811 0.29549265
0.93585908 0.0014225664 0.68461633
4.312592 3.332391 2.0056121
3.456953 3.5777953 0.72189963
0.5647794 1.8948359 1.9989642
1.4854474 2.9888973 -0.0067672506
0.84461778 -0.005020936 0.30978113
3.4683325 1.0772362 -0.0069825416
4.3642449 2.0523102 2.0083327
1.6666381 1.3096261 0.0009634241
0.33144447 3.0515347 1.7628386
3.1280973 0.015228308 1.9240443
0.98884755 0.34392893 2.0011969
2.6283896 2.0204816 2.0098722
0.47073251 1.0309572 1.99999
0.00053065579 2.2385092 0.79044753
2.3127141 3.3988593 0.66053557
1.6137688 1.3118976 0.00016232971
5.4247746 2.5371923 1.5884691
0.21847039 2.8580151 1.9974983
5.1399651 2.7098794 1.9978777
2.3398709 2.7733743 0.00042267534
1.2346671 0.020451115 1.7850515
4.6869149 3.4115007 -0.0054274136
5.0647511 2.8986621 2.0109372
0.22426592 0.040690366 0.094703391
0.89174283 -0.00048594587 0.94975758
0.069898918 3.0237806 0.077380233
1.0409974 -0.010616444 1.150987
1.0368657 0.19137613 0.65907907
3.3463671 0.61614311 0.54588968
3.5910125 1.4251399 0.00028780883
2.0647306 -0.0040344242 1.4689995
4.4876981 1.4912559 0.9715156
0.074924462 3.0042474 1.0424291
4.6451631 1.5021561 0.42201132
3.9755118 0.56893599 1.449643
3.783308 0.70831436 0.52693969
4.0034671 0.2463184 1.4540735
4.9879942 2.7435946 -0.0077687399
2.5577538 0.46452686 1.2276406
2.3270936 0.43302572 1.3174208
3.2345304 2.9676595 2.0088806
4.9517951 3.8376164 1.5676564
4.1371665 3.7099011 1.5776211
4.2120781 2.2125771 0.0015736679
2.3388569 0.77624911 0.0020190706
0.49144176 0.72756702 -4.8035694e-05
2.5219669 0.47675279 0.73729205
2.9816291 0.00016159457 1.0145593
1.7557216 0.39935344 2.0055118
4.494041 2.7826018 -0.0096034817
5.2298136 2.0795689 0.38722441
3.7350216 2.4235525 2.0063362
1.3266116 1.2592404 2.0025702
0.25578105 0.053442206 1.7237371
1.8081675 3.3159847 1.7045525
1.263342 2.5151458 0.0043308735
2.8435612 0.0017145164 1.0444325
5.1118426 3.8455064 1.5193241
7.5557255e-05 0.12533286 0.57328564
4.0090961 0.69455588 1.5297461
2.3996301 3.0340393 2.001236
3.5187891 1.1774664 2.0002096
0.52185839 -0.0079531921 0.88215911
0.0064314371 1.670976 0.89770931
0.83716577 1.6315446 1.9923409
5.2362423 2.0502491 1.9190416
1.8011082 3.3010802 1.6815332
5.730298 3.962939 1.9664481
3.2600155 0.67650038 2.0150793
-0.0036794567 0.59798783 1.3170831
3.0224938 0.56441528 1.8727866
2.2667179 3.4009802 0.19218056
3.7193611 0.69154626 1.9636919
5.9514613 3.9899158 0.33986133
4.0144725 0.48385021 1.149175
2.6458766 0.35866478 2.0043163
5.3961735 3.253118 0.0054850895
0.20621593 3.0313828 0.65512532
4.3912692 3.72205 1.2159609
5.3086839 2.2483194 1.023713
-0.014724849 2.0379364 0.82005996
4.0085874 0.48526883 1.0001551
2.3966408 0.66680783 1.9978747
2.725281 3.0416768 1.9932233
0.38921773 1.8155193 2.004813
4.8577914 1.7814814 -0.0094933137
1.0990012 0.19114679 0.13693079
4.7224302 3.040029 -0.01104084
3.9803653 2.4254005 -0.0060140551
1.2616675 0.22916065 1.4369426
5.5297422 3.555177 -0.0055107474
3.318305 0.99953586 0.0070803519
0.6935125 3.1004322 0.89162898
0.89111459 0.70554566 1.9940048
4.5245528 2.3514462 0.019250598
1.3467712 3.2307589 0.91792339
1.3042207 0.25413498 0.3595413
1.8529376 3.2943242 0.118555
1.0626441 3.1789725 0.84348762
1.5548627 2.0345397 2.0007327
0.0028091201 1.2922264 0.24108963
0.84996104 2.6047201 2.0032368
4.1157227 2.1050966 -0.011524184
1.8177384 1.0981742 2.0200346
1.9315273 0.3730562 1.3147477
5.5065985 2.7452612 0.13549495
5.128859 1.8327916 0.88348234
3.7580237 1.0674844 -0.0041534449
5.2970953 2.2507465 0.45560774
0.40368339 0.060820736 0.6763221
3.0714226 1.9877398 1.9975911
1.717634 0.33734491 1.2598888
2.2474897 0.2553983 0.0013661165
0.49489063 0.075510539 0.066213235
2.86444 0.58749741 -0.0057401801
3.1660402 3.0685232 0.0015287165
4.761888 3.7753255 0.034557912
4.1161213 3.2822416 -0.0016641837
4.6523819 3.7797058 0.47082987
5.1176777 1.7886575 1.029838
4.1347561 2.5003977 2.0071425
4.2748652 1.4751759 1.8198943
2.6685565 1.2945256 -0.0096778246
3.6189804 0.69142228 1.949474
4.1868849 2.9000719 -0.0059948037
5.7594166 3.3502593 1.1139781
0.008945764 1.720474 0.26847371
5.5453815 3.9344561 0.61829883
0.71785241 0.12264858 1.170519
3.4947979 3.5757096 1.2024499
5.1709795 3.2147386 1.978472
1.4128208 3.2475255 0.1017902
0.67200488 3.0899034 1.0460962
4.3583889 1.5003763 0.74458593
5.5328617 2.9856684 1.999192
3.287071 -0.011270375 0.14970635
0.24973033 3.0457907 1.8295487
5.4577241 3.0700271 0.015639963
1.1535412 0.18826252 0.3260766
0.9676128 1.389307 0.0030094723
0.80626935 0.1770604 1.2048043
4.7053957 1.6057582 1.9969578
3.3410592 0.51522839 0.005627858
2.2235289 0.81120241 1.9860549
2.9688406 0.54563498 0.78150523
0.98267293 0.1751164 0.85167199
1.2750446 2.4407864 -0.0038225872
4.0123024 1.1845889 1.1538799
5.9465771 3.9914918 0.7759636
3.5105295 3.5771365 1.473725
1.4211087 2.5168166 1.9860938
-0.021060441 2.2200937 1.8697104
4.8464675 3.7986815 0.064304568
1.6634007 0.30729985 0.37790775
4.2662077 2.4686275 0.010127392
4.6384969 2.3331923 -0.0058914777
4.1213908 1.509065 1.2680384
1.0521028 0.014075629 0.77737671
5.1141853 3.7374125 0.0078656431
0.01434021 1.4023396 1.7657938
1.2710807 1.3773649 2.0022938
5.2724581 2.2015996 1.8735431
2.0179806 0.93925458 0.00019689405
3.5869796 0.9891904 1.9890002
0.19390318 2.8533206 0.0011297252
1.3872738 1.3713543 0.0071155066
3.8057778 0.71243995 1.2849888
0.29363924 0.39773956 0.002555599
2.6986556 0.48612428 0.7804451
1.7707816 3.2758093 0.69774789
3.9501312 1.438903 2.0109241
0.00336261 0.25554785 0.24862693
0.32644889 1.0739126 0.0059898426
2.0052214 1.537648 0.00052141043
3.8405633 3.6309443 1.7604308
5.8431416 3.6281471 0.21435185
-0.0011701384 2.1987865 1.4041189
1.0978013 0.018638454 0.8039434
3.7698939 2.3055897 2.0038986
4.1531186 1.5116531 0.40064704
0.98783123 1.5797573 0.014794451
4.5906916 1.498566 0.43917665
0.12733875 3.0297799 1.3312063
2.1359534 1.6013458 -0.0054499623
-0.008728927 1.19792 1.7971512
5.6549678 3.1176271 0.56924218
3.8353097 1.239943 -0.00765693
2.9627998 1.5695045 0.003551115
1.9978791 2.546109 0.00041233198
3.6818945 1.9609305 1.9977119
1.0629544 0.57771319 0.017683636
1.7855971 2.7106178 1.995355
3.7494962 0.010520267 0.82461059
4.3930273 3.736264 1.7274079
0.16452532 -0.003478216 1.3149849
2.7339664 1.4097254 2.005717
3.4320567 0.79771 -0.0033562745
1.9128863 0.42828971 2.0063405
1.2072412 2.8548305 2.0113835
1.1084105 0.18577576 0.45498824
2.6213808 3.241895 0.002064097
5.3363509 3.9006748 0.86844879
3.3531425 0.61167258 1.9034346
5.133172 1.8293089 0.87633896
4.4040451 1.5010247 0.17636089
5.2391996 3.5335631 -0.004652929
4.7136512 2.454071 1.9932822
1.1576639 2.7799208 0.017825108
5.157589 2.5014501 -0.0032030423
5.019124 1.5731336 0.051432107
2.6674781 0.52935636 -0.0085791023
1.2450686 0.23393102 0.42949259
3.5690715 0.86982083 2.0092304
0.48854682 0.15019545 -0.0075007286
3.1343765 -0.0028055485 1.9413625
0.46323544 -0.0027085082 1.4547287
4.3524227 3.6193297 0.0072315284
2.4151719 1.3459848 0.001250844
0.99062496 0.18297251 0.058554303
1.9646556 1.7219833 -0.034815099
3.1276531 0.86950517 2.0080121
-0.0048196376 0.016477751 0.7937572
1.8751321 0.34215897 0.29848439
2.1158648 3.3584702 1.3770298
5.4516444 2.6069775 1.4784453
0.69096458 3.1169796 0.5209983
3.3705211 3.5731514 0.2615076
1.5271138 2.5120478 0.013952575
5.3085999 3.8887925 0.13466766
2.0912168 0.94145113 0.00047825158
5.3918009 2.4233146 0.49664634
0.16886997 0.027393794 1.7494451
0.40720254 -0.0053126095 1.5223808
1.6435103 0.30367759 0.11297482
2.7629364 3.2928479 2.0039136
2.7040048 1.8878354 2.0221517
0.28180358 1.7900964 0.0090725338
1.8572385 0.3387965 1.9652468
1.7915106 3.3105514 1.9428939
0.0012397903 0.79407227 0.4898679
0.92599744 0.20979968 2.0140493
1.9230446 1.4583416 -0.0013106194
1.6169814 0.39168435 2.0020602
4.0158911 1.4565018 0.34614235
1.0187199 -0.00042542594 0.22426111
1.083856 0.21817368 1.1833993
1.4429238 1.1796882 1.9888169
0.016279379 0.95675415 0.23296811
3.4208472 0.10066561 1.9870543
3.1079645 0.58558226 1.1907415
2.9089708 0.0092403153 1.8396571
-0.0020520699 2.9466081 0.3142055
3.5092247 3.028861 -0.022831084
0.92579937 0.17739934 1.0482554
4.5715599 3.7610297 1.307953
4.0579691 1.4921733 0.24595635
3.9897785 0.27889761 0.3396641
2.6008313 0.048880763 -0.0037932717
4.0072203 0.56848049 1.4438827
0.0092749884 1.9145311 0.76124966
-0.0059903394 0.95140511 1.4430599
2.2310925 3.3794489 0.8609736
0.016100341 1.5345514 0.71842629
2.7143559 0.0025898707 0.81351072
-0.0013087423 0.67247367 1.7699642
2.3101919 1.6250494 1.9886657
0.38810143 0.40662032 2.0094326
3.4096885 0.96686769 0.0060760258
3.784626 0.43363854 0.024068927
0.85122329 0.16438921 0.66269624
-0.00032961176 0.5404759 -0.016179409
0.66725206 3.1363287 1.357939
1.5910381 0.68370354 0.0081736874
2.4502311 0.76147163 2.0020101
0.69033676 0.13982216 0.015067784
5.7342381 3.949321 1.0825583
2.0648587 0.097336605 1.9991723
3.0562992 3.1287735 -0.0085210493
0.6489405 2.7481341 -0.020415151
0.42761311 1.8751769 -0.0081285043
0.002942398 2.6629291 0.65265435
5.8088307 3.5590513 -0.0043069264
4.2942996 3.7203257 0.74212086
5.160696 3.8664141 1.4380537
0.0058180639 0.98663545 1.6521862
2.1246514 2.1863959 1.9866859
0.22309497 0.060934741 0.97665751
0.0025553103 1.6835644 0.47626421
2.0386829 1.3426564 -0.011820843
0.023862617 2.6917078 1.1706303
2.6442173 3.4539125 1.0823445
3.0154922 0.5899871 0.30374172
2.3203073 0.626571 2.0118084
0.37219262 0.79136527 -0.010849969
3.6123433 3.3277254 -0.00025043378
0.31781983 0.078329965 1.7427014
-0.017555488 2.6911261 1.5260909
0.005346878 1.392856 1.104457
-0.014210051 0.72175711 -0.0082499962
3.9939029 0.44301593 0.12200664
2.6352522 3.408267 1.8718716
5.9858303 3.9261401 1.0038867
4.8100691 1.5430984 -0.009896866
2.5649531 -0.01064722 1.2042896
3.3426466 0.60598189 0.1491055
1.9700481 3.2750804 -0.011429907
0.0079786936 2.9163337 0.20513745
2.2761922 3.3833358 0.62317777
5.6425929 3.0970974 1.5304282
1.8144842 0.95555568 -0.0092355451
1.8966247 3.2592928 2.0103004
3.9913902 0.74773085 0.32308227
0.40482008 0.00039402975 1.9908948
0.0049308515 0.46143237 1.0553499
1.7652986 -0.0036426394 1.1652918
2.5963707 0.80184871 -0.002607245
5.0428934 3.8415861 0.30908728
1.7909776 3.2936347 1.2719789
3.3477998 2.5586429 2.0037239
3.3821874 0.12522909 -0.0014830675
3.4686732 0.64770907 1.3981718
1.8563061 0.0029715032 1.3416413
1.0531777 1.5128056 -0.016049907
0.78816545 2.0656962 2.0041575
3.9939582 0.74975806 1.1277597
-0.0090268357 0.63602662 0.13921864
3.0129375 0.00061990111 0.98256373
1.8471352 3.3145137 1.2506657
5.1319561 3.6848257 1.992179
1.0085179 1.1388304 1.9797196
3.2188711 2.1207943 -0.0041354438
3.9921415 0.80999285 0.26691639
-0.0039261826 2.1885467 0.55730903
2.910727 0.45884299 0.0022936231
1.400613 2.5251217 0.016315049
2.8062069 1.8681388 1.9853537
-0.0069457153 2.7200713 0.74287122
4.5074339 2.1093912 1.9890463
5.4009004 3.7259955 -0.0098227328
1.3733664 1.8966057 0.0074878326
0.43772566 -0.00044008094 1.2822329
1.1277798 0.21285947 1.2297336
4.0114589 0.081155039 1.5285878
5.2096872 3.8882928 1.7615124
3.3790748 2.7070203 -0.0025423355
4.1842961 3.7150335 1.0981797
4.9064054 3.8363008 1.1364417
1.5631022 0.72197926 1.9926691
1.8725364 0.33302724 1.0610071
4.0053563 1.433815 1.1738943
2.2260644 0.65497649 -0.012917913
2.6659255 1.8854983 1.9962478
3.9401262 0.22654271 0.0081915362
2.8395839 1.2006027 1.9882762
5.2146807 2.0733302 1.7624829
1.0514469 1.2249787 -0.0050348016
5.2488885 3.8619523 0.16171984
2.0728121 0.40118563 0.62205583
1.2078362 0.02391036 0.24256124
1.6177715 2.5370667 1.9912528
2.7425165 -0.0058279922 0.2745553
1.4242859 0.52103931 0.0050189481
2.1316459 0.39607286 0.24121605
0.63125187 2.5872102 -0.01067179
3.3284051 -0.010556145 0.042495042
4.7367616 1.5046715 1.9896543
3.89625 3.6365416 0.24421139
2.7167058 2.8428466 -0.013467105
0.10517462 0.016857915 0.17447664
4.6873236 3.7667844 1.6505888
2.6960793 0.49772182 1.2102319
0.0069311522 0.40460989 1.7995428
4.0024805 0.50131696 0.94076002
2.8630369 2.2485278 1.997269
4.3388219 3.7340245 0.03939851
1.9714284 3.3148286 1.3449936
1.0964427 0.21671677 1.1105402
0.00059089938 1.9698527 0.19793281
1.1966443 0.8250044 2.000519
0.19899516 -0.02506684 1.1870614
0.41102383 2.4471531 -0.0083204322
1.6508402 0.29581481 1.7572117
3.1577549 0.70923668 0.01192306
1.3285863 0.22100019 0.4757413
1.7122523 1.5377262 0.00079069042
2.45469 0.020871198 1.0569825
1.4972925 3.0005736 0.0024227554
5.7985988 3.975178 0.61895233
0.0020456214 2.653712 0.95693564
3.649802 0.80664599 1.9987352
1.5141191 3.255331 1.6861295
0.0026334717 0.74912018 0.49656889
3.8346076 0.0083229253 1.4323639
1.6039491 3.26177 1.0892111
4.0438547 2.6769614 2.0086138
3.2916687 2.2293639 1.9873748
3.9987409 1.0572667 0.27900764
4.0599103 3.2226872 -0.0060118008
2.7930501 1.1534748 -0.0011272808
3.7333767 1.3531681 0.0093669705
3.9890704 0.39538762 0.15203917
1.7010319 3.2807786 0.31364369
5.4754395 2.711591 1.1911666
5.4820762 3.9330616 1.687047
1.5731776 0.30667564 1.6540544
5.5226665 3.9330239 0.69619095
5.3632894 3.8920834 0.36089823
1.3405436 0.022740634 0.0061772666
2.0903745 0.38157415 1.0135856
5.9421897 3.8615105 1.5150865
0.6646139 0.12277655 0.43367657
2.5314105 -0.012601046 1.3883677
3.6166301 0.55146921 1.9992975
-0.008614732 1.580407 0.16495079
1.3744198 -0.0057414863 0.27196425
2.6116285 0.25355989 1.9845045
0.80594325 0.010657357 1.6647774
5.5589919 2.8685763 0.98153019
1.0118859 0.0053550997 1.2408483
4.0035925 0.29364762 0.15779258
1.6784674 0.32780147 0.75900233
1.8434333 0.0071157739 0.89873976
2.2472937 1.7098627 0.011473462
4.8193102 3.7927697 1.6035211
1.6217026 -0.0033094506 0.29642767
0.61383545 -0.00040772089 1.2209798
0.0093051707 2.1397059 1.7286884
4.9000893 2.8062959 1.9936563
3.7812009 1.5905261 0.0044350922
5.2042546 1.9812214 0.19827121
2.4587524 1.9413923 1.9953519
3.9708362 0.0025644221 1.9779876
3.6370132 2.6398621 1.9962027
4.0670533 3.6914277 1.2152305
1.6203649 3.2692921 0.25773939
0.011341011 3.0038466 0.25195444
4.0400991 1.4940633 1.8805097
0.79295433 3.1380255 0.67673725
0.13699216 2.7189982 1.9979187
0.44990689 0.068367012 1.9975268
3.3319111 1.8478965 2.0004194
3.4631493 2.7997806 -0.0069930339
5.6854649 3.2291574 0.17818443
3.7985134 3.6320379 1.2458582
3.3673778 0.6357376 0.0776219
2.591846 3.426172 0.046678502
2.58968 -0.0043876758 1.4715339
3.3968117 0.64242172 0.3541925
2.3703804 1.44266 0.012561103
0.01110823 1.5632523 0.72435153
-0.0034046385 0.51990479 0.23470835
1.1912689 2.2128382 1.9875199
0.33761007 3.0514104 1.2374862
1.6581903 1.97615 2.0148902
3.7666035 3.6599996 0.014104184
5.2743187 2.1978068 0.56077093
3.8207092 0.18249618 1.9997681
0.58267957 0.10979138 0.73235381
5.2337155 2.0593793 0.18963437
1.7742276 0.33213997 0.838184
3.0931671 0.0009250227 0.20612867
0.001837389 1.6243588 1.9881063
0.34723976 1.9819517 -0.015607992
5.0967898 1.9973557 2.0001714
0.27842706 1.2432811 -0.0018515608
5.4938107 3.9267569 1.3699044
4.0241499 3.5093234 1.9896967
5.802927 3.9672391 1.6381844
4.9199691 1.7490163 0.019503487
0.0047162585 2.479085 1.1484463
4.0050001 3.6822884 0.054544713
0.018789664 2.5575621 0.89637923
4.0049381 3.6680002 0.66706258
2.4967449 1.7204399 2.0013158
1.2971883 1.4579816 0.011456234
3.1747074 3.412957 2.0001552
2.3276432 0.43021718 1.2443155
3.8040981 0.010139348 1.9817265
3.5775101 3.390564 -0.011283806
2.7337849 0.86063683 1.9872893
5.5531468 2.872247 0.54785287
5.7575302 3.9519205 0.73320121
2.5018942 0.49132025 0.32629675
3.6994822 1.4334157 2.0141113
3.9724789 1.2493486 0.054412268
2.099793 0.12236187 1.9821343
0.47052684 0.018591875 1.2414492
3.5710003 -0.011356847 1.7881576
3.576246 3.5931222 1.4441175
2.194922 0.0027188673 1.5707622
4.3525624 1.4979969 1.1404787
5.3995919 2.48488 0.15179645
4.000185 1.1944537 1.3572823
1.7678447 3.286298 0.64312881
3.9950511 0.97755021 1.3094697
4.593996 1.5266089 1.995138
1.7967609 2.9689374 0.0021733155
3.8478446 1.0851276 -0.005887446
2.5108461 0.88735068 1.9963738
1.2372094 0.23075747 1.488073
4.0035467 0.4900614 1.5743096
5.4100199 2.8438356 1.9937785
5.7427902 3.4264669 0.63734329
0.0026381812 1.5566071 0.87914002
4.6898813 1.4960451 1.5223523
5.0722847 1.7899925 2.007093
1.0507519 0.015749313 0.19992645
1.7791305 0.32929075 1.2494214
1.5800445 -0.011177406 0.81173116
2.2485201 0.41180202 0.45032743
0.68601173 2.6714821 0.0054593869
3.7259488 1.014673 1.9901313
3.8104117 1.1196306 2.0087409
2.3845026 0.0046366663 0.56646633
3.7426138 -0.002070301 1.3430626
1.474246 0.0052926913 1.149211
3.2789068 1.6923468 2.0023637
4.0158186 0.062427469 0.11215455
0.54728007 0.10933553 0.4115462
1.4314969 3.2400229 1.8154424
1.4226347 0.28251189 0.71527392
5.9597621 3.8725741 0.13136533
0.72786242 0.14148571 0.29980993
1.6259191 -0.013748129 1.8492066
3.9979606 3.265043 1.9990518
3.1856351 3.5403736 0.28306502
4.5204644 2.7418017 -0.012522909
2.4569151 3.4161973 1.2660549
5.651011 3.1057827 0.85943133
1.9643056 0.10412268 -0.016662367
5.0280638 3.5830412 2.0015903
2.5366316 3.4166749 1.4622598
1.2971131 1.1241828 2.002605
3.8764324 0.0066480455 1.7572759
1.5714558 2.7518907 -0.0044058659
0.27240494 3.0353065 1.1738492
0.09553127 2.4458208 0.0024520287
4.0348582 0.13196135 0.90225732
3.9950287 1.3444903 0.86838269
2.6970854 0.69373977 0.0068154172
3.3607776 0.16558732 1.9881648
3.2630918 1.4039673 1.9963866
4.4546742 2.2620072 -0.010362282
5.0699058 2.3756316 2.0026469
3.5074723 0.66239661 1.9562984
1.7221118 3.2738872 1.2452537
2.1418116 0.3852011 1.8864275
5.2934537 2.6620274 2.0051231
0.2849623 2.5172102 0.010188982
3.3376777 0.64246726 0.65706539
2.85709 3.1294849 1.9901832
0.0028825172 2.9969032 1.6812067
1.2925725 3.2247837 1.9239347
4.0934505 2.7654397 0.012690778
4.7180972 3.4386575 -0.0088151973
3.0398791 0.57311511 0.80339032
3.8291185 0.41200218 2.0232861
4.0791116 3.6774175 0.35380185
2.4967237 1.6313663 1.9894845
4.860363 3.8067641 0.45160702
3.9332557 0.58964437 0.0031023112
1.1013718 3.1772802 0.61368132
5.0732164 1.6896625 1.9808011
0.78518254 0.14968765 1.0075855
0.86955953 2.9487643 2.0132308
3.876178 0.72408408 0.34995499
3.1368775 3.5287325 1.9794306
1.0111488 -0.010369356 0.47328648
1.3014991 3.2175794 1.4917951
-0.0044228975 1.957628 1.96734
2.3706896 2.576282 -0.01768456
5.2039828 1.9736798 1.3173029
0.0008574407 2.1817174 0.2700673
4.1153154 3.6787956 1.4339707
0.78313071 0.003945949 0.51466393
0.1337506 0.019042775 1.8920058
3.9994051 0.12311105 0.49159491
1.4464626 1.2869983 0.0067666536
1.3496841 -0.0034501802 0.93355966
3.4124546 1.0558748 2.0101213
2.735975 3.4669034 0.47282475
1.8375431 3.3067267 2.0006537
0.0054031396 0.81960332 1.16522
4.4173574 1.6822839 0.0067009395
3.3083742 0.01455304 1.5903093
0.77992719 2.7282736 0.017151106
0.078033097 3.0095365 0.88544464
3.9731753 2.2199421 0.00016360884
0.16741936 0.0074347793 1.110972
4.3252454 1.5639468 1.9958357
4.7496071 3.6134331 1.9947219
3.0349269 -0.0085996706 1.9430431
2.0468333 0.007834794 0.46495405
5.6830535 3.941488 0.87658495
1.6933259 3.1200309 2.000921
-0.0015595226 2.6176708 0.55897766
4.0638022 2.8165808 2.0004666
3.1534543 3.1640089 1.9928606
5.1258912 1.7908001 1.9055319
1.4101046 0.25841868 0.96043521
1.9941825 3.3401592 1.0419016
5.8165255 3.5710537 0.2063711
5.1772079 1.9489578 0.13558047
2.3863049 1.5561816 0.005923423
2.6580856 3.4483778 1.6835785
1.4888346 -0.019714251 0.12487417
2.6724126 0.4787994 0.15958965
0.67545897 0.12509246 1.6115789
0.55183512 -0.013365145 1.7607087
4.0194592 2.5046954 2.0062423
2.7325916 1.9191253 2.0163054
4.5597034 1.8863022 1.9852874
0.72665459 1.9675752 0.014202817
3.425988 2.061156 2.0041006
1.6277791 0.75954533 2.0070014
5.1916351 3.1523154 2.0026641
0.60876048 0.74189335 2.0104375
-0.00018130089 0.88604629 1.4722414
1.1050392 0.00063755881 0.0018223476
1.4514719 0.048877731 2.0142026
3.3240116 0.00047198142 1.3579713
4.7195263 3.3929965 1.9880576
4.1654072 1.4971853 1.0443883
2.1308155 2.5671806 0.00043596057
3.8806634 0.73843873 1.9766257
0.0098699648 2.5918701 1.4530741
3.6094954 0.17717785 1.9880654
2.8368804 0.52064383 0.39928252
3.9966619 0.33771881 1.2549735
-0.0095914686 1.512795 1.8308449
3.9908121 0.9307282 0.81203038
4.4004359 2.9118524 0.0030584433
3.5639164 2.8080549 2.0056529
1.3926446 3.2297454 1.9120183
5.810442 3.5262823 1.5284027
0.73726976 0.84376407 2.0036719
1.0112718 3.1847227 0.13744643
4.7925272 1.50544 0.95302814
5.9138956 3.8275626 -0.0048944373
2.5233607 0.47553673 1.6236786
4.3529758 3.7304442 0.96009475
3.4450934 1.3564869 2.0176187
0.60091472 -0.014584674 0.50184834
0.49639037 2.8119259 0.012968577
0.61337858 2.4559457 1.9946896
0.35196182 0.057713732 0.15001197
2.5060294 0.9515807 0.0053522452
5.027318 1.5300381 1.5372707
3.7725103 2.910243 0.0071296492
0.75320721 0.13408993 1.9994551
5.0094719 1.6285658 -0.0012533357
3.857507 3.5867894 2.0218518
3.3090713 0.79333812 2.0103388
0.32510629 0.011811749 0.40099734
0.22126661 0.65983498 2.0079603
2.3460038 3.3993473 0.46251294
1.8913347 1.9599257 0.0032322386
4.0510406 2.9246578 2.0030758
3.3322418 0.60479653 -0.010309494
2.2598419 1.2050551 1.9955156
1.2161121 3.1964097 0.99848938
2.640023 2.5934458 2.0048342
4.6468821 2.1996045 -0.024207087
3.4023092 2.2152703 2.0015476
5.5843678 2.9475915 0.049243994
3.449729 0.63832533 0.31014749
0.39493951 2.7601717 -0.0025697814
-0.011667036 1.0895656 0.61657488
1.123333 1.0149692 -0.010753763
0.13884285 0.014439528 1.2653691
3.375222 3.5771699 0.76819611
5.1007347 1.7718651 1.8978521
1.1786242 3.1995149 1.4005965
1.488771 0.52747685 -0.0032666416
1.2156917 3.207195 0.21663257
0.013375305 -0.0070241839 0.25446579
1.6629403 -0.0067989482 1.8043638
3.6521528 0.67654532 0.72325516
0.68372971 0.14110592 1.8810157
2.6380172 0.01153673 1.9354633
1.3403616 2.2969968 1.9877108
3.152458 1.2493522 0.0019190859
3.9973655 0.95088005 1.9076834
4.7099519 2.6975644 -0.01077685
0.15689307 1.5659013 0.012823274
3.4732444 3.5845466 1.3220503
2.1521766 0.41219717 1.2026974
1.5806314 3.247273 1.4602861
0.7226907 1.6576985 2.0095308
-0.008309897 0.53693992 1.1460863
1.9444902 0.37386444 0.92229521
2.3645103 0.43918562 0.48651275
3.4358675 1.108402 0.0047123758
3.6894937 3.6180947 0.42403674
0.83116633 3.1246836 1.636447
2.4391489 0.46435609 0.97969717
1.0090234 3.1454952 1.8163029
3.5469315 0.65561646 0.78813386
4.1069665 1.5886241 0.00010285569
0.0039345352 2.2948239 1.4570504
-0.014703017 0.70886087 1.854574
1.1227223 1.6584916 1.9826775
5.658668 3.1667705 0.56216437
3.519763 0.0034528261 1.8002427
-0.010174695 0.73228991 1.8877949
2.5513792 0.48542386 1.7552075
2.292171 1.8144808 1.9998919
4.0056043 0.97517228 0.45893636
3.0147119 3.4674053 -0.011404876
3.2862115 3.5411685 0.97537816
1.71217 -0.0061587682 0.68572217
0.0091800401 2.9680302 1.7138849
5.2316122 2.0421717 0.31211612
3.9136267 1.9370794 2.0145047
4.0742235 2.4458461 1.9989027
3.0209365 0.39889285 1.9991891
4.1341496 3.6680415 2.0068126
3.2355907 -0.0045091137 0.78966969
2.5938344 0.48017341 1.6110767
3.4215147 -0.0058807479 1.2571679
2.7296867 3.4625044 0.15802465
3.0670688 1.9504392 2.0024145
0.59802449 0.020768614 0.5871492
-0.012194393 0.096562564 1.5793619
1.6309245 3.2664583 0.50523931
3.0798671 0.086460285 1.9978694
2.9776556 3.4785361 0.99964637
2.4753203 3.1417153 0.023394255
5.9081454 3.9982204 0.5735175
0.95668221 1.5097364 -0.0098158196
4.0505633 3.6789546 0.34066275
3.1173599 2.7863896 2.005887
2.6249762 3.4303324 1.8744702
1.3058656 2.2925644 0.013468774
2.4778519 3.4128063 1.4313816
5.2289491 2.0608191 1.9231443
0.73933452 1.7822289 2.0067444
0.27085468 0.47791064 2.0034628
3.3792231 2.3058293 0.0007798507
2.5846689 0.0046044663 0.84019572
4.5106416 1.4891262 1.0489247
1.0824808 0.22524036 0.25425324
4.3922873 2.8727007 0.010096481
4.5751834 3.6661038 -0.0055218115
1.3769612 0.72775406 0.0059923409
4.7101293 1.4913976 0.37193656
1.9387182 2.7120123 2.0017474
0.0063935416 0.0053410535 0.13019162
3.7792506 0.70700461 0.2729837
3.9813354 1.4421916 -0.02592138
0.35651603 -0.0010078322 1.5535554
1.5266485 2.5216455 -0.012664064
2.7228196 2.7923682 -0.00040355927
-0.0028035857 1.638574 1.8986042
4.9337158 1.495458 1.50414
2.6826313 1.5146002 -0.0012701303
0.14951767 0.0236161 1.768813
0.0068851127 2.6827292 1.6970971
5.9168139 3.7672205 1.6655799
0.0093254428 2.6044493 1.0321774
4.9503164 1.5075182 1.3972921
0.53583187 1.2891792 2.0077555
2.9204309 -0.0011711587 0.3379645
2.086771 3.3436882 0.36801106
0.22947246 3.0422094 1.9105541
2.6462069 2.2952569 0.0095990188
-0.0022089095 0.51036572 0.26182276
2.8567367 0.5456025 1.7981052
0.97244221 3.1561947 0.07574296
0.83308756 0.15803991 1.2463894
5.5869632 2.9813461 0.34402874
2.2895086 1.9410403 1.9930023
2.0735605 0.98511684 1.9972273
2.8755825 0.34805769 1.992563
3.8724289 3.4972138 0.017722135
3.5554137 0.17915152 -0.0017253782
2.8488092 0.51918441 0.81446713
3.9751842 3.1306956 -0.020565014
0.96921426 2.8465409 1.9893231
4.7919297 3.4539645 -0.0041781538
5.7502041 3.377461 0.79310691
4.1573033 2.1522236 0.0013120843
0.25269127 0.0043257265 0.92748898
4.1652417 2.5768366 1.9997556
3.9128985 2.9650142 2.0043678
5.7543979 3.3647985 1.1914755
3.0438671 1.558411 0.0046475963
0.70907068 0.0069173588 0.6454137
3.5460715 0.66448295 0.57502973
1.7636091 3.2965167 1.63886
3.9842412 3.6590481 0.78828126
0.20687805 0.0039928746 1.4089856
0.87859803 1.9053887 -0.0088766217
3.9265897 3.5288081 1.99756
4.3356266 1.5191659 1.995909
0.0052734157 2.1601617 0.79996783
2.7417552 0.51988655 0.5734846
5.0913577 3.8608954 1.2134144
3.2167361 3.0405757 0.010598408
5.7867961 3.4435325 0.31216127
3.8044174 1.5109638 0.0053687613
4.1118984 3.6790383 0.95546567
4.6825037 2.49283 2.0033591
0.00046430418 1.3730208 1.0833188
1.4712281 0.2742061 1.7399095
2.9491286 0.83293712 2.0002863
4.5919399 3.7639658 1.7804854
2.997452 -0.0091401115 0.19439314
2.4431791 0.86589986 0.0055546337
1.2672421 3.1660085 1.9991856
2.3769562 2.1313038 2.0066023
1.9857594 3.3309846 0.71709937
0.0091047995 1.1656832 0.73968536
5.1127911 3.856178 0.82012445
1.2244458 1.7304369 -0.0039144526
0.58543992 1.6453036 2.0023313
0.42767042 3.075978 1.1830049
2.7236097 3.4409256 1.7691944
4.616241 3.7581556 1.8761882
-0.0089915162 0.49408808 0.0035821279
4.497725 1.5191884 0.31399053
0.56611818 3.0884473 1.9491247
3.0516016 0.55752552 1.929592
1.5389882 3.2509487 1.682721
2.5484266 2.2198272 -0.0011564466
3.2269897 3.5325463 1.9376172
1.1199208 0.71555537 1.9923275
3.7761669 0.56065333 0.0075271078
4.5352902 2.8977478 0.0034565723
2.9446056 3.1651955 -0.024077542
1.9765491 3.3144631 1.4017973
2.2826836 0.75826746 0.016257461
4.7269239 3.7917323 0.095714994
1.7598633 1.0699444 2.000421
4.0143967 1.5050983 1.7242147
5.1218133 1.8098354 0.76364702
0.075600617 2.9188683 1.9873435
2.7220147 1.7099353 -0.0045906412
4.1136765 2.6493661 0.015707085
1.084262 1.4838855 1.9888409
3.978368 1.3178067 0.38797295
4.0395041 2.9018416 -0.002335313
0.090051822 2.6530824 1.9923548
2.2756667 3.3417056 -0.0035036928
3.5981402 3.602241 1.1383569
0.04440866 0.0012494348 0.11812958
1.52944 -0.0090133417 1.6968434
4.1048036 1.5003914 1.353653
4.8900328 2.9429817 2.0053985
3.1910267 3.5372541 1.8286718
3.409909 0.62763357 1.1587743
4.6824613 1.5827776 0.0040962375
3.4698088 3.570106 1.8561724
0.72651416 2.535213 1.9929132
3.2756898 3.545553 0.40331006
2.320581 0.42863932 0.25754002
2.7912176 0.010047665 1.9831676
2.6956229 3.1842985 0.0021789705
4.3501339 3.2442138 2.0081246
2.0830843 2.8725743 1.9863064
2.3245871 0.0029281368 0.60864496
2.0366814 -0.0065241391 0.27553245
1.8149356 2.8406694 1.9938242
5.8415976 3.9653208 1.1004535
0.0050847987 2.3703465 2.006187
-0.0033983474 2.45593 0.69593769
2.1678245 0.40798098 0.92382735
1.0755663 0.20307796 1.4273598
0.47968179 1.9480171 -0.0069996174
3.1392829 0.59384686 1.1719092
5.2077532 2.0222826 0.087855354
1.2329288 2.3019342 1.9970509
0.64848369 3.0879328 0.53696769
0.24697411 0.040932864 0.23129095
3.4778943 0.65540373 1.6057518
3.1186073 0.0056773731 1.8376449
0.30977541 2.9190707 1.9873253
5.3137126 2.3095112 1.8490367
3.5576901 0.018559545 0.36192325
2.7791188 2.4480908 1.9964724
5.1294422 1.7919604 1.6198341
4.6745176 3.7708218 1.725046
1.0298946 0.0049014324 1.1705264
2.4248385 2.3396091 2.0088406
4.6524687 2.5946503 -0.0062707718
-0.00043089749 2.940444 1.1180819
4.4760795 2.5373864 -0.015706658
1.2830946 3.2053702 0.56580567
3.2176266 3.5291049 1.7972013
2.2146871 1.2662176 2.0062733
4.9400797 1.6628132 2.0071442
5.4103093 2.4822564 1.4386909
3.668323 2.4660387 -0.0089636287
3.3271079 3.4900267 -0.012333667
4.0637641 2.5886822 0.0095320493
3.3391602 2.6374345 1.9991057
5.8606949 3.957624 1.7907233
4.4684968 3.7416391 1.2423297
3.2255039 0.90305269 1.998301
1.8458548 3.3265364 0.16355681
3.9892972 1.427477 0.96894234
0.61635619 1.7706881 2.0137703
2.877481 0.72912037 1.9858371
1.7818513 0.33932 0.0083772345
2.5054214 3.0004013 1.995432
5.0572805 3.5486736 0.0031629878
3.652401 0.74505186 0.0060825963
1.4953128 0.13363132 0.0067026401
1.5960855 1.336228 2.0050144
1.7098231 0.69308448 -0.0037676489
0.35925826 3.0568602 1.817433
-0.0055574561 2.515954 1.4103756
5.7007861 3.2491593 0.29731128
1.8374132 -0.0089831939 0.29979059
1.0701686 1.2020264 1.9885509
4.0000086 0.93241876 0.56327611
5.3986263 2.5305698 1.6839423
0.25424677 0.030759739 0.19651043
0.0020284536 0.089556836 0.47078201
2.5892546 1.6377785 0.00046890363
1.4702899 2.1935196 2.0161369
0.021416945 0.63674253 1.3484254
0.011920384 2.9395802 0.40483728
5.7583799 3.3916249 1.3162729
2.8538165 0.0042964364 1.7880671
1.3825119 2.3883338 1.9912655
3.9080126 1.889984 -0.00092674524
5.2327356 2.0537086 0.035348061
4.0088387 0.57745975 1.3168101
1.0346336 -0.0070179817 1.2272855
3.9870548 0.18075958 0.94875687
3.9350967 2.854985 1.994325
3.9962885 0.33506146 1.146701
3.0101235 1.4670202 0.00064459472
3.6113613 0.68200535 0.37660286
0.86725384 0.16794552 1.7791605
0.29276779 2.2272091 1.9854413
5.5058503 2.7557387 0.13940322
1.0530748 0.17958994 1.7885891
0.90434462 2.8442383 2.0017169
1.677711 0.78329557 0.020152783
4.8058915 1.5125804 1.8011147
-0.0078845769 1.8593183 1.9431744
2.9091768 2.390861 1.9901303
0.22676691 2.2264993 -0.0015403661
5.9221177 3.9765642 1.5251285
1.4223982 3.2477407 1.7272402
0.013534451 0.93918276 1.8925775
3.2676268 2.3380766 -0.010677675
2.8041387 1.4160434 2.0042846
4.0238314 1.5172968 1.8992283
3.696852 3.198472 0.015689807
0.034419108 2.1832383 2.012249
5.1063547 1.7612538 1.7999632
0.28937221 2.2120085 -0.0056472295
1.2065804 0.21460596 1.0420588
1.6766459 1.9068567 -0.012732448
2.0408969 3.3409019 1.6085601
4.6717186 1.6866932 2.0026565
5.0145197 2.2986691 0.0065211696
2.1033938 -0.0076016933 0.34346619
1.7161417 3.2707829 1.0587411
3.8874681 3.6398504 0.52040839
0.19052656 0.047974356 0.99086869
2.9477067 0.88257146 2.0119052
-0.0058623333 2.0053396 1.9428426
2.17296 2.0415001 1.9922554
2.7547193 3.3491113 -0.0099246288
5.4432425 2.6500149 0.51975971
1.3092598 0.84690475 2.0020888
4.247458 2.1722102 0.0075289118
1.963518 0.35315552 0.28500983
0.86360443 2.7175496 2.0037756
2.8621731 2.8897228 1.9988546
2.295712 0.41756779 1.987403
1.8558472 3.3184948 0.6434083
0.62644964 0.13749234 1.466996
5.3137083 3.4754608 1.9849074
3.6958823 3.3257332 -0.0087658521
3.6241729 1.7015336 -0.0089215431
0.0020958493 1.5825498 0.56469524
1.145111 0.22230226 0.99410784
3.9639206 3.66365 1.289359
0.72908759 1.8641089 1.9986354
1.0549347 3.1736503 1.9039013
1.6331695 0.29958451 0.25112817
2.4474039 0.69507146 0.020291179
3.7778497 3.6290739 1.7330712
3.0851684 1.3808174 0.0042021736
3.5908923 1.5152112 1.9956172
0.96942514 3.1498137 1.2373601
5.0748553 1.6961011 0.79048008
4.3655777 3.7222588 0.8894493
2.7520151 0.52460605 1.4876283
1.1939603 1.060681 2.0017869
0.58549035 0.11215052 1.5657417
4.8441114 1.5895836 2.0165405
5.3369164 2.4566412 2.0097082
3.8537245 3.6555958 0.4404555
4.4382329 3.7383633 0.76857162
0.061068431 0.79905093 1.9973935
5.6020799 3.4538481 1.9952654
1.3448867 0.0035320383 1.8863055
2.4847181 0.15729877 1.9783826
4.8226843 1.4929529 0.35077524
5.3479209 3.8792419 1.759639
4.54703 1.5072497 0.76879662
4.9435253 3.2188065 -0.017415743
3.4982762 2.3068774 0.029045504
3.4182622 3.0147409 -0.0049989242
2.2886374 -0.0016785478 1.099545
1.7982543 3.135205 -0.0099676549
5.7554388 3.3811653 1.3434511
2.7193241 3.4361043 1.6550964
0.36618051 3.0576196 0.031075304
5.2929177 2.227951 0.1865298
0.70299292 0.11680461 0.054484155
3.5780647 3.0890942 0.0067545911
0.2832908 0.064052165 1.5557122
2.0393398 2.900497 1.9893041
3.9782941 1.0824432 0.80935663
1.6395897 -0.001964849 0.16671023
5.4510236 2.7468786 -0.016274774
2.5274587 0.79316491 2.0211542
0.2528314 0.48558572 -0.0094307829
2.3051457 2.515928 2.0037358
3.6315064 -0.0012161345 0.25084266
3.9842455 0.19762374 1.592718
5.3115659 3.8763905 1.0364661
-0.00079171133 0.30555174 1.2712138
0.87078327 0.16887109 1.3229843
0.5120998 3.0803843 1.5530549
1.8738322 0.35505104 1.440963
3.8902276 0.72592849 0.18300262
2.7416818 2.2227743 0.010181089
0.030501304 0.0046496727 0.45570144
3.9882898 1.4206237 1.8315357
0.24738765 2.6209888 -0.00030797996
1.8591042 2.4658089 1.9956793
-0.0053170878 0.91394883 1.6066742
1.5236206 0.45795789 1.9857721
2.727046 1.1314884 1.9940825
