# .PCD v0.7 - Point Cloud Data file format
VERSION 0.7
FIELDS x y z
SIZE 4 4 4
TYPE F F F
COUNT 1 1 1
WIDTH 1507
HEIGHT 1
VIEWPOINT 0 0 0 1 0 0 0
POINTS 1507
DATA ascii
4.1995926 1.5031033 1.838679
0.033535343 1.6767231 -0.001543395
2.3240175 2.2347913 -0.0039530927
0.14326252 1.1247927 0.0024699608
3.2613263 -0.014699653 1.5420958
-0.0082820058 2.6824393 0.64463788
2.2096238 0.16889811 1.9857941
1.2849441 2.2329416 1.9950396
5.4687753 3.8840306 -0.024947273
3.8514087 3.0647511 -0.018069541
2.6815865 3.2806983 1.9950914
2.2925987 3.3814404 0.31454542
2.7791936 0.76714492 0.0028927745
1.6680913 3.2508395 2.0024476
2.6988406 0.0023254063 1.1361761
4.9066572 2.6589546 -0.0026406085
1.5872308 1.2818859 2.0049806
0.47748944 1.4016267 2.0075638
5.9549346 3.9233701 0.49187052
2.7948661 3.4600286 0.88295931
1.3720841 0.0040391679 0.60068297
5.0648561 1.6650412 0.037820324
1.1246227 1.7039999 2.0005019
-0.0027071559 0.35993627 1.8926761
3.3996966 3.5776296 -0.007407526
5.9155879 3.9098253 2.0079892
1.1775515 2.1356153 0.0057471669
0.0014442661 0.84835863 0.88228321
1.6088597 0.58806634 1.9850719
-0.010408944 0.26476219 1.5468568
0.011359284 0.98449773 0.76415777
1.3583676 2.571507 2.012676
3.4392366 3.4581127 -0.014518955
3.4384959 1.5379647 2.002594
2.7780855 -0.0017839798 0.10262352
3.7583544 1.7882733 2.0008285
5.0297847 1.5809405 0.96172994
0.002966166 2.5985398 1.3675781
-0.0027480598 2.1382649 0.99543458
-0.0054640132 0.64383942 1.583951
5.5930281 2.9909968 1.7665027
3.246973 0.00069564144 0.56014347
2.3533626 1.3524238 2.0007508
4.6103468 1.7418873 0.0035526976
5.2255359 2.6487827 2.0007105
1.4378248 2.1295016 2.0057547
1.1982881 0.0011336182 1.7231252
4.7588859 3.7845004 1.765
0.18840563 2.4068248 2.0100238
4.1687636 3.6086152 1.9987159
2.9400713 0.0024750726 0.82864076
5.7352419 3.3159773 1.2752903
3.0325842 0.07532122 1.9978602
5.9892287 3.935611 1.8104315
2.8181849 3.4806817 1.0074604
3.848032 2.5200789 2.0140553
3.9034069 2.3785734 -0.0020980036
5.3522482 3.8967628 1.4634618
4.7832212 2.9327359 2.0017786
1.3614708 0.0065829572 0.5591293
3.5502288 -0.0035992663 1.5990438
2.4473662 1.0419565 0.017593367
4.009613 0.3785255 0.79181737
3.9522955 0.70799983 2.015003
2.332803 3.3757122 1.8069764
4.624227 3.6841362 1.9992127
-0.013282742 1.8942363 0.55633396
3.3280051 2.7090991 -0.018037742
5.3712664 2.3951559 0.81604916
5.5150161 2.8373988 2.0218668
0.5644145 3.0858176 1.8645021
2.1757669 3.1698692 1.9876031
5.337605 2.3237224 1.9078168
0.20950314 3.0475597 1.6240275
4.1232076 1.561192 -0.0014647155
1.5997943 2.913574 -0.0099396463
2.1995158 1.4977939 0.0076719127
2.4711103 3.3854275 -0.01917755
0.53623426 0.5974986 1.9863344
3.7418838 0.0027122498 0.56616771
2.403477 2.5045855 -0.013965849
3.9801669 0.31639624 1.7654434
1.3582758 3.2100778 1.1751436
2.2674658 2.3494709 0.0043599475
2.3643177 0.50048101 0.0055908845
5.9821339 4.0086856 0.37779674
5.5896235 2.9649091 0.29827502
4.7417097 3.7843704 0.76540202
3.5351737 3.5927014 1.4420741
2.0901546 1.525449 1.9862226
4.4634562 1.505615 0.3277224
4.564755 2.8763034 0.006695515
1.862448 2.6236324 0.0052512595
1.1439661 0.0001377967 0.54631454
2.4076469 3.4102859 1.5686481
3.1554384 0.47991177 1.9971902
5.8191257 3.5526624 0.33125275
3.9260125 2.5343454 2.0074883
1.7389359 -0.00672981 1.4524186
4.5665359 1.9485201 -0.0067658648
3.6024158 2.119225 2.0147533
1.6673963 0.59211218 1.9937483
2.3097956 -0.015486121 1.5453085
3.3052478 3.5468051 0.20278524
4.2353802 1.506176 1.7744806
0.79274487 3.1269078 1.7665361
1.755373 1.5630122 1.9810325
4.0459604 1.4916867 1.1980507
1.8989946 1.4118892 0.0029878265
1.1980686 1.6952226 1.9923903
-0.010870544 2.547426 0.39875996
4.5391669 1.7060078 1.9960973
3.2419415 3.5346622 0.0012987126
4.9038491 1.7508266 1.9971081
2.3187299 0.12733072 0.0075692246
1.1829062 0.53433365 0.014911188
1.9585594 0.0013115408 1.839905
5.2148142 2.8919818 1.9970216
0.091087937 1.2954075 1.9974495
2.644311 3.4304638 1.5310937
1.8321891 1.1614983 1.9715948
1.0550005 1.4661896 -0.0063896119
1.080246 1.3246106 2.0139208
4.0588694 1.4899634 0.78908807
4.0766807 1.4859171 0.16321142
2.1343446 1.3075811 0.024494169
4.8533416 1.5261002 1.6443527
1.5333035 0.004631192 0.10987571
0.97345507 1.7682537 -0.0082011223
1.8683156 1.2381614 0.014995121
2.0009351 -0.0028327738 1.5491697
-0.0016059638 1.9078114 1.7195209
4.5526619 1.5068369 1.0720932
0.0012365247 1.546795 0.5983758
0.0016846545 2.3905673 0.52097929
5.7251711 3.9474688 1.1145793
2.9819756 -0.00030773223 0.70223737
1.5515772 1.1344007 -0.013513609
1.9491574 2.9057345 2.0114493
2.2433445 -0.010021349 0.9053151
5.3745685 2.4572959 0.67068166
3.0228221 0.33804974 0.0082038492
0.0099333087 2.6683292 1.3664426
4.9686713 3.8252318 1.8158767
1.2496096 2.2124295 0.0030835306
4.7053885 3.1726868 1.9970312
5.4997916 2.7391133 0.30471402
4.0071611 0.71336901 -0.005917104
5.3594375 3.8936813 1.3332719
4.5283599 1.4884486 1.9894669
3.9860952 0.51210481 0.044000022
4.4313254 2.2663443 -0.016763425
2.8135533 0.53849149 1.9919281
1.3024288 0.0012939747 0.84164125
3.0192044 2.9102747 -0.0070037595
3.3695626 3.5643556 0.36450386
2.1972179 -0.00092933391 0.16380586
1.3584777 1.9060086 2.0039997
3.7155321 0.0064753266 0.11095287
2.9269893 3.4885173 0.79733026
5.3855724 3.8916907 2.0108943
5.469233 2.6782939 1.1001118
0.46810263 0.84334338 0.0090945074
5.6344795 3.0409279 1.7059064
5.2757745 2.1988924 1.2939843
2.813616 0.32205123 1.994756
3.135778 1.5101534 0.01269938
0.24984358 0.28375593 -0.00069980713
3.3113558 1.9298283 2.0129361
5.8913608 3.774883 1.4758489
4.9506192 1.5040011 0.38852271
0.021221135 1.4018855 2.0053368
3.0688066 3.4964821 1.4226379
3.1163781 2.2028916 0.0078870859
0.0023575504 1.2838454 1.6291673
1.3960011 1.912572 1.9915016
3.8017595 2.106766 -0.011140548
4.5113497 3.7582545 0.23161174
1.5133914 -0.01052787 0.32191476
0.012614273 1.5416223 1.1245918
5.889607 3.6965735 0.19271086
4.3795347 2.9845793 0.0024384188
2.6934786 0.48366839 -0.0043912553
1.9600492 0.55446905 1.9979373
3.667887 0.0017037765 0.4918527
4.3971157 1.5093851 0.76488489
1.5408013 1.4816412 2.0164068
2.1795931 3.3765621 0.30547291
4.1992912 3.3330703 1.9906113
3.669112 3.6030557 0.019009139
4.9457436 3.5498102 0.0089899879
1.1534396 3.2095101 0.22445077
4.70893 3.7787435 1.6981081
3.9511001 3.6564581 1.8024285
1.3973327 3.2552493 0.43451282
0.32498619 1.482455 1.9912394
5.8732533 3.9907184 0.71501988
0.27304623 3.0425282 1.7272511
0.91399091 3.137207 1.2589976
4.2182827 1.6064965 2.0053413
1.5026145 0.45767969 2.004621
-0.0005908364 2.1761847 0.0011523677
5.4812155 2.683615 0.38273528
4.0065441 0.87441921 1.8726124
1.7646955 3.3002076 0.52992421
4.759963 1.4912258 1.006904
5.0266466 1.5921241 1.2750341
3.9845567 0.39770043 0.77557629
0.47125325 2.753932 -0.0038516654
-0.0045093489 2.4501832 0.58034068
2.7890348 0.94588971 0.0072047701
0.26727679 2.3791928 2.0012956
3.98066 1.4184012 2.0078173
1.145974 -0.0018808265 0.13969234
2.5578623 0.33305782 1.9910996
3.5597386 -0.013743929 0.64376688
1.4733304 -0.003554408 1.8675309
1.0035002 3.0073576 -0.0082822125
5.5334764 2.8251359 0.3324123
3.6861575 2.6635554 2.0195105
3.8953569 3.6756773 1.1119373
2.650728 0.92675936 -0.0087856818
2.8316627 3.4823627 0.59171224
2.0944989 1.6065197 1.9932212
1.1721296 2.339704 0.0058312537
1.6314994 0.33959934 0.0018558865
3.038727 3.5237134 0.47423685
0.60775548 0.010416906 0.93601656
4.2937679 1.8596851 1.9956061
1.1365665 1.6797832 1.9866878
2.6798432 0.79885173 -0.015736019
5.8060012 3.5313537 0.82995373
2.0922587 2.0833583 1.9971557
2.1746726 0.086216509 0.00020928608
2.5975523 3.3496544 1.9882935
5.2740722 2.1542394 1.213414
4.5884814 2.3969145 0.002840372
4.0825772 2.8503041 1.9946213
0.51103354 -0.0066254307 1.7162422
4.8733144 3.8150389 0.34943184
1.6273732 3.2675273 0.65712261
1.9552844 0.0020811562 1.6220076
3.7008862 0.26996884 2.0116587
2.0413008 2.3714516 -0.0001517315
5.1738706 1.9546539 1.5765151
-0.003132266 0.96628582 1.9659852
3.3302345 0.013458823 1.2601988
3.943362 0.0090342425 1.9605222
0.21474944 1.225484 1.9882804
1.096542 3.1933701 1.038857
0.23366067 2.0026689 1.9983135
2.6387253 0.73624915 2.0222738
5.31107 2.2587764 0.20552801
1.4733292 0.43360266 2.005547
3.8573403 3.2266092 2.0125058
-0.003322483 2.0526197 1.7642603
4.7669415 3.8190086 1.71989
0.47843885 2.9019265 1.9920443
0.67074412 1.3486196 -0.00190259
1.7585598 0.22874223 0.0062015918
3.1750233 0.82043517 1.993938
2.5383809 3.4378603 0.12412808
3.3631818 0.83823103 -0.0003777825
5.1238241 1.8034592 0.93977576
1.0849988 2.9393833 1.9964505
2.4120359 -0.0023901081 1.571767
2.2514043 1.0191764 0.0131797
3.6938362 0.0155619 0.79944587
0.008970147 1.4063824 0.41361144
-0.019080561 0.11788115 0.93279457
0.30014184 0.55644888 2.0007734
2.8488061 -0.0047376938 1.1470773
3.9951725 0.69006467 1.767953
1.9891473 1.6086357 -0.0035938532
5.1499634 3.5969064 1.9900764
0.0053852224 0.0071755303 1.3298802
5.0849376 1.672423 0.94566423
4.920115 1.4913944 0.30356619
4.1043811 3.6882851 0.72921044
1.3355477 2.0276599 2.0182648
4.50599 3.7419562 1.0220953
1.2001382 2.1447563 0.0013469801
1.1034677 0.0095642991 1.1027462
0.54364705 0.36896703 0.0017993822
1.0693896 3.0931644 -0.0043848571
3.7695417 1.4558535 1.9960294
4.2256603 1.4837902 0.55514079
-0.037491597 2.9697328 1.7631679
0.37678498 3.0681868 0.95564616
4.1088095 1.6781089 1.9810052
1.5799398 2.4782987 1.9988583
5.7996545 3.9706554 1.4745485
1.439375 1.0998603 2.0005033
4.4645329 1.5049528 1.0861077
5.3025918 2.2351527 1.1976523
3.2713332 2.8099267 2.0019772
2.9514732 1.2167385 1.9944719
0.21757308 2.9415455 1.991845
0.0086167119 0.22398503 1.5701919
5.7595706 3.4264359 0.30071518
0.017865436 2.1368802 0.90264225
-0.0013476219 0.16450228 1.872257
1.2188182 2.7518065 0.0041751401
1.4895669 0.53638554 0.0040870467
4.1412692 3.6728299 1.3623408
0.011269839 0.94503087 1.3407209
5.188921 1.9503382 1.3723307
3.3734422 1.6734755 0.0071436581
4.8671498 3.8125358 0.53414452
3.9408922 3.3071697 -0.022351403
1.6964685 2.8444419 2.0044332
0.022753788 2.060396 2.0027151
5.4789829 2.6582866 0.92178947
3.6633756 3.6058991 1.7435406
2.7405846 0.94123983 -0.0063708541
0.34636393 1.2273384 -0.0037351856
-0.0039830231 1.2757535 0.56450284
4.5591383 1.4822356 0.73901784
0.014560464 2.4535193 1.9020517
1.3107077 3.0503078 0.017037798
0.20129047 3.0281696 1.3482928
1.1948045 1.756265 -0.00026941323
0.1447762 1.0858191 0.0042317943
-0.011911619 0.011922915 0.60329747
3.3291707 0.23600939 2.0066421
0.26868686 1.7493539 -0.0087976223
0.48398241 0.090960316 2.0082271
3.2303152 1.0670673 2.0005858
1.0580119 0.0019845087 1.7138634
3.7513709 0.0092031034 1.341441
2.9175768 1.7382319 -0.0043831193
5.3142319 2.5649018 -0.013207056
3.9185913 3.1711931 2.0067499
2.9786456 3.0083258 0.019840674
5.9079876 3.9887793 0.99865788
3.8048675 3.6251581 1.2218077
5.3603892 3.7908664 -0.0063516665
-0.0077157011 1.3300269 0.040161982
0.0506787 2.2671735 0.0031015333
4.8569598 3.4630067 0.0030263576
3.8424428 2.1577229 0.011415076
0.0067106863 1.2510355 1.9925023
-0.012634906 3.0233889 1.8974763
2.9221132 0.58295023 1.9886775
3.9952545 0.43933749 0.046639815
4.6958361 3.7723601 0.43765071
5.2719774 2.1428716 1.5776808
5.6452212 3.1279793 1.8075814
5.3393393 3.0791264 2.0081282
2.9709604 3.408968 1.9911813
3.5067298 3.2905822 2.0045264
2.3318996 1.3665773 1.9997777
4.8861866 2.0229704 2.0154219
3.9782932 0.65240806 1.7921225
5.4554396 2.9090841 0.012192319
4.0858536 3.5223391 -0.0039324807
1.8715922 0.0028057217 1.6238515
0.085524373 3.0198674 0.19345357
3.9711232 3.5228577 1.9930102
5.9459224 3.8442585 0.51258475
0.0044173379 1.8301785 1.6940082
5.7990355 3.4751053 0.066942029
-0.0010516357 1.4661324 1.012694
3.8135598 3.6507304 0.9199329
4.1875949 3.6969304 0.5762409
0.015228944 1.1952537 1.8168424
2.6553197 0.86309338 1.9847807
5.7295156 3.3099167 0.066041298
1.1707727 2.079185 -0.0061070547
3.6389945 0.007254893 0.94974071
3.9364533 3.6497767 1.6743767
1.2965754 0.74021304 2.0022683
4.0071301 1.0670564 0.43151391
3.9997323 0.39536905 0.59076637
4.5453405 2.737618 1.9884043
5.2439227 2.4837651 2.0073931
4.693079 1.5251832 1.6027082
3.9951251 1.4743201 0.52161258
1.4697331 -0.011446921 1.5235614
-0.00014436099 0.34537405 1.6786935
0.24663378 3.0402491 0.24841659
4.4745603 3.7437472 1.3649912
1.094717 1.2566208 -0.005577805
1.386663 -0.0016270075 1.9279556
2.7843235 -0.0020441846 0.87643796
2.2699678 3.383244 1.3321252
5.7142172 3.9529843 0.85047686
-0.0068384977 2.674722 1.5253195
0.38408485 1.8738039 -0.010271356
2.9423399 0.12939894 0.0029805757
1.0637537 1.7700062 1.9859046
2.7019391 0.043896962 2.0068383
0.28963017 3.0029473 0.0011268137
3.9959984 3.6682084 0.17069471
4.9711905 1.824695 2.0160501
4.4962325 2.4439754 1.9982488
5.1895299 3.6438046 -0.0032716391
0.0057520317 0.31428987 1.2824614
2.9961948 2.1345427 2.0147257
4.8408012 3.8135877 0.55475867
2.0567522 1.1106741 1.9800022
4.7641859 2.3393915 0.0065005422
5.8010345 3.5072324 1.3950905
0.014473666 2.2807751 1.5733294
4.0045199 1.2954514 1.0924017
5.8224821 3.5789583 0.74184752
5.80689 3.5361903 1.0974665
1.9362428 1.7979956 -0.00092042063
0.91246617 1.6467026 1.9995887
4.0138388 0.8887344 0.071945474
1.7990056 0.55954778 1.9980094
3.2250745 1.4648752 2.0057738
5.0442228 1.9871099 -0.0050762906
-0.022829298 1.4898614 0.61330795
1.3161699 3.226289 0.63375288
1.6287951 3.2660475 0.28773329
2.4207819 2.4813161 0.012240403
1.8166169 2.326149 2.0102723
3.0134349 0.052268695 2.018924
2.3233883 3.3659744 1.2289878
5.3119211 3.8833902 1.9917049
3.4430099 3.5911601 1.8617818
5.3450885 2.3471947 1.3648603
3.5833032 3.1615653 0.00092713028
5.1498179 2.6438212 1.993431
2.3948584 3.002069 2.02367
5.7020087 3.21456 1.8879755
2.939286 2.8653331 -0.01739181
3.412473 1.9759573 1.9930236
1.0606905 2.0445638 0.0056750434
3.4761167 3.5778124 0.5669781
2.7970536 1.5124075 0.0092300093
5.8371782 3.9623005 0.52998388
2.4368954 0.84492368 -0.013053509
5.9051275 3.7442698 0.51306111
2.8819122 0.75699264 0.00085011334
3.5865221 -0.0006830967 0.5322051
2.3704727 0.0042369375 0.090749428
2.9183762 0.63105631 0.016694207
0.80560291 0.0021087716 1.3873585
1.6182272 -0.00066513865 1.3266279
0.27552953 -0.011660351 1.6835592
0.1062642 0.018358996 1.2243848
3.7607179 2.133446 0.0064348648
3.1902285 3.5220766 1.637868
1.1979442 2.3935792 1.9960953
3.8578207 2.7327993 1.9902431
3.8829505 3.3041995 1.9979793
2.0186234 3.3407671 1.4367164
1.2827888 1.904719 2.0060067
2.5371263 -0.02046483 1.728768
-0.0035972812 1.3940855 1.3711985
1.770678 0.61820817 2.0125277
4.6656513 1.7507652 -0.00042371586
1.1428723 0.016667802 1.7316196
2.3268332 2.6271489 2.0034478
0.51187217 0.24351466 1.9881562
-0.0014287893 0.49256265 0.39776722
1.0488969 1.0994494 2.0052812
5.0734329 2.4363556 -0.00065289676
1.9785949 3.3283906 1.9309016
0.23635334 3.0554082 1.4535004
1.8522328 2.209208 1.9980472
2.123632 2.5676951 -0.013735488
4.6352253 1.721795 -0.0016911855
0.84120864 0.44861493 0.0024138445
5.0076952 2.8375185 1.9844197
2.6802247 2.5658367 1.9870094
2.3053257 0.98570019 0.0087774647
2.0085595 1.9625219 0.0052158558
2.9587543 0.0066803517 1.204133
0.71181583 0.0081914496 0.89845908
4.1468129 1.4950778 1.3748953
5.4912505 3.6157322 0.0059586451
2.1553006 3.0001981 1.9973966
4.0048976 0.060295887 1.4495398
1.9375281 2.6693773 1.9970587
4.6807718 3.7864997 0.55925459
4.2899389 1.8481665 2.0015028
2.9942243 0.59737599 1.9827031
3.7804654 -0.0022113011 1.1216509
0.3025558 3.0467176 0.88790339
2.5239854 3.4110699 1.6210098
3.8972328 3.6601853 1.0212646
2.9251175 0.95716411 1.9869143
1.4615231 0.9618001 1.9901342
0.63253093 0.0072682858 1.1967438
5.6891961 3.9453735 0.15510614
4.7054086 1.5071933 0.33080447
5.1694946 1.9263649 0.80017763
0.82860231 -0.00030396626 1.8498852
1.4180385 -3.233903e-05 1.1722114
5.324873 3.8737447 0.52109021
0.3412427 0.9750402 1.9876312
3.8458858 0.0040379502 1.4518975
0.42265463 1.7863777 2.0002031
1.4330521 0.57981676 0.0030694506
5.7367754 3.9359534 0.45258263
2.1497128 0.35674444 2.0072887
1.1011614 0.56891185 2.016618
0.013646104 0.22054242 1.0312891
0.23564859 0.005624895 0.25334284
1.6957675 1.2209241 2.0060596
5.6631727 3.9461091 1.4094652
5.4107785 2.5488982 0.82386678
2.8704593 -0.0048776781 1.1591163
5.6026707 3.9235592 1.1442578
-0.00094876601 2.1281142 1.5959203
0.24671215 3.0354156 0.28547442
4.9359603 1.5166712 0.70621526
5.6296334 3.0715315 1.1402713
0.0043794587 0.11743051 0.068668783
3.2506301 3.5369616 0.41295397
2.2492931 3.3774703 0.11963411
3.6964691 3.6174033 1.836609
5.0890446 3.4159281 1.987914
3.114552 1.8433795 2.006696
2.5493236 0.0019316018 0.67824703
3.2391267 3.5300307 1.9731991
1.1390506 2.2304161 1.9810728
2.3917613 1.381708 -0.0074526826
1.8552302 0.0066281972 0.6335398
4.2476349 2.2515934 -0.00026954818
0.7482785 2.0323246 0.01415428
5.7455659 3.3156993 1.4372221
-0.005734547 2.6987636 0.23724702
2.6731169 0.73534411 -0.0026060105
3.7650433 0.73037201 2.0062802
1.5792478 0.002258756 0.63625467
2.7649586 3.0397956 1.993066
3.4193938 0.48355556 -0.0019944145
-0.015859619 0.46532232 1.0663123
0.11542843 -0.013017879 0.14235777
4.8561902 1.502986 0.68102396
3.4193964 -0.0019395573 1.4302019
5.4123259 2.4998693 1.1160878
3.9323344 -0.016671389 0.4843255
2.8191061 -0.0099865384 0.31418085
0.009760174 0.67158222 0.047136281
5.7198029 3.336129 0.11238822
1.5331391 3.2469323 1.0566199
2.4763262 2.2107112 0.0022734567
5.6181355 3.5057063 1.9778124
2.4649427 0.69390333 1.9963436
5.2637153 2.1660483 0.9310922
0.32614857 1.5995179 -0.011212367
1.5499282 0.012718234 1.1749581
4.8259144 3.7870412 2.0013719
0.95314693 3.1456697 1.3186688
4.4435916 3.7461133 0.6738562
5.7399693 3.9455955 0.11558125
0.67544383 0.42451191 -0.015083958
4.7361107 1.6341702 0.0034569954
4.4315972 3.734453 0.72800016
0.77517462 3.1267345 0.0070343371
3.3766503 3.3109159 0.0071084094
1.5658762 1.9404861 -0.014341138
4.5467792 3.7642603 1.6149439
3.782794 2.1817997 -0.011307806
2.1931379 2.1601903 1.9945947
3.7340653 3.072969 0.0030024634
0.34454724 3.0595868 1.9146013
3.024971 1.7236561 0.0061265016
5.7020617 3.9477611 1.3094071
3.736043 2.8134151 -0.0084524946
2.4860179 1.0167621 0.008030666
3.7074084 2.8999343 0.011353089
3.044188 -0.0061195786 1.3836309
5.1439805 2.0014353 0.0076479577
-0.0065809223 2.5508416 1.0815054
5.7741427 3.4361603 0.60148466
4.6464481 2.3375838 2.0035956
-0.000214302 1.8752955 0.46799293
2.5579574 0.056418609 0.0011225819
3.0146132 3.5050354 1.4138175
5.1188354 2.195533 2.0170166
4.8302784 1.4965239 0.4782809
3.3137555 3.5512245 1.1900514
4.3413229 1.5891514 1.9945112
1.1997665 0.003088356 1.4684397
4.4710999 3.2438755 0.0010298908
3.5458622 0.012496233 1.1840709
4.0604486 3.6793199 0.048274159
5.7745724 3.9856365 1.6834352
2.5659471 1.4788839 2.0144403
2.6424525 0.0028810264 0.26087365
1.1967767 0.92014045 2.0076797
3.9295599 2.5442035 1.9926559
3.2156954 0.0023812172 1.7539686
3.9002964 3.6527741 1.4707241
0.098751605 2.1768436 1.9993
1.887774 -0.0023441464 0.47260863
0.50014496 1.0679595 0.017061345
5.4875298 2.7053649 1.3437734
3.0701296 1.3711052 -0.020487538
5.0523653 1.5931681 0.9288981
2.9376917 2.4395039 2.0133944
3.3811831 3.2236009 0.0038323114
0.0063521345 1.3662781 0.85646361
2.3797908 3.3127766 0.0067339404
2.258636 0.0025675946 0.3952097
3.9876585 1.3887355 1.4634953
1.5086031 2.5959361 -0.00030235012
2.5725114 2.5549011 0.0038045589
3.9570756 3.6678872 0.13580881
3.8101296 -0.013987439 1.9174851
2.8461111 2.4960492 0.018854713
0.0067337351 0.87273204 1.427899
3.1939433 0.009968699 0.58761716
0.48006833 0.71695793 0.013233708
2.5473108 0.19796856 -0.019656532
4.4056802 1.5110825 1.9276564
3.6943104 3.4585297 0.0080106286
0.34262851 -0.0050272075 1.2036921
3.2325418 -0.0018378093 0.10423367
5.2816434 2.2379875 0.23440473
2.1830592 0.69338632 -0.0046364903
5.6850986 3.9612572 0.52186018
3.8995242 0.44513145 -0.0074618384
5.8380342 3.6017699 1.6696304
5.6527295 3.7509406 1.9845325
1.5695341 1.9059222 1.9917707
4.8624821 1.5042607 0.71187568
1.3230578 3.2149169 0.60183692
0.0054775425 2.9839814 1.0512809
1.8812408 0.12354092 2.0063269
2.9986341 0.0015451199 0.87584448
4.5254836 3.7771902 1.1189767
1.9496477 1.9767163 0.012702648
-0.0048047183 2.4001515 0.46189764
2.9008825 2.2480192 1.9969049
3.8625867 3.3081346 2.003026
2.1506679 0.576765 1.9928514
1.0537225 0.011844124 1.1680994
4.1714659 3.3184845 0.0065274141
2.0310416 3.3354468 0.81281257
1.8823535 2.1174269 1.9927424
0.99175537 -0.013079709 1.8479222
0.63609993 0.91374713 1.998155
2.0012608 1.2840548 0.0095422696
0.21906358 3.0435195 0.5698058
4.0056391 0.46365997 1.7422484
3.573024 1.8423159 -0.0068607805
4.6890326 2.7214234 2.0038352
0.010022775 3.0024767 1.7863187
0.11698405 2.6349907 0.0021061124
0.0036950237 1.3617768 1.3233937
1.7893622 2.9322186 0.0027625393
2.9877918 2.2192075 0.0082802027
5.8713074 3.985785 1.7393751
1.4789569 -0.011244173 1.920562
1.5209786 1.9029226 2.0061483
4.0563107 1.5042329 1.3019563
5.2234983 2.0872977 1.1037029
0.29582286 0.0083364006 0.74785942
5.2055407 3.2540405 1.9948959
3.8412147 1.0869819 -0.0076064072
1.8530917 1.685279 0.0035881388
1.1879045 0.27947161 -0.017073963
1.5454131 -0.00036490228 1.7203041
0.0063008755 0.16024166 -0.012261965
4.8200927 3.8180983 1.5045741
4.4852233 3.4834073 -0.016539538
-0.0041883904 0.26955643 0.70949221
4.516161 2.7389929 -0.0023489844
4.272222 3.6981261 1.2634579
5.0544014 1.599646 1.6915529
5.8023853 3.5147793 1.7649465
1.1494976 0.0019850964 1.2202462
1.5052779 3.2538605 1.020584
2.0304396 0.86605203 -0.0061800568
1.2802329 3.2225523 1.2265488
0.007563212 2.9731805 0.074558228
5.3924198 3.8954337 0.22799963
0.4604224 -0.015388306 0.15363468
5.0112376 1.5400865 1.3182328
2.2170894 1.0572364 -0.0040357304
3.9958835 0.12611888 0.41566965
5.9073668 3.7397285 0.39772934
2.3997068 3.2555203 0.0057005496
1.0855807 1.5101024 0.0028439243
2.2494283 3.382082 1.2208738
5.429708 3.9033575 0.021204788
2.9881039 3.4980381 1.1718208
1.2674285 0.96699506 0.0094249398
2.130548 0.33215895 1.97096
1.2312506 0.0047188736 1.2218306
1.9170452 1.5988318 2.0178578
2.7082191 0.040654663 2.0032866
2.5844371 1.3022944 0.015200471
5.2406859 2.0988712 1.3523575
2.1503131 2.6565559 -0.0013841154
0.55829579 3.0859671 0.19492039
0.07404314 1.1778793 1.9922971
1.4954958 3.0571322 1.9929749
3.9267628 0.24060847 2.0060849
2.1084778 2.4220548 2.0229828
2.7959764 1.7913784 2.0133064
5.1531825 2.6169527 2.002295
4.565671 2.7813563 1.9888126
4.4792318 3.7360976 1.2802124
2.7568531 0.34356895 2.0074985
5.3679433 2.3922751 0.83575553
4.0033245 0.73694682 1.7285905
0.30562437 0.22914772 1.992831
0.29432738 1.7822238 -0.013711358
0.46885166 2.2701876 -0.0045162584
0.84341514 2.7786679 -0.0071692946
4.7827516 1.9999523 2.0057428
3.4994409 0.12797371 0.0052212523
2.5098991 1.7719221 0.0032786266
1.2478249 3.209259 1.3275068
2.514811 3.4006689 1.0499994
-0.01507547 1.4534529 1.3897958
0.35400543 2.3707769 -0.019914484
5.4393711 2.5792904 1.9104931
0.81524801 2.7347517 2.0062361
0.0037048999 2.9897654 1.027706
2.1259177 0.00056412228 1.8626159
0.012838317 1.9577304 0.73496431
5.0900526 1.7411287 1.1291595
1.563536 3.2648251 1.7045102
-0.012674777 0.72288257 0.0016698919
4.5464916 3.3765411 2.0007756
-0.00086515112 1.489718 -0.007686282
3.7959838 3.6333075 1.4638789
4.4509525 3.3816869 2.0012922
2.5968616 3.4106598 0.03341208
4.246417 2.156265 2.0003078
5.2441573 2.0916893 0.89882481
5.8585639 3.7373464 0.30028847
3.7180619 0.86841714 -0.010335842
2.2556119 -0.015266324 1.7855374
3.5092025 1.5901926 0.0010051386
3.6091053 0.20492589 -0.014539837
4.9428453 3.8191137 1.7778652
5.2742958 2.220145 1.2886187
1.0696303 0.95905125 1.9954977
5.5439944 3.9213464 1.4111576
5.3895788 2.5121629 1.0804793
4.1072941 3.6759553 1.2218044
1.689738 3.2782118 1.7673247
4.0026307 0.074459516 1.5552276
4.7681761 2.0918441 0.01868776
4.0486536 2.8502896 2.0001647
0.7338832 1.6023456 2.0024414
0.0088883601 1.7699811 0.44621494
4.2223253 1.5107714 0.68119121
1.2956655 1.0041542 -0.0084740119
0.017206805 2.492826 1.2097837
5.1188965 3.6541376 0.0012393238
2.6242013 0.46134394 0.0061984397
3.455626 1.2806886 1.9907783
2.3715835 3.4150515 0.0089811245
1.7675682 2.7460814 2.0099638
3.2607458 0.15941356 0.0050617368
0.45160988 0.62961978 0.0055286754
0.77595043 2.1658266 1.9907222
4.7846351 3.4779243 2.0047326
0.90065676 -0.0043316972 0.95929199
-0.010976495 2.1241496 0.35164768
1.7614152 3.2994351 1.8112862
0.35068315 0.71415347 1.9972217
1.3948202 1.5060792 0.010963114
1.2164351 3.2111514 0.54020935
3.9951777 3.4351432 1.9965723
3.9880135 0.79667908 0.14907828
4.1760716 2.138061 0.02231784
0.0012465791 2.2226901 0.38965961
-0.0059450809 2.9168813 0.0076985834
2.4271488 2.6776874 -0.00041044925
4.5922718 1.5103002 1.6041739
1.4258949 0.89923656 -0.0030865457
5.0461206 3.8577058 0.45960999
1.9001229 -0.021695361 0.81035012
0.20969474 2.124989 -0.0056981225
1.5736153 3.2707925 0.06854786
0.70141655 2.2115526 -0.00020658014
-0.01372467 1.0372885 0.87293661
5.5064664 3.3929665 -0.011440702
2.9124384 1.2290248 1.9988474
2.6128983 0.0054287352 0.82056683
0.68301696 1.6607373 0.0072001237
5.1285653 1.8289986 1.2140478
5.0924187 1.7333556 0.15491246
1.7947987 0.0071680802 1.507248
3.4860113 -0.0015746594 0.48597348
1.6163968 0.65953082 -0.0022782029
4.3926415 2.4979529 2.0128107
5.3170238 2.3015687 1.0192438
1.79896 3.1935523 2.0113416
1.3484185 3.232199 0.055253804
0.002019133 0.059994865 0.26238492
3.2556195 0.54959822 2.0022426
5.6118956 3.0340776 0.91962707
2.569299 0.0010098391 0.63050973
2.5786829 1.6982442 0.017462106
1.8976783 3.3137813 0.47967204
4.9895177 3.8262572 1.2970641
4.8625655 3.3060067 2.0095818
5.4187808 2.5226007 1.1687343
2.2095351 1.2839396 2.0138733
2.071945 3.3454618 0.83852339
0.0041020536 0.26451901 0.19692506
1.605916 1.6068555 0.010054377
2.8273716 3.4755979 0.62989432
1.8142571 0.011259289 0.86245048
0.66377985 -0.0060321097 0.9221316
4.1352096 3.5316875 1.9911023
0.099276446 3.0229049 1.7327342
3.6294405 3.5849988 1.6489674
3.6462841 3.61042 0.32801104
3.1935506 1.0952435 2.0006654
2.3117132 2.6881442 -0.00097938802
1.9494413 3.3306069 0.53682172
3.4665887 0.55048853 0.0073554916
3.6207726 3.1232827 -0.0083905226
4.5191455 2.6905379 1.9920745
1.734555 1.8795086 -0.020534409
1.2956251 0.78993565 0.012648656
0.30648312 -0.012423926 1.0675527
3.0729499 1.0398582 -0.0079292143
4.0101008 0.27503663 0.31319493
1.4482226 2.4925733 -0.0017780979
2.826154 2.4808621 1.9989116
0.36700007 3.0531952 0.2176168
0.54359257 -0.023312366 1.5754051
3.0750847 3.5110366 1.3678236
1.4491835 1.4276024 0.010715969
5.9463496 3.873024 1.7194263
1.514274 2.5214169 1.9963495
2.4197159 2.3175628 -0.012268786
0.60246515 -0.011429848 1.2938468
0.010699711 2.9556136 1.9311286
0.006147536 2.9213016 0.71689618
5.0112405 1.5390443 1.0665586
0.36921814 1.490005 2.0188522
1.3480598 0.0028477525 0.013412966
5.6278086 3.044086 1.2714418
2.3615944 1.5231589 -0.01556228
3.1249676 0.32525989 2.0049827
1.1517562 3.1097713 2.0014143
3.406738 1.3535414 1.998724
1.6861138 2.3150737 0.0047431844
3.2606342 2.7904396 0.0094762379
4.7582822 2.6082942 2.0046682
2.5457964 3.4066036 0.3337163
5.8441029 3.6046999 0.69066697
1.9126692 1.9103736 2.0111439
2.3097599 0.0082611647 1.8132961
4.3412261 3.7175999 0.48369303
5.2860327 2.2236786 1.5479283
0.0053793127 1.0271362 0.49244773
5.1004767 3.7285554 0.0045915162
0.31824434 3.0482683 0.073126018
1.2631532 0.92414135 -0.0030774882
4.0053167 2.5123024 -0.0022067204
3.2286971 0.56369865 1.9934998
2.3838975 0.0017848404 -0.007597914
5.9400396 3.8173237 1.3907535
4.0088997 0.18471391 1.2612059
0.75149357 0.0016522108 0.50884271
5.1347136 2.6521444 1.9822567
3.2095597 0.0031267451 1.8810503
-0.013080228 2.6537123 1.5034403
3.9930279 0.79121393 0.57424992
1.3532165 1.9989437 -0.0010606552
4.1783648 3.0128312 2.0019333
-0.010032975 1.2840304 0.15285721
3.4461458 3.1964512 0.012032231
5.8960853 3.753485 0.65593171
0.12813666 0.0098661678 1.6609865
2.4991627 1.7693167 -0.009785885
0.0043766387 2.9901886 0.69209844
0.88325715 2.0550983 1.999845
5.7461667 3.3744195 0.026720513
3.9116726 3.6419427 0.5537957
3.9978771 0.95016694 1.5704829
3.6390319 0.0039403704 0.65809566
5.7251272 3.3061459 0.65890026
2.0071146 0.056702267 0.012011223
3.6942904 -0.0087273084 1.3153244
4.1566186 3.6921322 1.0439185
2.2812324 3.3761766 1.1776987
2.7572756 1.9952416 -0.00099041243
1.2876096 2.6917536 1.9832011
1.7611272 -0.0073552569 1.8554231
4.0122256 1.12068 1.7627605
3.3448746 1.2665957 1.9996204
2.0559275 2.2865849 2.0043125
4.0826912 3.6850643 0.49649647
3.3513196 2.0321424 -0.0034142402
4.005559 3.4333436 0.0019860414
3.9862807 0.51281619 0.059976343
1.4245782 0.95357382 2.0018244
4.6555195 3.7202206 1.9888858
5.4238324 2.5339289 0.18765609
3.1028445 3.5125806 0.64468294
4.3969283 3.7201507 1.0435338
5.9046254 3.9947469 0.46003515
-0.021964382 0.54416502 1.6822309
5.4411111 3.916429 1.7135628
5.8446465 3.9661562 1.8305798
4.0077386 0.069784336 1.3300434
0.084513791 0.013455612 1.8261217
4.0877209 3.6811273 1.8333678
3.0081279 3.4979956 0.48144504
0.0050681722 1.7560172 0.6384514
3.4232481 1.3689736 -0.0010358508
3.3836646 1.0058067 -0.0067672506
0.75569403 -0.005020936 1.2180638
5.1783457 1.9307731 0.32613069
4.0995178 1.4920584 0.80321157
3.0805473 2.6371593 0.0009634241
0.6701169 3.10798 0.68743938
-0.0082369847 2.8046653 0.98527366
1.0414884 3.1787934 0.024137989
4.3307328 3.0676987 2.0098722
1.9067057 1.8701006 -1.0012347e-05
3.4442954 3.5593159 0.99729186
4.9172721 3.2054863 1.9956702
4.8130898 1.4870183 0.12712729
4.0905414 3.6887469 0.062916405
0.53472042 3.0959823 0.71094948
2.9506702 2.2377946 1.9978777
2.3194299 1.0558769 2.0004227
1.84062 3.3273473 0.40726954
0.36792803 0.47913668 1.9945726
0.95989054 3.1592677 1.5633849
4.5113478 1.4998096 1.8458085
1.9836968 2.6251645 2.0101957
1.6565052 3.2882149 0.22591053
1.7271707 3.2768388 1.6806175
2.9356728 1.7663742 1.9893587
1.0265449 2.4512317 2.0132153
2.7756205 0.0019323773 1.7248398
2.1655209 0.44000152 0.01253063
3.4601586 2.2616563 -0.015620924
-0.015326148 0.42659882 0.72427064
1.1199114 1.5282744 1.9878651
1.302886 2.1736901 2.0189874
0.008317871 2.2690487 1.0258999
0.77772105 2.5282452 2.0133145
5.7805095 3.9605937 1.5509346
2.6380901 3.4252319 0.078607291
0.93292826 -0.0032051855 1.6367218
2.2233212 1.7301775 0.0088805174
5.5877652 2.9872165 0.55622154
1.5271606 0.018745292 1.1145651
0.4081527 3.0746584 0.4806129
1.5350897 0.24356383 0.0020190706
2.6716363 0.015108706 1.1263698
1.8207397 1.2229346 2.0048716
0.071332566 1.8376302 -0.018228272
4.1567979 1.7809485 2.0055118
1.262777 0.0040606675 1.9337521
1.7470905 -0.0049942695 1.5505114
4.7301126 3.7889292 0.29267731
5.6421814 3.1084092 0.6635139
4.0065918 0.65772861 0.86383963
1.6823864 0.67120659 0.0036314994
4.8391857 1.4752471 1.4711351
-0.018394481 1.019848 1.0961392
5.4487143 2.9952812 1.9990354
1.8390312 2.1113846 1.9959658
4.3249173 2.8234639 -0.0011774928
0.68098533 0.0011845089 0.52183485
0.62804413 3.1065414 1.1975175
2.4055419 1.7778805 -0.011173671
2.5069139 3.3801429 0.00072542281
3.5702713 2.9471259 -0.0076590888
4.0100212 0.098921917 0.37148085
3.3266814 1.0808324 1.9891882
3.5819297 0.94669223 1.9884237
0.52302796 0.67269385 0.015079249
0.46716535 3.0744183 1.517024
4.6626782 3.7750387 1.4448613
-0.005212666 2.0417855 -0.0029097407
1.3597594 1.2319374 0.013228497
3.1825552 1.7193779 -0.012166554
5.8486848 3.600225 1.0615435
0.52794677 0.87849641 0.0043163272
-0.021424271 0.033876561 0.44050378
5.5523677 3.9224081 0.48716977
1.8464115 1.1004337 0.00056078442
5.3203459 2.2774744 1.1335154
2.6335704 0.0047443658 1.3891853
3.9918838 0.80297226 2.0010688
2.6400332 0.063969575 1.9978747
-0.0051124571 0.08710847 0.71492392
1.1045978 1.0491278 2.004813
2.7422242 3.3706024 -0.0094933137
1.378094 0.17772052 -0.018913966
5.2245827 3.8689499 0.29088807
3.0306637 1.0686516 1.9939859
1.7003599 0.040824234 2.002845
0.96134681 0.8971175 -0.0055107474
1.9472358 0.45047367 2.0070803
4.6982994 3.7678967 0.78868985
4.142818 1.9503943 -0.0059951413
1.0669806 1.4031992 2.0192506
5.8741255 3.7131248 2.0035727
3.6840355 0.008927227 1.3430851
4.0297036 3.2056 1.9885637
4.0071692 1.0412973 1.9561337
3.2750552 3.2887335 2.0007327
4.7985468 1.4899083 1.6257138
4.7855978 1.6955703 0.0032368076
5.7540255 3.7466362 -0.011524184
2.0690703 0.25214264 2.0200346
4.7035289 1.674358 2.002331
0.44516018 2.5606427 1.9999269
5.8094893 3.9663222 0.64514518
1.2366098 1.5877612 1.9958465
4.6407819 2.8068955 1.9824969
0.31162122 3.0371099 1.4225858
2.2845116 2.2907951 1.9975911
4.101068 3.1677911 -0.0092940731
0.93873042 0.67120111 2.0013661
3.803112 1.3450583 -0.01042224
0.56008047 0.96013808 1.9942598
3.0809398 3.5089071 1.9165448
0.89333969 -0.018061206 1.0637498
4.4053202 1.7221243 -0.0016641837
5.2477288 2.4043148 -0.019302232
1.8640965 3.3245313 0.47285134
2.7154596 1.7125144 2.0071425
2.6108518 3.4106758 1.2946634
0.59004253 1.2537344 1.9903222
0.0026177124 0.83684063 1.4991093
3.0402241 0.60160255 -0.0059948037
3.0129638 3.3647346 0.0049600522
2.7321177 0.0028112633 0.097316317
0.91244471 3.1622999 1.9472493
5.9564862 3.8518975 1.4098233
1.3313359 2.1834853 -0.016164314
3.3871598 0.82682115 1.978472
0.76753873 1.4555951 -0.017076582
0.49909168 -0.021593001 0.959526
0.10279448 2.2827086 -0.012463947
3.0308323 -0.014753862 0.95692885
4.5731859 2.4950609 1.9930346
3.9813695 3.5227475 2.0027511
0.12874664 1.6832384 0.015639963
0.021976486 0.22193216 1.996037
0.66458756 -0.0022134886 1.1600555
2.8205309 3.4960442 1.2151924
5.4640961 3.9131241 0.78485322
1.3265442 0.60951185 2.0056279
3.8848579 3.6358755 1.6472321
2.9870858 0.85641527 0.0019722029
1.416754 -0.01034386 0.28928769
1.5683088 3.2538238 0.88440746
4.1854453 2.4721415 1.983963
2.1490319 1.9779239 1.9943168
-0.0077732452 2.1290748 1.3847711
3.1846616 0.0085441032 0.43371665
5.2480469 2.1739848 1.8187115
0.016477803 2.35623 1.5773176
2.5946295 -0.0063423831 0.80274165
2.7363131 0.084016189 2.0101273
2.6992104 0.0065283221 1.9189093
1.9399045 0.0090649789 0.30744377
3.5057495 0.92000198 0.00550417
-0.0045093726 2.9347236 0.8845197
0.01434021 1.5444624 1.6884285
4.4850912 1.7030339 2.0022938
3.3538063 1.3339955 1.9996312
1.3512781 2.6211083 0.00019689405
4.7011428 3.8091187 0.51019293
3.1054528 3.2065165 2.0011296
0.86939502 3.1479251 1.2127424
2.3138626 -0.00019041276 1.1677581
4.1095266 3.2995765 0.002555599
2.5958984 0.16595232 1.9928182
1.6642706 1.0071577 -0.023344852
1.825538 1.2320677 0.010924141
1.4083649 3.2290113 1.3892939
1.1452587 3.2021539 0.031673517
2.3961909 1.2515154 0.00052141043
1.5511701 2.4889209 2.0163653
3.7885411 3.6403949 0.93491113
2.6068509 3.1524599 1.9898298
3.9706583 1.2316437 0.0013080112
5.5555186 2.8778539 0.74219692
0.44427964 0.011653111 1.2164623
1.4405856 3.2318661 1.8225864
4.9993181 2.3219464 0.010057478
4.9861999 2.8716438 0.010028727
1.2098328 0.3085376 -0.0054499623
2.059274 3.3627272 1.7007459
0.0055033448 0.11697701 0.096060142
5.2287908 3.1921952 -0.00765693
0.33931029 0.31548849 0.003551115
4.4393969 2.326865 0.00041233198
3.3942847 0.010432473 0.29179966
2.315798 0.79763222 2.0176837
5.7567248 3.9618449 1.0452508
3.0034513 0.25222677 1.9937456
0.01178292 1.267011 0.61817175
2.8691134 1.2023215 1.9974979
2.3453419 0.41594982 0.0057170005
3.6329839 3.6071095 0.71337152
5.3637748 2.4295964 1.3692286
0.0065195565 1.2344892 1.960746
4.0320439 1.8927189 2.0011849
0.05636768 3.0074055 0.49013335
0.41171321 0.0099567901 0.74044001
4.1854544 1.6367131 0.0048828875
2.9877543 2.4104156 1.9991635
3.5913191 0.25580871 0.014437975
5.3535361 3.400517 1.995347
0.22459821 2.4838254 -0.0067178505
0.0048800753 0.1612255 0.33266225
4.6255298 3.7714453 0.9153496
2.3222654 0.84186858 1.9933909
1.5784405 -0.025759619 0.5371061
4.0109067 0.099632986 1.8889309
3.5713522 1.1469008 2.0092304
5.9561415 3.884582 1.8507279
5.4520097 3.9040668 1.4732172
5.1874404 1.9374532 1.5228337
1.9910364 3.3192346 0.8768062
2.8515503 2.548867 0.001250844
1.4858425 1.0896175 -0.0051785293
4.010488 0.94658387 -0.01291263
3.233222 3.5277812 1.4446906
3.6511168 1.4184643 1.9917229
5.8422999 3.9641886 0.49408349
1.6598536 0.96601152 2.0076525
0.97376186 -0.01026956 0.95413244
0.0040880973 1.2333992 0.15068348
1.6123978 0.011852171 0.08990483
-0.0051571648 2.386282 0.64955533
1.4805473 3.2507839 0.75682884
2.995373 3.5022295 0.038618825
4.3774548 2.5965726 2.0052502
2.602061 3.2134681 -0.0025702626
1.3188559 2.7730107 0.010503356
4.0197048 0.85665083 0.80119365
0.015302362 2.9183018 1.3847834
2.0882347 3.3673646 0.99284172
4.7638392 1.9808952 0.0090725338
3.8731813 0.85671532 -0.015966844
1.8752205 2.5592933 0.0084516061
2.4524655 0.00047839325 1.5555289
0.016767172 1.2045761 1.7054749
2.0385294 0.43144724 1.9986894
0.00298847 0.22768767 0.34401566
3.7986238 3.6358626 0.60572803
2.2489672 0.99154377 2.0145574
3.7804046 2.0356748 1.986788
4.8490915 3.1172459 -0.011183196
3.2613914 3.5373447 1.0973022
5.7639985 3.3452382 0.71744436
4.7942181 1.6944534 1.9886498
0.60451519 3.1101418 1.2078975
3.8831024 1.3014479 -0.0043452517
1.2856377 0.92872983 -0.022831084
2.39186 3.402565 0.91104078
5.2473621 2.1065149 0.64391488
2.2446344 2.2866194 0.0016905083
2.5758128 0.014229035 1.2271941
1.5615653 0.90272611 -0.0037932717
1.1801871 2.5576336 2.0097475
0.0092749884 1.1228507 0.83641541
1.642038 0.63242638 0.013590354
1.7913402 1.5894878 -0.024293298
2.526921 -0.0024541866 0.2579776
0.022985363 1.8235258 1.8108789
4.9226017 1.4903295 1.0196713
5.9816332 3.9474072 0.60674471
3.6915386 3.1445522 2.0094326
2.0314028 1.6435405 2.0060761
5.7971954 3.958647 0.33850709
5.0798397 2.7089167 -0.0060097598
5.8171577 3.5462539 1.0754029
2.5806644 0.02198451 0.2114507
4.1153789 1.5040329 0.2453195
3.6270318 -0.0052385237 0.2458972
1.5551537 1.8070722 2.0100288
-0.0078590121 0.14861666 0.80995828
2.8238969 2.3231084 -0.00082762679
4.3641009 3.7473781 1.4922432
2.5409529 2.6677177 -0.020415151
2.9090679 1.1360016 1.9918715
2.9002314 1.86382 0.0028015671
2.132005 2.9948392 1.9956931
5.4739337 3.9169314 0.042559527
3.7549827 3.5186207 0.0016112562
4.0058179 1.4338515 0.022459816
4.4467707 3.3560007 -0.013314109
2.9543989 2.9036863 -0.0073937858
4.0025554 0.93260753 1.5969605
5.2522297 2.90044 1.9881792
3.3605235 1.86501 -0.0069535845
5.6617699 3.1980932 0.80290532
0.62481046 3.1282556 1.1856177
5.0856261 3.8546722 0.36532339
0.43274802 3.0845308 0.65775889
0.65951061 0.0061258427 1.1622379
4.3350062 1.6421839 2.0020645
4.6235967 2.4323354 2.0167949
1.1336769 0.45761406 1.9952575
5.0735006 3.8540006 1.3627223
4.2099485 3.2598724 0.0031462908
2.2277117 3.3403435 1.3365722
4.0134654 1.0159687 0.74267954
0.76835245 1.6754707 -0.009896866
-0.0029605776 1.5149879 0.67271215
5.1737747 1.9264604 0.14930058
0.80676168 3.1326201 1.1599725
1.1842763 0.60402536 2.0088918
3.9910007 0.29893556 0.86676919
0.094480582 1.6676387 0.004211965
0.0058621452 0.07060083 1.5078111
5.4093237 2.5147223 0.57893121
0.3262966 2.0244083 2.0034935
5.0196066 3.1281757 0.0073325997
2.3201649 0.95462197 -0.0091383243
3.773365 -0.0036426394 0.39807484
2.5624695 -0.0062751551 1.1386172
3.1533298 0.0022802483 0.085365221
1.1294498 0.85965067 0.014861782
3.3316982 3.5320029 2.0037239
2.1121793 1.3981094 -0.0014830675
5.342514 3.0052998 1.9915496
3.4703887 1.7958935 2.0012214
2.7688837 -0.0066988207 1.9045701
4.2454362 3.1086113 0.0041574598
3.8206723 -0.016154548 1.0456439
4.2530332 3.6973579 0.57945412
5.1885576 3.8404503 2.0002146
1.3708631 0.0074216416 1.7351365
-0.00075931381 2.0172095 0.45983505
-0.015431274 2.9468417 1.0291275
0.59100282 3.0969322 1.4808222
4.9740887 1.5111029 0.81766158
3.9960737 1.424472 1.0287554
3.251066 3.5377257 0.60827708
5.1754155 1.9488568 1.9823358
5.7685018 3.4184504 1.3696418
-0.0069457153 1.6940173 1.81554
1.9372854 3.2740462 1.9890463
0.0010565079 0.22781944 1.1440384
4.5800314 3.7813725 0.70436013
4.559979 2.5108848 -0.0080754943
1.6812075 1.0693626 2.0053992
2.5490522 3.2827144 -0.013160395
4.1975036 3.0246625 2.0027201
0.45996496 -0.00095913454 1.7912397
5.2453499 2.14627 0.99709612
0.006370889 1.8077899 0.0037763382
1.3760757 -0.0030670669 1.314329
4.7631412 3.6351058 1.9879314
0.005356269 2.0080149 0.068162411
0.0015289832 1.5103481 1.5217552
1.7602755 2.8106692 -0.0037521827
1.1900741 3.1640415 2.0081916
1.1768026 -0.0061804662 1.3832296
0.05250987 1.4214749 1.9978002
3.3068871 -0.0062572318 0.34796596
2.8415835 0.54976952 -0.0027208338
1.8646384 3.3236356 0.54348731
0.0032473293 2.5311439 1.7119836
4.6752543 1.5057855 0.18705665
5.44806 2.5889454 1.357699
1.7749245 0.27715373 0.0050189481
5.2866507 2.3809931 -0.0030903586
5.3628082 3.4525645 -0.01067179
1.1563209 -0.010556145 0.81495678
5.4933081 3.9178429 0.086015537
3.6921079 3.6025181 1.242976
-0.0070818011 0.080712512 1.0659901
5.2645764 2.155463 0.66404629
5.4632087 3.8960986 0.39117509
5.3526149 2.3657007 0.76305354
5.0091548 2.4475579 2.0150898
1.3927799 0.23943707 2.0140133
-0.0027493138 1.2066572 1.4040152
4.2694721 1.5146905 2.0003831
2.73648 3.442337 1.1478873
0.37670067 2.0946171 0.00069993467
4.0005908 0.57026148 0.41672224
2.6372566 3.4344413 1.1881006
0.0028938872 0.91352314 0.57593346
5.5787096 2.9752772 1.4420067
0.27833998 -0.013504867 1.4933054
1.4382206 0.17491248 0.01192306
2.2114077 -0.031588815 0.0023361868
2.1494474 3.3616796 1.7066978
3.6908557 3.6335416 0.69844025
3.1052399 0.003374709 0.96762681
0.0080205733 0.57956952 0.009335883
0.0020456214 0.30738762 0.33307037
5.8968515 3.6952345 0.23856315
0.0053898874 0.15121971 1.9065272
5.8454599 3.6095157 1.9224591
4.9421239 2.3584273 1.9883367
5.5304947 3.9161942 0.082417414
4.7388849 3.7938137 0.36939812
5.7451229 3.9513128 1.7751901
3.1661458 0.014061823 1.0109677
5.1004729 1.7106458 0.83473742
2.76085 1.0825814 1.9988728
0.0076736663 0.16703863 0.75415981
5.4633732 3.9103231 -0.019015597
0.0033512814 0.93416852 1.2735238
5.5944996 3.9495175 1.5921587
4.3772492 3.7489238 0.20676915
2.1935885 3.3768897 0.48612124
1.5835402 0.5193035 0.012940065
4.8226743 3.801981 0.8945365
4.0309014 3.6695113 1.8929634
5.9512782 3.9815073 0.76738739
3.6971018 2.4613242 0.00070728018
1.9051265 3.0850215 2.0085988
4.5460429 2.8121939 0.004946325
5.6435733 3.2907567 -0.00070251088
-0.008614732 0.079620309 1.7407786
2.5832698 2.1311593 2.0036085
5.7739315 3.9681773 0.45154661
5.4737525 2.7093141 1.511717
0.010651183 1.2409623 0.63035285
5.3211432 3.8948936 1.6781024
2.7318358 1.2678936 1.9853598
2.8008473 2.2985094 1.9996543
5.5396714 3.9326639 1.6604502
3.306675 1.0953199 0.011473462
5.7390957 3.3293543 0.076888576
3.7142758 3.6132922 0.85598171
1.427211 3.2369096 1.8983264
1.287694 2.5803008 4.0470226e-05
5.0801201 1.6563753 0.4749071
3.4217861 2.7089593 2.0044351
2.3834999 -0.0054580476 1.3362706
0.54367417 0.015321245 1.2998651
2.5700896 3.3838043 2.0161624
2.3871055 3.1894677 -0.0037973002
0.99268723 3.1790333 1.953022
0.80537385 3.13346 1.7992026
3.2550802 -0.0011544845 1.6037685
-0.0096937064 2.5830927 1.5558686
3.4960976 3.146013 1.9954679
0.82490605 1.5214837 -0.0020812575
2.3829999 3.3812242 1.3606479
2.3902719 0.0082232757 1.892966
1.9804584 2.2983911 1.9930069
5.6595283 3.1643159 1.423359
3.4235086 2.4598978 2.0042968
3.4217317 1.6190954 1.989409
0.26672852 3.0386524 1.20687
0.0090023596 1.3734288 0.42985272
1.6206996 3.2753167 0.45490968
0.06182183 1.0705724 0.012561103
0.01110823 0.63631582 0.90156043
0.81761104 0.033949267 1.9909455
0.017701076 0.90590841 -0.012480087
0.33865273 3.051584 0.95689952
5.4257836 2.575027 1.6400888
3.0198598 1.8103354 2.0074372
0.32976213 0.36159691 0.0038057843
2.7795448 3.4603872 0.14746143
3.3134453 0.00013904253 0.84939629
4.6870298 2.6650436 1.9967299
5.6092801 3.9343352 1.0389973
1.8565925 3.2835312 -0.024368417
2.8159533 3.4743981 1.7986771
0.31656504 2.8580544 1.984392
2.9259136 0.67347515 2.0001714
-0.017435078 0.84040278 0.67895496
0.83685195 3.1505971 1.2567086
0.74048907 2.1365032 1.9896967
3.8065267 3.6345057 0.68707305
2.8453503 3.4773469 1.7011787
4.0047164 1.0960313 1.8492087
4.1557693 3.7074165 0.99029523
1.5505388 3.2445793 0.0016891268
0.3924419 0.018891003 0.013346179
3.0876291 -0.00097229669 1.91566
2.4886954 1.237769 0.011456234
0.42388675 1.2956835 2.0001552
5.2386227 3.7040584 0.0026362671
3.5327876 1.5751411 1.9930651
4.0131421 0.39135602 0.80377972
1.7099154 1.4194851 1.9872893
1.5959862 3.2492259 1.3387594
1.5395927 0.87464535 1.9995748
1.1839992 0.79532927 0.010731667
2.2402134 0.85587656 2.0141113
1.6315413 -0.0085379574 0.18344077
4.2633162 2.0830154 -0.017865608
1.8819203 1.3807123 -0.0057878993
2.1013441 -0.011356847 0.31090832
1.2034935 -0.0045394227 0.7303552
5.5735788 2.946738 0.25688443
2.6087365 0.78565788 1.9891359
4.5427489 2.2550437 0.0078665093
0.78735894 2.2376063 2.0015359
2.8387806 0.23941486 2.0052154
-0.0049488801 1.694844 0.063325852
2.6536171 3.2146542 -0.0048619704
3.6518428 1.3660424 2.0021734
5.3960123 3.885896 1.0222526
0.74915326 3.1370656 0.62212622
3.9722376 3.6606529 1.4618441
5.1275678 3.8624978 0.69353336
5.7780776 3.4385743 0.2685616
5.2872801 2.2876918 1.3279179
4.1474538 3.7005608 1.0674319
2.4348896 0.63740355 2.0038111
5.7651854 3.7316065 2.007093
3.7547655 0.34356502 2.0165215
5.0114141 1.5421989 0.27345788
3.6787586 2.9339821 -0.00057849626
3.1829987 3.4421518 -0.0081561357
3.9953957 0.5406943 1.5039228
0.0035200641 0.23312488 1.4464455
1.2480767 3.1648483 0.0087408554
4.5428839 2.2943552 2.0135887
5.0256519 3.2478383 1.9987001
1.031351 3.1776886 0.80930525
4.9340601 1.4893562 1.9386557
2.0620029 1.2220184 1.996654
4.7715664 3.8019319 1.6241807
-0.0021696277 0.058371801 0.55544901
5.6501946 3.1209152 1.683243
0.87848186 0.77868998 2.0205832
5.1457567 1.8800395 0.4404816
3.7731016 3.620357 0.98815089
0.2716319 3.035006 0.30142093
4.7252731 3.7969801 1.5612111
3.9935527 0.70086789 0.29329404
-0.0051341169 0.0051141367 1.9273791
0.13626012 -0.018454116 0.46329787
1.7813615 2.7065578 1.9833376
1.0506468 2.4512491 0.001590326
0.014078035 2.4868443 0.8278653
1.8334209 3.3053052 0.4650141
5.1615458 3.8650854 1.5736393
1.5508766 3.1006176 -0.0044058659
2.9047909 2.6748483 1.9827614
0.00049933762 1.9607762 0.26835549
4.4235253 2.6545532 0.006042033
5.1986961 2.0268097 0.93269801
5.9121933 3.9815488 1.2042122
2.3071909 3.3904576 0.57816333
3.3037362 -0.0034542137 1.4577557
4.7937441 3.7994843 0.12323873
3.2372546 1.0294675 2.0026469
3.7249177 1.4490948 0.0073862071
2.4510574 2.9030328 1.9932554
2.5145767 -0.013739992 1.1232702
4.1482944 2.5294778 2.0051231
0.27611646 1.4293278 2.0101891
5.2064643 3.8843405 0.15306118
5.9883213 3.9463773 1.8238617
5.1801615 1.972611 1.2783108
2.7720356 1.6654482 0.017864816
-0.0034756367 2.7716792 1.0110444
2.1472919 0.0050216177 0.67436576
2.4737501 2.7976792 -0.014145822
5.6581531 3.1737664 0.68960571
3.6283457 3.6022897 1.6283073
4.353878 2.5811388 1.9894845
1.7667968 1.958657 1.9991646
2.0252578 2.848561 2.0031023
3.6127884 2.8476582 0.0077686934
3.5068893 3.5756814 0.43018112
0.013272669 1.9975492 0.36673597
0.42961496 0.0067603323 1.0169265
3.9966078 0.70836353 0.70005977
-0.0058529335 2.7061019 1.1845313
0.76390553 2.5287175 0.011394661
4.4404202 1.6197006 2.0043206
1.8991003 -0.0054505374 0.89391911
0.14651035 2.7960005 -0.01768456
5.4514265 3.8941393 0.30583265
2.2643867 0.95846874 -0.015021126
2.8105524 3.4613349 0.85069531
1.6763086 2.958704 1.9904016
5.2048297 1.9919162 1.9575717
1.808943 3.2977962 0.50267476
3.6046605 0.002684115 1.4668862
0.38686034 0.39957502 0.015405819
3.4290988 1.0858138 0.01012126
4.7044992 1.5121267 0.89908421
1.1471064 3.2145123 0.80357349
3.1510684 3.5113106 0.28766379
1.2352166 0.85607409 2.006701
4.006144 0.31779945 0.51134646
2.6289821 2.8094144 0.017151106
3.4166083 3.5659657 0.096461266
0.89940441 0.16817953 2.0001636
5.3202829 3.4123764 1.998278
2.6344731 2.56686 -0.0041643172
6.0116668 4.000658 0.88264835
4.9670773 3.8192751 0.50566709
1.3043876 2.2754111 1.9911786
3.4649737 1.4706458 2.0026383
3.2097824 2.3841417 0.00092105806
2.343827 3.3931146 0.093964234
1.0001854 2.3808918 0.00046656004
0.1649185 2.751112 -0.0071394951
4.0142555 0.87041557 0.53867477
4.2629461 1.4928662 1.9566302
2.3934338 2.8458505 1.9876747
